-0.045598 0.010463 0.844000
-0.039927 -0.012538 0.849000
0.043596 -0.003538 0.870000
-0.030462 0.023349 0.858000
0.034679 -0.009182 0.862000
-0.041773 0.020357 0.851000
-0.034134 -0.010380 0.844000
0.039909 -0.025797 0.860000
0.004542 0.012874 0.866000
0.020987 0.009331 0.868000
0.030734 -0.020973 0.851000
0.007180 -0.026957 0.841000
-0.023909 0.015804 0.851000
0.043752 0.010649 0.859000
0.024147 0.002181 0.866000
0.044105 0.011002 0.859000
0.036665 0.005752 0.867000
0.009866 0.021735 0.864000
0.008013 0.003918 0.856000
0.026043 0.021584 0.858000
0.003719 -0.024534 0.841000
0.001681 0.029810 0.861000
0.025661 0.007196 0.869000
0.034128 -0.003522 0.866000
-0.040387 0.011158 0.844000
-0.010061 0.020336 0.865000
-0.040339 0.009757 0.843000
0.008069 0.024877 0.862000
0.046496 0.003599 0.864000
-0.021098 0.036357 0.865000
0.012810 -0.015297 0.847000
-0.026870 0.005259 0.845000
0.023190 0.025791 0.857000
-0.010611 0.008809 0.852000
0.028363 -0.031185 0.843000
-0.031860 -0.000649 0.839000
-0.011378 0.012035 0.857000
0.001323 0.032215 0.859000
-0.014298 -0.012781 0.842000
0.034720 -0.008127 0.863000
-0.003208 -0.010702 0.842000
-0.006080 0.038797 0.856000
-0.029409 0.012956 0.848000
-0.014570 0.041006 0.858000
-0.024262 -0.009282 0.839000
-0.023641 0.019374 0.854000
0.021052 -0.027336 0.842000
0.005803 -0.026643 0.842000
-0.016611 0.010235 0.854000
-0.012084 0.041311 0.857000
-0.029618 -0.013506 0.844000
0.023272 -0.005621 0.860000
0.009603 -0.029034 0.841000
-0.003208 -0.011048 0.842000
0.015910 -0.021173 0.845000
0.009938 -0.025542 0.840000
0.042472 -0.002103 0.869000
-0.004715 0.028847 0.864000
0.016450 -0.005588 0.855000
-0.029894 0.002467 0.842000
0.018561 -0.009459 0.855000
-0.021845 -0.008591 0.839000
0.023533 -0.026359 0.844000
0.048645 0.010636 0.858000
0.045429 -0.013470 0.864000
0.023653 -0.003856 0.861000
-0.037820 0.003503 0.841000
-0.012775 0.042320 0.856000
0.043039 -0.008512 0.866000
0.001642 -0.022458 0.841000
0.035951 -0.003882 0.867000
0.042228 0.006444 0.864000
0.012387 -0.022484 0.842000
-0.000091 0.032922 0.859000
-0.011405 0.013477 0.859000
-0.029934 0.017245 0.853000
-0.004248 -0.012088 0.842000
-0.028542 0.002123 0.843000
-0.029721 0.021559 0.857000
-0.019796 -0.009293 0.840000
0.034478 -0.015830 0.857000
-0.005714 0.008829 0.854000
-0.005401 0.034377 0.860000
0.011321 -0.025542 0.840000
-0.000091 0.011369 0.860000
0.024418 -0.001733 0.863000
-0.039786 0.012577 0.846000
-0.043217 0.013258 0.845000
0.028227 -0.007391 0.860000
0.014879 0.007884 0.866000
0.027071 -0.026421 0.846000
0.012241 0.031751 0.856000
0.026019 0.006123 0.869000
0.029171 0.009321 0.867000
0.023924 -0.008433 0.858000
0.025330 -0.021546 0.846000
-0.014234 0.014538 0.859000
-0.021206 0.017285 0.855000
0.039739 0.007866 0.864000
-0.018017 0.010587 0.854000
-0.030384 -0.016672 0.846000
0.006324 0.012874 0.866000
0.016661 0.006815 0.866000
-0.024872 0.011909 0.848000
-0.039897 0.001080 0.841000
-0.005376 0.011316 0.856000
0.010308 -0.030802 0.842000
-0.021073 0.025291 0.864000
0.019040 -0.022912 0.845000
-0.039833 0.014335 0.847000
0.005116 -0.012796 0.843000
0.035635 -0.001386 0.868000
0.013220 -0.005562 0.851000
0.007326 0.006399 0.858000
0.019899 -0.014335 0.852000
-0.044173 0.018934 0.850000
-0.041429 0.011852 0.844000
0.041042 -0.001388 0.869000
-0.045250 0.005947 0.844000
0.019457 -0.018456 0.848000
-0.025931 0.023758 0.860000
0.014725 0.027555 0.857000
-0.011206 -0.017327 0.844000
-0.015383 0.034537 0.864000
-0.016113 0.024252 0.865000
-0.005728 0.011316 0.856000
0.032233 -0.006706 0.863000
0.019806 -0.038667 0.879000
-0.000805 0.023238 0.867000
0.008922 -0.029415 0.842000
0.012764 -0.020801 0.844000
0.009912 0.016834 0.868000
-0.023617 0.035329 0.866000
-0.005281 -0.017265 0.841000
0.018004 0.019910 0.862000
0.035237 -0.003882 0.867000
0.005810 -0.015572 0.843000
-0.018764 0.014487 0.856000
0.022774 0.005044 0.868000
-0.024378 0.000736 0.843000
0.033576 -0.022050 0.852000
-0.011142 0.022854 0.866000
-0.009111 -0.018000 0.843000
-0.020244 0.018781 0.859000
0.008840 0.016834 0.868000
-0.002512 -0.014842 0.841000
0.014085 0.023077 0.861000
0.020866 0.017447 0.863000
-0.027315 0.013305 0.848000
0.012719 -0.030073 0.841000
-0.022858 0.011250 0.851000
0.018337 0.021659 0.861000
0.045534 0.001825 0.866000
-0.037430 0.002807 0.840000
-0.022616 -0.002384 0.842000
0.044917 -0.020865 0.861000
-0.016279 0.010599 0.855000
-0.005688 -0.021299 0.850000
-0.026020 -0.003416 0.840000
0.019265 -0.009107 0.855000
0.014862 0.005739 0.865000
0.024091 -0.001024 0.864000
-0.033171 0.020804 0.855000
-0.022314 0.019795 0.857000
-0.032974 0.002811 0.841000
-0.035266 -0.020773 0.872000
-0.011485 0.021404 0.865000
-0.014672 0.021379 0.864000
-0.015375 -0.001695 0.844000
0.010971 0.011462 0.867000
-0.032783 0.008389 0.845000
0.029230 -0.024739 0.848000
-0.001519 0.018599 0.867000
0.018167 -0.011895 0.853000
0.038494 0.003615 0.868000
0.043398 -0.022938 0.859000
0.002398 0.025291 0.864000
-0.037786 -0.013570 0.848000
-0.034705 -0.007227 0.841000
-0.025548 0.022316 0.859000
0.043903 -0.002103 0.869000
0.005547 0.035274 0.856000
-0.016747 0.019533 0.861000
0.013571 -0.006963 0.851000
-0.027506 0.031372 0.865000
-0.018804 -0.004464 0.842000
0.017274 0.022014 0.861000
-0.023392 0.002128 0.845000
0.048798 -0.012447 0.867000
-0.024813 0.004220 0.846000
-0.012958 0.001781 0.845000
-0.032822 -0.014234 0.846000
0.040569 0.012417 0.859000
0.011708 -0.020429 0.843000
0.010626 0.016834 0.868000
0.016645 -0.018086 0.847000
0.011171 0.000746 0.855000
-0.023917 -0.007210 0.839000
0.015113 0.025498 0.859000
-0.010474 -0.013458 0.841000
-0.030660 0.006294 0.844000
-0.011971 0.005633 0.849000
0.022545 -0.020154 0.846000
0.011080 -0.008335 0.848000
0.029753 -0.013650 0.853000
-0.010248 0.007397 0.851000
0.036509 -0.026702 0.855000
0.037692 -0.005660 0.866000
0.005547 0.033512 0.856000
-0.033586 -0.004793 0.839000
-0.042074 0.009410 0.843000
0.025573 0.012518 0.866000
-0.033954 0.024028 0.857000
-0.025042 -0.001345 0.842000
-0.001475 -0.021445 0.842000
0.033497 -0.024097 0.850000
-0.015080 0.027163 0.867000
-0.046751 0.013970 0.846000
-0.038467 -0.002724 0.840000
-0.045275 0.020007 0.851000
-0.021845 -0.010318 0.839000
0.047618 0.003247 0.865000
-0.006130 0.030589 0.863000
0.012413 0.012547 0.868000
-0.023508 0.041197 0.862000
-0.023645 0.031802 0.867000
0.008107 0.020003 0.866000
0.024864 -0.029415 0.842000
-0.021633 0.019465 0.858000
-0.008051 -0.012420 0.841000
0.042472 -0.000672 0.869000
-0.016150 0.030731 0.867000
0.020842 0.018491 0.862000
-0.020214 -0.002040 0.843000
0.031669 -0.001741 0.867000
-0.039671 -0.016070 0.851000
-0.023180 0.039114 0.863000
-0.007137 0.011669 0.856000
-0.012670 0.006332 0.849000
0.027071 -0.025377 0.846000
-0.016767 0.037295 0.862000
-0.011077 0.016344 0.861000
0.041373 0.010319 0.861000
0.039601 0.010319 0.861000
-0.015466 0.005283 0.849000
0.034009 -0.008127 0.863000
-0.036604 -0.018916 0.853000
-0.031096 0.021533 0.856000
0.015628 0.011475 0.868000
0.027452 -0.024361 0.847000
-0.019514 0.017699 0.858000
0.004547 0.021096 0.867000
-0.024923 -0.007891 0.838000
-0.004594 -0.007929 0.842000
0.017199 -0.032803 0.840000
0.003084 0.033199 0.857000
-0.008626 0.031336 0.864000
0.004157 0.029067 0.860000
-0.010002 0.014201 0.860000
-0.004329 0.035356 0.858000
0.028733 -0.010854 0.854000
0.021352 -0.012260 0.854000
0.017649 0.020265 0.862000
-0.023531 0.012636 0.850000
-0.009458 -0.017307 0.843000
-0.005741 0.036062 0.858000
-0.032550 -0.004793 0.839000
-0.017480 -0.000306 0.845000
-0.016358 -0.009997 0.841000
0.001671 0.005327 0.856000
0.031656 0.021206 0.857000
-0.039624 -0.014651 0.850000
-0.027815 -0.012434 0.842000
-0.041727 0.000389 0.843000
-0.014655 0.020999 0.863000
-0.003208 -0.012781 0.842000
-0.015028 0.022090 0.864000
-0.001512 0.012830 0.863000
-0.015241 0.043729 0.856000
-0.000092 0.018599 0.867000
0.006826 -0.023814 0.840000
-0.007112 0.008819 0.853000
-0.035093 -0.007929 0.842000
-0.050766 0.014316 0.867000
-0.041773 0.021057 0.851000
-0.038348 0.010475 0.845000
0.016527 0.025144 0.859000
0.015214 -0.020478 0.845000
0.022065 -0.029034 0.841000
0.011158 -0.001012 0.854000
-0.016132 0.025349 0.866000
-0.003656 0.025706 0.866000
0.019964 -0.032457 0.840000
-0.045945 0.008726 0.844000
0.020345 -0.008766 0.856000
0.039253 -0.001030 0.869000
0.049569 -0.013175 0.868000
0.037767 -0.031324 0.876000
-0.034767 0.017205 0.851000
-0.014315 -0.002734 0.843000
-0.005641 -0.020429 0.843000
0.013127 0.010760 0.868000
-0.017728 0.015210 0.857000
0.038316 -0.008492 0.864000
-0.000090 0.037696 0.855000
-0.041527 0.014666 0.846000
0.047371 0.002541 0.867000
-0.008743 -0.014150 0.841000
0.006604 0.004622 0.856000
0.036266 -0.005304 0.866000
0.041304 0.002541 0.867000
-0.011365 0.041615 0.856000
0.027743 0.010034 0.867000
-0.005058 0.031264 0.862000
0.048798 -0.013517 0.867000
0.000258 -0.009326 0.843000
0.012764 -0.019759 0.844000
-0.006500 0.028524 0.865000
-0.013463 0.010951 0.855000
-0.028576 0.008726 0.844000
-0.029513 0.015804 0.851000
-0.044132 0.024352 0.856000
0.018422 0.003603 0.865000
0.029474 -0.035085 0.845000
0.027834 -0.023343 0.848000
0.017774 -0.013968 0.851000
-0.032589 -0.018129 0.849000
-0.028779 -0.017450 0.850000
0.046087 -0.015941 0.863000
-0.052907 0.007893 0.867000
-0.033558 -0.014948 0.847000
0.007054 0.015762 0.868000
-0.038439 0.013638 0.847000
-0.039506 0.025027 0.855000
-0.037697 -0.011101 0.846000
-0.019960 0.022749 0.862000
-0.029894 -0.011741 0.842000
-0.031627 -0.010355 0.842000
0.023214 -0.022564 0.845000
-0.019362 0.028947 0.867000
-0.013234 0.019934 0.863000
-0.034013 -0.007227 0.841000
0.020133 -0.000667 0.862000
0.040828 -0.019358 0.857000
0.030987 0.021937 0.858000
-0.021205 -0.012420 0.841000
-0.046293 0.011158 0.844000
0.012127 -0.009382 0.848000
-0.031096 0.020829 0.856000
0.003080 0.034569 0.856000
0.042534 -0.012744 0.863000
-0.025786 0.033586 0.867000
-0.033626 -0.005836 0.840000
-0.006508 0.027131 0.866000
-0.026303 -0.007547 0.838000
-0.010405 0.018890 0.864000
0.034979 -0.022401 0.852000
0.014553 -0.017737 0.847000
-0.011179 -0.006543 0.842000
0.026692 -0.027433 0.845000
0.011972 0.022749 0.862000
0.025012 -0.007382 0.859000
-0.047852 0.013986 0.847000
-0.007104 0.007055 0.852000
0.019663 0.025791 0.857000
-0.008060 -0.017979 0.842000
0.023561 -0.023608 0.845000
-0.025958 -0.007547 0.838000
-0.011915 0.001085 0.845000
-0.034307 0.024380 0.857000
0.043550 -0.014149 0.862000
0.024447 -0.001024 0.864000
0.031742 0.003620 0.869000
0.014137 -0.021817 0.843000
0.018648 -0.003847 0.859000
-0.028730 0.023377 0.859000
0.018129 0.012547 0.868000
0.017608 0.022696 0.860000
0.001995 -0.008295 0.844000
0.012184 -0.004517 0.852000
0.011903 0.029319 0.857000
-0.019821 0.015896 0.856000
-0.009514 0.002834 0.848000
-0.023684 0.000042 0.843000
0.019288 0.027170 0.856000
-0.014680 -0.001000 0.844000
-0.014350 0.023924 0.866000
-0.026993 0.024112 0.860000
0.044055 -0.003187 0.872000
-0.014281 -0.008958 0.841000
-0.034968 -0.002376 0.839000
-0.023337 -0.000305 0.843000
0.029823 -0.010867 0.855000
-0.008753 -0.008276 0.842000
0.026019 0.006839 0.869000
0.036861 -0.020720 0.855000
-0.023073 0.043529 0.859000
0.025648 -0.025694 0.845000
-0.004736 0.007545 0.868000
0.024475 0.000755 0.865000
-0.012225 0.028947 0.867000
0.003124 0.017906 0.868000
-0.024985 0.040937 0.864000
0.015857 0.001106 0.861000
-0.045329 0.020381 0.852000
0.046087 -0.016296 0.863000
0.022774 0.009689 0.868000
0.011658 0.008231 0.865000
-0.015890 0.009170 0.853000
-0.004589 -0.015189 0.841000
-0.007533 0.014217 0.861000
0.011698 0.012904 0.868000
0.035553 -0.004591 0.866000
0.007768 0.018263 0.868000
-0.028541 0.030269 0.864000
0.017954 -0.024940 0.843000
-0.016864 0.029304 0.867000
0.018714 -0.021198 0.846000
0.014254 -0.011153 0.850000
-0.030462 0.023703 0.858000
0.031559 -0.004936 0.864000
-0.005735 0.037431 0.857000
0.012726 0.007875 0.865000
0.039027 0.007866 0.864000
-0.044225 0.020357 0.851000
-0.047043 0.012214 0.845000
0.010642 -0.028342 0.841000
-0.026347 0.025587 0.862000
-0.022190 -0.007901 0.839000
0.027420 -0.026421 0.846000
-0.007943 0.021810 0.867000
-0.014604 0.016325 0.860000
0.040475 0.015915 0.857000
-0.043064 0.006973 0.842000
-0.041826 0.013258 0.845000
-0.018413 -0.008256 0.840000
0.000603 -0.022111 0.841000
0.042288 -0.019380 0.858000
0.011833 -0.003465 0.852000
0.016161 -0.027617 0.840000
-0.006500 0.018200 0.865000
0.030351 -0.008099 0.860000
-0.003563 -0.005864 0.844000
0.019755 -0.002438 0.861000
0.003719 -0.023496 0.841000
0.012608 0.028966 0.857000
-0.011179 -0.010008 0.842000
-0.018759 -0.006873 0.840000
0.040002 -0.012375 0.862000
0.005573 0.008184 0.860000
-0.003618 0.011682 0.857000
-0.006478 0.014943 0.862000
0.028599 -0.016751 0.850000
-0.019844 -0.004117 0.842000
0.016933 -0.022885 0.844000
0.010296 -0.023842 0.841000
-0.019150 -0.004464 0.842000
0.013888 -0.013237 0.849000
0.033852 0.015599 0.859000
0.027092 0.007196 0.869000
-0.051539 0.012904 0.868000
0.003080 0.036683 0.856000
-0.004324 0.011682 0.857000
-0.003303 0.023238 0.867000
0.020392 -0.005961 0.858000
-0.044850 0.010104 0.843000
0.011429 -0.009731 0.848000
0.010032 -0.008335 0.848000
-0.020488 -0.006527 0.840000
0.034438 -0.017573 0.856000
0.039201 -0.026505 0.860000
0.009544 0.018599 0.867000
0.024249 0.023675 0.857000
0.011509 -0.001715 0.854000
0.028363 -0.030144 0.843000
0.026488 -0.005982 0.861000
0.042018 0.002184 0.867000
0.038711 -0.023943 0.857000
-0.031301 0.015822 0.852000
0.014523 0.017864 0.866000
0.015592 0.006459 0.866000
-0.012451 0.039594 0.858000
-0.005795 0.027488 0.866000
0.016249 0.020289 0.863000
0.016762 -0.010490 0.853000
-0.035093 0.004893 0.842000
-0.011179 -0.007583 0.842000
0.023159 -0.037083 0.843000
-0.027881 0.004210 0.844000
-0.028923 0.003863 0.844000
-0.040984 0.006973 0.842000
-0.016431 0.021354 0.863000
-0.032550 -0.003066 0.839000
-0.030971 0.004899 0.843000
-0.029618 0.004210 0.844000
0.033537 -0.010576 0.860000
-0.002943 0.017151 0.866000
-0.014923 0.041713 0.858000
0.031486 0.013524 0.862000
-0.010140 -0.009315 0.842000
-0.001129 -0.008969 0.842000
-0.026113 0.001429 0.843000
0.014204 -0.017040 0.847000
-0.012939 0.024665 0.867000
0.013081 -0.023524 0.842000
0.026811 0.018094 0.860000
-0.028745 0.014718 0.849000
0.016488 0.027202 0.857000
-0.043882 0.026175 0.858000
0.040122 0.015210 0.857000
0.030848 -0.004225 0.864000
0.007901 -0.016632 0.844000
0.027387 -0.036824 0.845000
-0.030478 -0.003412 0.839000
0.020939 0.013944 0.866000
0.031231 -0.015090 0.855000
-0.035218 -0.011087 0.845000
0.015985 0.010403 0.868000
0.047152 0.004305 0.863000
0.035197 0.008597 0.866000
-0.019960 0.039424 0.862000
0.006842 -0.027336 0.842000
0.014489 0.005377 0.864000
-0.047027 0.017905 0.851000
-0.002581 0.014267 0.864000
0.029893 0.022264 0.857000
-0.012379 0.009872 0.853000
-0.006440 0.038489 0.857000
0.017731 0.005033 0.866000
-0.035093 0.004547 0.842000
0.014467 -0.033227 0.842000
-0.006840 0.016382 0.863000
-0.015062 0.024993 0.866000
0.019017 -0.023927 0.844000
-0.027122 -0.013474 0.842000
0.019378 0.021634 0.860000
-0.010710 0.014909 0.860000
-0.031154 -0.018805 0.848000
0.004553 0.017191 0.868000
-0.008826 0.003536 0.849000
0.016230 0.001462 0.862000
-0.009251 0.040206 0.856000
0.041399 -0.004607 0.869000
-0.034053 -0.007929 0.842000
0.011223 0.004639 0.859000
-0.015927 0.010599 0.855000
-0.019543 -0.001000 0.844000
-0.000089 -0.021419 0.841000
0.011341 0.013618 0.868000
-0.023337 -0.000999 0.843000
0.032271 -0.005291 0.864000
0.000614 0.038092 0.856000
-0.025012 -0.002035 0.841000
-0.016724 -0.005503 0.842000
-0.046806 0.015032 0.847000
-0.020142 -0.008947 0.840000
0.026999 0.011092 0.866000
-0.042915 -0.001385 0.867000
0.043903 -0.000672 0.869000
-0.015630 0.041713 0.858000
-0.024407 0.002126 0.844000
0.037344 0.015580 0.858000
0.017565 -0.026611 0.841000
-0.018089 -0.012073 0.841000
0.019961 -0.038271 0.870000
0.020345 0.026818 0.856000
0.026999 0.000399 0.866000
-0.016050 -0.003428 0.843000
-0.043462 0.010104 0.843000
-0.019219 -0.000654 0.845000
0.039163 -0.005310 0.867000
-0.010486 -0.007929 0.842000
0.034961 0.001831 0.869000
-0.023740 0.002128 0.845000
0.026936 -0.002091 0.864000
-0.020409 0.027844 0.866000
-0.031466 -0.015994 0.847000
-0.020694 0.038759 0.863000
0.016993 -0.019132 0.847000
0.027327 -0.010503 0.854000
-0.022190 -0.009282 0.839000
-0.040865 0.023592 0.854000
-0.000801 0.029490 0.862000
-0.036004 -0.002721 0.839000
-0.011887 -0.003775 0.843000
-0.029270 0.009421 0.844000
0.000622 0.023238 0.867000
-0.031485 0.022617 0.857000
-0.001874 0.016439 0.866000
-0.044485 0.024352 0.856000
0.023561 -0.020130 0.845000
-0.044225 0.020007 0.851000
0.005116 -0.015572 0.843000
0.013905 -0.008354 0.850000
0.017920 -0.004548 0.858000
-0.035159 0.018277 0.852000
0.017057 0.008260 0.868000
-0.051123 0.007839 0.861000
0.036637 0.015934 0.858000
0.003433 0.034217 0.856000
0.006281 0.007830 0.860000
-0.027716 -0.007210 0.839000
0.003719 -0.019688 0.841000
0.031952 -0.004229 0.865000
0.041935 -0.018674 0.858000
0.024953 -0.026042 0.845000
-0.005438 0.018577 0.866000
0.011680 -0.024188 0.841000
0.037292 -0.006722 0.865000
-0.022851 0.038093 0.864000
-0.035313 -0.001340 0.839000
-0.018123 0.042115 0.859000
0.029963 -0.023021 0.849000
0.009134 0.006783 0.862000
-0.039978 -0.018282 0.873000
0.026195 -0.003509 0.863000
0.029368 -0.015037 0.852000
-0.047391 0.008389 0.845000
0.030170 -0.029868 0.845000
-0.037305 -0.010392 0.845000
0.029928 -0.024390 0.848000
0.013438 0.018912 0.865000
-0.026608 0.022670 0.859000
0.033096 -0.002098 0.867000
0.041304 0.003254 0.867000
0.000258 -0.023177 0.842000
0.008565 -0.022111 0.841000
-0.009208 0.008809 0.852000
0.024834 -0.031803 0.841000
0.017038 0.015387 0.867000
-0.025221 0.012607 0.848000
0.019619 -0.032457 0.840000
0.012734 -0.022138 0.842000
-0.020883 -0.013474 0.842000
-0.012553 0.031728 0.865000
0.016324 0.007893 0.867000
0.008116 0.012175 0.867000
0.003095 0.029775 0.860000
-0.007915 0.030625 0.864000
0.026344 -0.026738 0.845000
0.014171 -0.019782 0.845000
-0.005082 0.027131 0.866000
0.026437 -0.017758 0.848000
-0.041009 0.027555 0.857000
-0.024262 -0.005484 0.839000
-0.006418 0.007423 0.854000
0.015910 -0.020478 0.845000
0.025100 -0.015351 0.850000
-0.024259 0.016154 0.851000
-0.001874 0.017151 0.866000
-0.036218 -0.008990 0.844000
-0.029442 -0.007901 0.839000
-0.004008 0.016420 0.865000
-0.010380 0.017427 0.862000
0.022003 -0.014335 0.852000
0.004769 -0.012449 0.843000
-0.026701 0.026297 0.862000
-0.022481 0.008088 0.850000
-0.012567 0.023567 0.866000
0.024946 0.006481 0.869000
-0.017790 0.018094 0.860000
-0.030951 0.015822 0.852000
0.014405 0.025498 0.859000
0.001646 -0.009673 0.843000
0.032457 0.004335 0.869000
0.048404 0.008184 0.860000
-0.012292 0.003528 0.847000
0.020086 0.021634 0.860000
0.028129 -0.008070 0.857000
0.005968 0.021429 0.866000
-0.013864 0.040300 0.858000
-0.012939 0.027876 0.867000
-0.011567 0.000042 0.845000
0.020310 -0.033494 0.840000
-0.010486 -0.004117 0.842000
-0.038604 0.008716 0.843000
0.010756 -0.005556 0.850000
0.015236 0.006459 0.866000
0.001671 0.007089 0.856000
-0.000436 -0.023899 0.843000
-0.001475 -0.011048 0.842000
0.040280 0.001472 0.868000
0.030662 -0.024418 0.849000
0.030955 0.008607 0.867000
-0.001820 -0.016227 0.841000
0.008219 -0.022458 0.841000
0.032513 -0.008817 0.861000
0.023478 -0.036693 0.842000
-0.020268 0.019864 0.860000
0.019365 -0.024622 0.844000
0.022695 0.001467 0.865000
0.027355 -0.029138 0.844000
0.010269 0.017191 0.868000
0.024721 -0.016381 0.849000
0.044208 0.008902 0.861000
0.037206 -0.009548 0.863000
0.031023 0.017013 0.859000
-0.005974 -0.013804 0.841000
-0.030036 0.011532 0.846000
-0.002205 0.009202 0.856000
-0.014889 0.043025 0.856000
-0.040913 0.025379 0.855000
0.028748 -0.002093 0.865000
0.006259 0.005686 0.857000
-0.015010 0.035207 0.863000
0.038448 0.014184 0.859000
-0.017161 0.023513 0.864000
0.015201 0.003954 0.864000
-0.045358 0.015362 0.846000
-0.022157 0.010900 0.851000
0.033615 -0.009182 0.862000
0.027231 -0.014318 0.851000
-0.025690 0.017926 0.852000
0.031598 -0.032689 0.846000
0.002337 -0.011048 0.842000
0.017214 -0.003136 0.858000
0.013650 0.029284 0.856000
0.007891 -0.018694 0.843000
-0.027830 0.029914 0.864000
-0.009909 0.008107 0.852000
-0.011526 -0.013474 0.842000
-0.017975 0.008458 0.852000
0.004195 0.018977 0.868000
0.033299 -0.007416 0.863000
0.015358 -0.007331 0.853000
0.036707 -0.002101 0.868000
-0.046861 0.005277 0.848000
-0.021131 0.009861 0.852000
0.033530 0.003977 0.869000
0.009661 -0.010056 0.846000
-0.008753 -0.005850 0.842000
0.006834 -0.024881 0.841000
-0.011526 -0.014514 0.842000
0.031121 -0.019946 0.852000
0.002026 0.008508 0.857000
0.024688 0.019510 0.860000
0.037431 -0.014116 0.860000
0.028744 -0.034696 0.844000
-0.024687 0.029983 0.866000
0.023450 -0.030419 0.841000
-0.005413 0.031264 0.862000
-0.027182 0.031765 0.866000
0.021123 -0.005261 0.859000
-0.035313 -0.000304 0.839000
-0.027182 0.031409 0.866000
-0.038604 0.008022 0.843000
-0.003296 0.027100 0.865000
-0.009132 -0.000306 0.845000
-0.009446 -0.008276 0.842000
0.038756 -0.016908 0.858000
0.010975 -0.025542 0.840000
-0.049013 0.012622 0.849000
-0.026334 -0.005138 0.839000
-0.029132 -0.000996 0.840000
0.000951 -0.011741 0.842000
0.018296 -0.037814 0.876000
0.012170 -0.005562 0.851000
-0.028576 0.006642 0.844000
-0.029583 0.002817 0.843000
0.008013 0.002156 0.856000
-0.034622 -0.004102 0.839000
0.037465 0.000758 0.869000
-0.028228 0.004905 0.844000
0.005267 0.016476 0.868000
0.006496 -0.019365 0.842000
-0.019891 -0.000653 0.844000
0.040544 0.004320 0.866000
0.008943 -0.016980 0.844000
0.026531 -0.014318 0.851000
-0.039124 -0.018577 0.870000
-0.009592 0.011303 0.855000
0.031934 -0.017201 0.855000
0.014622 -0.008364 0.851000
-0.027734 0.025203 0.861000
0.026027 -0.024680 0.846000
0.013888 -0.013935 0.849000
0.019778 -0.000667 0.862000
-0.031702 0.007337 0.844000
0.032791 0.016659 0.859000
0.008209 -0.025542 0.840000
-0.035551 0.019351 0.853000
0.033459 0.017699 0.858000
-0.023945 -0.003762 0.840000
0.044510 0.009599 0.860000
0.009176 0.010736 0.866000
0.001644 -0.011395 0.842000
0.010186 0.025203 0.861000
0.001644 -0.016246 0.842000
-0.009933 0.010938 0.854000
0.042472 -0.001745 0.869000
-0.010429 0.029626 0.866000
-0.008888 0.011303 0.855000
0.005560 0.031472 0.858000
-0.001854 0.010624 0.857000
-0.046861 0.015748 0.848000
-0.006478 0.014234 0.862000
0.025527 -0.033188 0.841000
0.039073 0.006451 0.865000
-0.037775 0.001770 0.840000
0.017154 -0.007348 0.855000
0.003469 0.023540 0.865000
0.026088 -0.017409 0.848000
0.039163 0.003968 0.867000
-0.009921 0.009521 0.853000
-0.032190 0.023322 0.857000
-0.038180 0.016465 0.849000
-0.027444 0.016874 0.852000
0.037692 0.008954 0.866000
0.004220 0.003277 0.873000
0.040664 -0.026535 0.861000
-0.000798 0.032569 0.859000
0.024517 -0.029762 0.842000
-0.009660 0.014926 0.861000
0.015488 -0.025573 0.841000
0.008022 0.031082 0.857000
0.021222 0.018158 0.863000
-0.018808 0.016640 0.858000
-0.009359 0.029626 0.866000
0.015322 -0.012567 0.851000
0.049409 0.008881 0.859000
0.024716 0.018470 0.861000
0.042018 -0.007094 0.867000
-0.001870 0.027780 0.864000
-0.033746 0.005246 0.843000
0.002744 0.029455 0.861000
-0.006327 -0.007236 0.842000
-0.010949 0.008098 0.851000
0.015394 -0.003125 0.855000
-0.037482 0.025791 0.857000
0.029596 0.003262 0.869000
0.013842 0.014690 0.868000
-0.031169 -0.006174 0.839000
0.009301 -0.011087 0.845000
-0.045733 0.020756 0.853000
-0.023208 0.013702 0.851000
0.020705 -0.027336 0.842000
-0.009727 0.023951 0.867000
0.032009 -0.011245 0.857000
-0.038166 0.004195 0.841000
-0.028923 0.006642 0.844000
-0.012211 0.022854 0.866000
-0.033360 0.004200 0.842000
-0.036261 0.009432 0.845000
0.015617 -0.016013 0.848000
0.008840 0.014690 0.868000
0.011658 0.007875 0.865000
-0.036652 0.011532 0.846000
-0.005394 0.035044 0.859000
-0.026175 0.006997 0.845000
0.036467 -0.023156 0.854000
0.025129 0.015316 0.863000
-0.040638 0.007666 0.842000
-0.021684 0.021280 0.860000
-0.020512 -0.004458 0.841000
-0.022912 0.017947 0.853000
0.008088 -0.008136 0.864000
-0.013204 0.017761 0.861000
0.047618 -0.015266 0.865000
0.005975 0.020383 0.867000
0.031841 -0.008117 0.862000
-0.033320 0.002465 0.841000
-0.019914 0.041810 0.860000
-0.023563 0.038093 0.864000
-0.022392 0.042518 0.860000
-0.026303 -0.006167 0.838000
0.014587 -0.014634 0.849000
-0.027443 0.028458 0.863000
-0.018830 0.042468 0.859000
0.004526 0.025261 0.863000
0.006273 0.007467 0.859000
0.040263 -0.025797 0.860000
0.032345 -0.002809 0.866000
-0.025328 -0.003070 0.840000
-0.026774 0.018649 0.853000
-0.013880 0.038933 0.859000
0.020754 -0.025317 0.844000
0.009900 0.011819 0.867000
0.034953 0.014909 0.860000
0.045177 0.002181 0.866000
0.042081 0.009611 0.861000
-0.009805 -0.018000 0.843000
0.025181 -0.031457 0.841000
0.048162 0.005010 0.862000
-0.021507 0.014436 0.853000
-0.021659 0.020195 0.859000
0.004757 -0.025227 0.841000
-0.007029 -0.005510 0.843000
-0.018782 -0.006535 0.841000
-0.038484 -0.012872 0.848000
-0.037790 0.024352 0.856000
-0.044433 0.023620 0.855000
-0.012582 0.028947 0.867000
0.007385 0.010723 0.865000
0.006488 -0.022458 0.841000
-0.028406 -0.006520 0.839000
0.015872 -0.023552 0.843000
-0.011485 0.031016 0.865000
-0.026491 0.002126 0.844000
-0.018132 -0.003428 0.843000
0.006658 0.008922 0.863000
0.017134 -0.008745 0.854000
-0.004243 -0.015881 0.841000
-0.000091 0.034297 0.858000
0.019062 -0.020850 0.846000
-0.025359 -0.001343 0.841000
-0.012538 0.020312 0.864000
0.010320 -0.019735 0.843000
0.007759 0.013246 0.867000
-0.026732 0.027748 0.863000
0.000973 0.028780 0.862000
-0.014350 0.024280 0.866000
0.039201 0.012431 0.860000
0.026377 0.005050 0.869000
-0.014035 0.003528 0.847000
0.017057 0.008617 0.868000
-0.000091 0.008145 0.856000
0.017941 -0.003493 0.859000
0.024286 -0.020154 0.846000
0.023824 -0.029415 0.842000
0.022184 -0.005614 0.859000
-0.017132 0.000042 0.845000
-0.021154 -0.009282 0.839000
0.013314 0.001806 0.857000
-0.016728 0.017740 0.860000
-0.028964 0.032121 0.866000
0.025396 -0.007037 0.860000
-0.004329 0.035709 0.858000
-0.008972 0.032365 0.863000
0.037163 -0.010956 0.862000
0.032952 -0.018587 0.854000
-0.033746 -0.009326 0.843000
0.044413 0.003603 0.865000
0.043495 0.000400 0.868000
0.012298 0.025882 0.860000
0.033888 0.001116 0.869000
0.038449 0.004682 0.867000
-0.034277 -0.003066 0.839000
-0.009013 0.026449 0.867000
0.044362 -0.013115 0.864000
0.024517 -0.035653 0.842000
0.047530 0.012388 0.857000
-0.021709 0.021659 0.861000
0.002741 0.004290 0.860000
-0.040674 0.018934 0.850000
0.005954 0.023868 0.864000
-0.015964 0.043075 0.857000
-0.006073 0.010951 0.855000
0.014456 0.003236 0.862000
-0.019696 0.033547 0.866000
0.027007 -0.028443 0.844000
0.022411 -0.030073 0.841000
-0.003920 -0.022243 0.846000
0.027702 -0.036085 0.844000
-0.002858 -0.017958 0.841000
-0.004022 0.022550 0.868000
-0.019105 -0.008602 0.840000
-0.032896 -0.005484 0.839000
-0.006320 -0.013804 0.841000
0.031377 0.017013 0.859000
-0.030456 -0.018107 0.848000
-0.016012 -0.006881 0.841000
0.034937 -0.024476 0.851000
-0.025328 -0.002724 0.840000
0.006850 -0.013490 0.843000
-0.009305 0.015281 0.861000
0.029289 0.017033 0.860000
0.039739 -0.009914 0.864000
0.015930 0.017844 0.865000
-0.045358 0.014318 0.846000
0.005796 -0.021765 0.841000
-0.032153 0.021181 0.856000
0.017057 0.010403 0.868000
0.028424 -0.001027 0.866000
0.001337 0.019335 0.868000
0.019175 -0.015369 0.851000
0.027418 0.002186 0.868000
-0.040324 -0.014651 0.850000
0.012825 -0.010429 0.848000
-0.028730 0.024084 0.859000
-0.023261 0.034616 0.866000
-0.024956 0.040180 0.863000
0.028801 -0.009470 0.856000
-0.010405 0.032047 0.864000
-0.016507 0.029661 0.867000
0.030865 -0.033346 0.845000
0.012341 0.022065 0.863000
0.021077 -0.026675 0.843000
-0.037697 0.012229 0.846000
-0.000092 0.024993 0.866000
-0.027379 0.025912 0.861000
0.044156 -0.021549 0.860000
0.033415 0.008954 0.866000
-0.002223 0.013540 0.863000
0.028016 -0.030491 0.843000
-0.015775 0.032121 0.866000
0.036948 0.018031 0.857000
0.013485 0.012904 0.868000
0.007223 -0.009011 0.846000
0.038896 0.009700 0.869000
-0.016724 -0.012434 0.842000
-0.020829 0.012696 0.854000
0.015985 0.012547 0.868000
-0.001822 -0.010355 0.842000
-0.045275 0.019656 0.851000
-0.002923 0.032961 0.860000
-0.019891 0.042115 0.859000
0.019002 0.023730 0.859000
-0.018584 0.023868 0.864000
0.032009 -0.010539 0.857000
-0.019514 0.043478 0.858000
-0.046347 0.005954 0.845000
0.029788 -0.011909 0.854000
0.039969 -0.003176 0.869000
0.012313 0.024494 0.861000
0.009997 -0.012826 0.845000
0.005194 0.033160 0.856000
-0.016279 0.046845 0.855000
0.018431 -0.017430 0.849000
0.008840 0.017191 0.868000
-0.010344 0.013124 0.859000
-0.032550 -0.000995 0.839000
-0.028228 -0.015243 0.844000
-0.036436 -0.005843 0.841000
0.008473 0.018599 0.867000
-0.016650 0.044434 0.856000
0.036453 -0.010956 0.862000
-0.043113 -0.013221 0.871000
-0.014992 -0.005850 0.842000
0.021552 -0.002441 0.862000
-0.006320 -0.016919 0.841000
0.023433 -0.012948 0.853000
0.034317 -0.021374 0.853000
0.018066 0.004671 0.865000
0.014896 0.009321 0.867000
0.007661 0.002156 0.856000
-0.034787 -0.009673 0.843000
0.021576 -0.016731 0.849000
0.027583 0.015298 0.862000
0.011889 0.000747 0.856000
-0.019474 -0.004804 0.841000
0.010626 0.013261 0.868000
0.005122 -0.011074 0.844000
0.025527 -0.032149 0.841000
-0.000802 0.012474 0.863000
-0.017537 0.025320 0.865000
0.039955 0.010674 0.861000
0.022223 -0.018434 0.847000
0.023214 -0.024651 0.845000
-0.026523 0.005259 0.845000
-0.028046 0.014718 0.849000
0.009912 0.013261 0.868000
-0.001876 0.022524 0.867000
0.034559 0.015599 0.859000
0.013842 0.012547 0.868000
0.011040 -0.017000 0.845000
0.016469 0.028227 0.856000
0.022416 0.011475 0.868000
-0.013864 0.040653 0.858000
0.022721 0.013231 0.866000
-0.021756 0.006681 0.849000
0.017013 -0.017409 0.848000
0.008943 -0.016632 0.844000
0.027938 -0.005989 0.862000
-0.012422 0.045138 0.856000
-0.023126 0.006673 0.848000
-0.006433 0.011316 0.856000
0.031596 0.011435 0.865000
-0.017201 0.033191 0.866000
0.037206 -0.010258 0.863000
-0.029166 -0.010689 0.841000
0.035266 -0.014100 0.859000
-0.006130 0.015316 0.863000
0.025959 0.001827 0.867000
0.012726 0.019624 0.865000
0.049112 0.007122 0.860000
-0.014689 0.023184 0.865000
-0.012225 0.029304 0.867000
0.003457 0.027006 0.862000
0.035225 0.016287 0.858000
0.021719 -0.035611 0.841000
0.009649 -0.016652 0.845000
0.026874 0.016363 0.862000
0.032791 -0.010918 0.859000
-0.021429 0.025291 0.864000
-0.026299 0.014718 0.849000
-0.039158 -0.000304 0.840000
-0.024551 0.012971 0.849000
0.025042 0.019156 0.860000
-0.040021 -0.015719 0.851000
0.041066 0.009267 0.862000
-0.013952 -0.012781 0.842000
0.029391 -0.004575 0.863000
0.024659 -0.007736 0.859000
-0.017477 0.020975 0.862000
-0.020854 0.016934 0.855000
0.027583 -0.004924 0.862000
-0.024544 0.024140 0.861000
-0.017022 0.043075 0.857000
-0.004665 0.009895 0.855000
-0.044556 0.011852 0.844000
0.024203 0.009689 0.868000
0.032159 -0.008817 0.861000
-0.001127 -0.018996 0.841000
-0.027716 -0.004102 0.839000
0.025904 -0.035307 0.842000
0.012885 -0.004166 0.852000
-0.011581 0.001435 0.846000
-0.021457 0.008798 0.851000
-0.016864 0.026806 0.867000
-0.036826 0.006626 0.842000
-0.040291 0.005933 0.842000
0.010971 0.010748 0.867000
-0.025539 0.009803 0.847000
-0.002909 0.039854 0.856000
0.024008 -0.004564 0.861000
0.004137 0.005679 0.856000
-0.019378 0.008809 0.852000
0.001675 0.033590 0.858000
-0.019983 0.024196 0.863000
0.031231 -0.014034 0.855000
0.020987 0.008617 0.868000
0.046442 -0.016652 0.863000
-0.029477 -0.008602 0.840000
0.010626 0.016119 0.868000
-0.018627 0.033547 0.866000
-0.002862 -0.011741 0.842000
0.022758 -0.031111 0.841000
-0.009230 0.010587 0.854000
-0.021871 -0.012405 0.840000
-0.007933 0.037468 0.866000
-0.040115 0.021809 0.853000
-0.004248 -0.020058 0.842000
-0.013265 0.022116 0.865000
0.027102 0.020877 0.858000
0.039208 -0.029609 0.868000
-0.017071 -0.012434 0.842000
0.003116 0.014656 0.866000
-0.024031 -0.000652 0.843000
-0.025072 0.032159 0.867000
0.011986 0.022065 0.863000
-0.005088 0.025379 0.867000
0.020156 0.000753 0.863000
-0.022881 -0.005829 0.839000
0.038802 -0.015514 0.859000
0.008365 0.001804 0.856000
0.040475 -0.021121 0.857000
-0.032666 0.015103 0.851000
0.026519 -0.005279 0.862000
-0.013783 0.008819 0.853000
-0.045084 0.021835 0.854000
0.033420 0.019089 0.857000
0.035578 0.019465 0.858000
0.001296 -0.022804 0.841000
-0.024523 0.010513 0.848000
-0.016670 0.043075 0.857000
-0.008517 0.009521 0.853000
0.046905 -0.012774 0.865000
-0.011526 -0.008276 0.842000
0.032777 0.006116 0.868000
-0.007560 0.030980 0.864000
-0.028574 0.031372 0.865000
0.021719 -0.029380 0.841000
0.020273 0.007188 0.868000
0.020250 -0.013634 0.852000
0.022065 -0.030419 0.841000
-0.006094 0.037122 0.858000
0.015466 0.025498 0.859000
-0.003635 0.013154 0.861000
-0.016076 0.035917 0.863000
-0.032704 0.016523 0.852000
-0.031514 -0.006174 0.839000
-0.034563 0.009443 0.846000
-0.014587 0.014891 0.859000
-0.001820 -0.016919 0.841000
0.008041 0.001457 0.859000
-0.009294 0.014201 0.860000
0.025366 0.020548 0.859000
-0.011841 0.021760 0.865000
0.032720 -0.030323 0.848000
0.025396 0.019156 0.860000
-0.016088 0.000737 0.845000
-0.005017 0.007784 0.855000
-0.036479 0.006280 0.842000
-0.030987 0.017596 0.853000
-0.045760 0.015381 0.847000
-0.026962 0.022316 0.859000
0.025750 -0.006329 0.860000
-0.017785 -0.003428 0.843000
0.000617 0.031545 0.860000
0.012042 0.010748 0.867000
-0.009749 0.038671 0.869000
0.022416 0.005402 0.868000
0.038761 -0.006017 0.866000
0.025425 -0.004919 0.861000
-0.036047 0.002807 0.840000
-0.012581 -0.002040 0.843000
-0.025298 -0.005829 0.839000
-0.004248 -0.013474 0.842000
-0.005445 0.021096 0.867000
0.040875 -0.019027 0.858000
0.029439 -0.030527 0.844000
0.013205 -0.007655 0.850000
-0.000435 -0.016919 0.841000
0.002049 0.016101 0.867000
0.018366 -0.036519 0.846000
0.006149 -0.026989 0.842000
0.023506 -0.028062 0.843000
0.012055 -0.020776 0.843000
-0.011526 -0.007583 0.842000
0.048701 0.009235 0.859000
-0.017112 -0.002043 0.844000
-0.032899 0.011909 0.848000
-0.005288 -0.010008 0.842000
-0.012306 0.004928 0.848000
0.003077 0.005321 0.855000
-0.029016 0.021206 0.857000
-0.035701 0.002807 0.840000
-0.014680 -0.001695 0.844000
-0.035313 -0.001685 0.839000
-0.038859 -0.003074 0.841000
0.020987 0.008260 0.868000
0.014989 -0.006971 0.852000
-0.019844 0.016973 0.857000
-0.023535 0.039114 0.863000
-0.008407 -0.010702 0.842000
-0.011232 0.001783 0.846000
-0.012819 0.039286 0.859000
0.009102 0.027973 0.859000
0.019732 -0.003497 0.860000
-0.022670 0.001084 0.844000
0.043445 -0.008165 0.867000
-0.019150 -0.013127 0.842000
0.037961 -0.024267 0.856000
0.003834 0.015387 0.867000
0.013986 -0.001365 0.855000
-0.013702 0.004928 0.848000
-0.040984 0.001774 0.842000
-0.000091 0.009566 0.857000
-0.033716 0.015804 0.851000
-0.027538 0.032478 0.866000
0.044002 0.013799 0.857000
-0.005011 0.008829 0.854000
-0.027443 0.028103 0.863000
-0.045136 0.022916 0.855000
-0.030036 0.011184 0.846000
0.039474 -0.006729 0.866000
0.005207 0.031825 0.858000
-0.046293 0.006294 0.844000
0.038806 -0.004953 0.867000
-0.004605 -0.005169 0.844000
-0.040984 0.005586 0.842000
0.014288 -0.005569 0.852000
0.037387 -0.014807 0.859000
-0.014167 0.010951 0.855000
-0.004374 0.025379 0.867000
-0.021122 0.028201 0.866000
0.038756 0.015227 0.858000
0.024774 0.016382 0.863000
-0.039298 0.008369 0.843000
0.026225 0.013911 0.864000
0.034628 -0.022050 0.852000
0.023272 0.019510 0.860000
-0.030420 -0.017040 0.847000
0.023598 0.021255 0.859000
0.037379 -0.004239 0.867000
0.005261 0.020383 0.867000
0.026250 -0.031495 0.842000
-0.047391 0.007345 0.845000
-0.027734 0.026266 0.861000
0.035702 -0.011297 0.861000
0.039163 -0.028504 0.867000
-0.038696 -0.008653 0.845000
-0.003966 0.037740 0.856000
0.008088 0.023157 0.864000
0.031596 -0.003873 0.865000
0.031598 -0.029555 0.846000
-0.013605 -0.007236 0.842000
0.041325 -0.015532 0.860000
-0.042773 0.019983 0.850000
-0.019867 -0.013490 0.843000
-0.023669 0.020101 0.855000
0.014120 -0.023524 0.842000
0.047696 0.007830 0.860000
0.039785 -0.008502 0.865000
0.012384 0.018577 0.866000
0.023763 0.000399 0.865000
-0.028310 0.020853 0.857000
0.010234 0.009299 0.865000
-0.025370 0.037781 0.865000
-0.022105 0.007031 0.849000
0.037561 -0.009903 0.863000
-0.043422 0.018911 0.849000
-0.031514 -0.001340 0.839000
-0.041314 0.026114 0.856000
-0.005363 0.008829 0.854000
-0.022804 0.008079 0.849000
0.027487 0.018781 0.859000
0.011805 -0.006955 0.850000
0.001677 0.009942 0.859000
0.047673 -0.013858 0.866000
0.024802 -0.001024 0.864000
-0.019820 -0.012073 0.841000
0.043954 -0.002822 0.870000
0.024362 -0.005273 0.861000
0.014489 0.019245 0.864000
0.044976 -0.001030 0.869000
0.022065 -0.035265 0.841000
-0.000443 0.009566 0.857000
0.024605 -0.026042 0.845000
0.021848 -0.020502 0.846000
0.027637 -0.031841 0.842000
0.022971 -0.002441 0.862000
-0.003901 -0.008276 0.842000
0.037206 -0.009903 0.863000
-0.026617 0.013654 0.848000
-0.011312 0.008458 0.852000
0.019046 -0.002084 0.861000
-0.005988 -0.020429 0.843000
-0.034911 0.010836 0.846000
0.028969 0.015635 0.861000
-0.038180 -0.014984 0.849000
0.001681 0.029101 0.861000
0.017975 -0.023232 0.844000
0.018444 0.005746 0.866000
-0.029895 0.027716 0.862000
0.012041 -0.031495 0.842000
-0.034538 0.020780 0.854000
0.030455 -0.014703 0.853000
-0.025298 -0.009282 0.839000
0.038405 0.009310 0.866000
-0.040770 0.021082 0.852000
0.040497 -0.008858 0.865000
0.018257 -0.034572 0.841000
0.041727 -0.014487 0.861000
-0.047043 0.010823 0.845000
0.009672 -0.009719 0.847000
0.040664 -0.013778 0.861000
-0.010923 0.005982 0.849000
-0.025268 -0.007202 0.838000
-0.038787 -0.010765 0.847000
-0.013280 0.023567 0.866000
0.011197 0.002864 0.857000
0.013174 -0.014268 0.848000
-0.009003 0.021429 0.866000
0.028003 -0.002802 0.864000
-0.008764 -0.003428 0.843000
0.000606 -0.007601 0.844000
0.024517 -0.036000 0.842000
-0.038450 0.023620 0.855000
0.027711 0.011092 0.866000
0.019915 0.008617 0.868000
0.012241 0.030341 0.856000
-0.026392 0.017225 0.852000
-0.026856 0.037511 0.867000
-0.023226 -0.008246 0.839000
-0.010673 0.039900 0.857000
-0.002950 0.021121 0.868000
-0.031552 -0.007565 0.840000
0.001695 0.020406 0.868000
-0.027089 -0.011727 0.841000
-0.019820 -0.004458 0.841000
0.026755 -0.022966 0.847000
-0.028295 0.010836 0.846000
-0.045295 0.024056 0.858000
-0.020150 0.014470 0.855000
0.021060 -0.038674 0.871000
-0.002515 -0.013474 0.842000
-0.011872 -0.008969 0.842000
-0.030696 -0.014218 0.845000
-0.001146 0.008136 0.855000
-0.029442 -0.004793 0.839000
0.003088 0.032178 0.858000
0.037120 -0.012360 0.861000
-0.042067 0.026497 0.857000
0.006689 0.018955 0.867000
0.019558 0.008974 0.868000
-0.021532 0.016211 0.854000
0.041709 -0.004959 0.868000
0.004065 -0.022804 0.841000
-0.001498 0.007432 0.855000
0.001673 0.034257 0.857000
-0.028329 -0.016691 0.847000
0.024418 0.015671 0.863000
-0.013463 0.045438 0.855000
0.030991 0.006831 0.868000
0.002683 -0.025257 0.842000
0.039383 0.007510 0.864000
-0.010429 0.029983 0.866000
0.038627 0.008567 0.863000
-0.027213 0.035013 0.867000
-0.010661 0.041263 0.856000
0.045980 0.007484 0.861000
-0.011179 -0.013820 0.842000
0.005796 -0.023150 0.841000
-0.018017 0.011290 0.854000
0.041517 -0.010626 0.864000
0.019876 -0.014669 0.851000
0.023076 -0.032457 0.840000
0.010984 0.012189 0.868000
0.022774 0.006473 0.868000
-0.005281 -0.016573 0.841000
-0.013621 0.032440 0.865000
0.043039 -0.009224 0.866000
0.010705 -0.012145 0.846000
-0.002554 0.038751 0.855000
0.006503 -0.018347 0.843000
-0.034481 -0.011074 0.844000
0.019806 -0.018107 0.848000
0.032362 -0.011950 0.857000
-0.035176 0.008031 0.844000
0.044362 -0.012759 0.864000
-0.043513 0.003515 0.844000
0.015728 -0.005933 0.854000
0.016431 -0.008745 0.854000
0.005116 -0.016266 0.843000
-0.001475 -0.010355 0.842000
-0.001158 0.027424 0.864000
-0.022444 0.024168 0.862000
-0.048549 0.009454 0.847000
0.025366 -0.007736 0.859000
-0.017397 -0.007227 0.841000
0.031027 0.004335 0.869000
0.026375 -0.023287 0.846000
0.004526 0.009988 0.863000
0.001696 0.004693 0.869000
0.026550 0.014961 0.863000
-0.007020 -0.012434 0.842000
-0.014871 0.045790 0.855000
0.044108 -0.010294 0.866000
-0.039252 -0.004810 0.842000
-0.002913 0.010624 0.857000
-0.025644 -0.004793 0.839000
-0.026052 0.028136 0.864000
0.020334 -0.035611 0.841000
0.008922 -0.020752 0.842000
0.003109 0.025646 0.864000
0.017114 -0.011543 0.853000
0.017911 -0.027650 0.841000
0.020754 -0.024622 0.844000
-0.036733 0.024352 0.856000
-0.024666 -0.001689 0.841000
0.021345 0.008617 0.868000
-0.034440 0.005940 0.843000
-0.034538 0.020077 0.854000
0.025181 -0.033188 0.841000
-0.026711 -0.011368 0.840000
0.000259 -0.025088 0.848000
-0.008280 0.033508 0.865000
-0.031081 -0.015975 0.846000
0.000950 -0.021765 0.841000
0.004427 -0.010727 0.844000
-0.015276 0.014874 0.858000
-0.017003 0.012726 0.856000
-0.015484 0.005989 0.850000
-0.005288 -0.010702 0.842000
0.046824 0.011682 0.857000
0.032551 -0.034017 0.862000
-0.001852 0.036683 0.856000
-0.016260 0.009532 0.854000
0.038403 0.015580 0.858000
-0.004369 0.018221 0.866000
0.010743 -0.006947 0.849000
-0.028251 0.033191 0.866000
0.013050 -0.025542 0.840000
0.031231 -0.013330 0.855000
-0.005035 0.036062 0.858000
-0.023282 -0.003420 0.841000
-0.013832 0.042672 0.856000
-0.034645 0.012607 0.848000
-0.004600 -0.006204 0.843000
0.010614 0.010748 0.867000
-0.043720 0.017493 0.848000
0.039208 -0.029966 0.868000
0.011631 0.005726 0.863000
0.010933 0.021379 0.864000
0.035680 -0.025557 0.852000
0.038627 -0.010968 0.863000
-0.020190 -0.004117 0.842000
-0.030971 -0.012102 0.843000
0.045125 0.003959 0.865000
-0.013637 0.030696 0.866000
-0.016592 0.008468 0.853000
-0.022402 0.004574 0.847000
0.019342 -0.024940 0.843000
-0.018567 0.002831 0.847000
-0.041568 0.023592 0.854000
0.019619 -0.030728 0.840000
0.037022 -0.003882 0.867000
0.014914 0.012904 0.868000
-0.047739 0.009432 0.845000
-0.044556 0.004210 0.844000
-0.006102 0.035751 0.859000
0.033849 -0.001029 0.868000
0.001677 0.032215 0.859000
0.008738 0.005339 0.858000
-0.009338 0.030980 0.864000
-0.017335 0.046141 0.855000
0.007518 -0.023468 0.840000
0.028710 -0.032920 0.843000
-0.037084 0.001079 0.840000
0.031267 0.020476 0.856000
0.022590 0.018824 0.861000
-0.037608 0.009421 0.844000
0.018648 0.023730 0.859000
0.027007 -0.029138 0.844000
0.024923 -0.027748 0.844000
0.036182 -0.007425 0.864000
-0.045760 0.015729 0.847000
-0.039764 0.022160 0.853000
-0.003901 -0.012088 0.842000
-0.009727 0.026092 0.867000
-0.004693 0.034023 0.860000
0.000619 0.012119 0.863000
-0.004594 -0.012781 0.842000
-0.024145 0.006665 0.847000
-0.025399 0.030339 0.866000
-0.027827 0.017947 0.853000
-0.038951 0.008022 0.843000
-0.024872 0.011560 0.848000
0.032836 -0.023425 0.851000
0.003433 0.004270 0.856000
-0.000089 -0.010702 0.842000
-0.017112 -0.003085 0.844000
0.028149 -0.036911 0.847000
0.026755 -0.020178 0.847000
-0.032705 -0.011061 0.843000
0.020828 -0.018434 0.847000
0.014035 0.026881 0.858000
-0.037865 0.005933 0.842000
0.028195 0.018427 0.859000
0.021475 -0.023956 0.845000
0.018604 -0.027650 0.841000
0.041824 -0.012744 0.863000
-0.023181 0.011237 0.850000
0.039693 0.008212 0.863000
-0.015757 0.023540 0.865000
0.001679 0.030483 0.860000
-0.021532 0.015508 0.854000
-0.004329 0.036415 0.858000
-0.006872 0.022167 0.867000
-0.032353 0.016173 0.852000
0.001297 -0.013474 0.842000
0.021926 -0.017080 0.849000
-0.040821 -0.017105 0.868000
0.036200 -0.017573 0.856000
0.003461 0.010343 0.863000
0.028748 0.011791 0.865000
0.027007 -0.028790 0.844000
-0.017122 0.021330 0.862000
-0.015437 0.029661 0.867000
0.015709 -0.009437 0.853000
0.038361 -0.007078 0.865000
-0.006137 0.016401 0.864000
-0.037563 0.008022 0.843000
-0.007146 0.038842 0.857000
-0.004725 0.026419 0.866000
-0.013589 -0.009997 0.841000
-0.013274 -0.004816 0.843000
0.015412 -0.001015 0.856000
0.013774 -0.023524 0.842000
0.008830 0.012175 0.867000
0.013921 -0.007664 0.851000
0.030634 0.000400 0.868000
0.030387 0.015281 0.861000
-0.021432 0.008088 0.850000
-0.016088 0.000042 0.845000
0.003723 -0.015553 0.842000
0.034197 -0.028995 0.850000
-0.015722 -0.002390 0.844000
-0.029374 -0.018086 0.847000
-0.007393 -0.002393 0.845000
-0.037658 0.021107 0.853000
0.000966 0.006032 0.856000
0.024834 -0.033534 0.841000
0.021602 0.001109 0.864000
-0.031974 0.003854 0.842000
-0.039897 -0.002035 0.841000
-0.019520 -0.013490 0.843000
0.039955 0.011028 0.861000
0.006859 -0.012116 0.844000
-0.000782 -0.014860 0.842000
-0.006320 -0.014150 0.841000
-0.002207 0.010624 0.857000
-0.008586 0.013847 0.860000
-0.016057 0.019910 0.862000
-0.020610 0.000042 0.845000
0.003098 0.029455 0.861000
-0.007560 0.030625 0.864000
-0.028797 0.026620 0.861000
-0.026743 -0.012073 0.841000
-0.022444 0.040488 0.862000
-0.017091 -0.013490 0.843000
0.014914 0.011832 0.868000
0.003377 -0.024910 0.842000
-0.009693 0.018890 0.864000
0.015592 0.007171 0.866000
0.012413 0.014690 0.868000
-0.033210 0.022238 0.856000
0.020853 -0.017758 0.848000
0.033847 -0.024797 0.850000
0.037785 -0.014470 0.860000
-0.031860 -0.003412 0.839000
-0.028752 -0.006865 0.839000
-0.034563 -0.013190 0.846000
0.026850 -0.015351 0.850000
0.028096 0.022238 0.856000
0.031304 0.021559 0.857000
-0.020076 0.028947 0.867000
-0.019072 0.011993 0.854000
0.035910 0.007171 0.866000
-0.004374 0.019312 0.867000
0.001990 -0.016939 0.842000
-0.021709 0.022368 0.861000
0.017094 -0.011881 0.852000
-0.002225 0.014267 0.864000
-0.034027 0.015435 0.850000
-0.000089 -0.022484 0.842000
0.007759 0.018599 0.867000
-0.041265 0.025379 0.855000
-0.000782 -0.012088 0.842000
-0.001160 0.015351 0.865000
-0.044156 0.009410 0.843000
-0.004243 -0.017612 0.841000
0.028935 0.017740 0.860000
0.014862 0.018556 0.865000
0.037034 0.014891 0.859000
-0.015757 0.023896 0.865000
-0.022589 -0.013458 0.841000
-0.025370 0.040273 0.865000
-0.034664 -0.005836 0.840000
-0.026334 -0.005484 0.839000
0.038345 -0.032228 0.881000
-0.011553 -0.001000 0.844000
-0.031578 0.014386 0.850000
-0.014923 0.013815 0.858000
-0.042299 -0.003176 0.869000
0.039383 -0.009203 0.864000
-0.016165 0.004585 0.849000
-0.010380 0.016717 0.862000
0.007882 -0.029069 0.842000
-0.039578 0.017164 0.849000
-0.028061 -0.008937 0.839000
0.003377 -0.014167 0.842000
0.004133 0.004617 0.855000
-0.049595 0.009872 0.853000
-0.044903 0.004558 0.844000
-0.046246 0.021533 0.856000
-0.016963 0.010587 0.854000
0.025158 0.014267 0.864000
0.011658 0.019624 0.865000
-0.001146 0.037344 0.855000
0.004195 0.019335 0.868000
-0.028889 -0.013143 0.843000
-0.046695 0.005954 0.845000
-0.012225 0.025022 0.867000
0.010345 -0.013870 0.845000
0.029997 0.017033 0.860000
-0.025989 -0.004793 0.839000
0.006488 -0.022804 0.841000
-0.030427 0.022264 0.857000
-0.008626 0.038093 0.864000
-0.013274 -0.003428 0.843000
-0.024608 -0.011009 0.839000
-0.033586 -0.005138 0.839000
0.016880 0.024791 0.859000
0.014372 0.000748 0.857000
0.027323 0.011791 0.865000
-0.035986 0.022212 0.855000
0.038048 -0.005660 0.866000
0.029928 -0.025088 0.848000
0.021693 -0.030383 0.840000
-0.024320 -0.002381 0.841000
-0.025161 0.006658 0.846000
0.022184 0.021255 0.859000
0.009176 0.010023 0.866000
-0.017790 0.040394 0.860000
-0.012169 0.018868 0.863000
-0.010536 0.001783 0.846000
0.013174 -0.012174 0.848000
0.013741 -0.028308 0.840000
-0.006666 -0.016227 0.841000
-0.014706 0.025349 0.866000
0.027669 -0.029797 0.843000
0.029648 -0.021648 0.850000
-0.003555 -0.012781 0.842000
0.031231 -0.012978 0.855000
-0.026112 0.037468 0.866000
0.008575 -0.019712 0.842000
-0.001162 0.022524 0.867000
0.041114 -0.011324 0.863000
0.044159 0.002184 0.867000
0.017607 -0.023899 0.843000
-0.039739 0.012214 0.845000
-0.009693 0.018534 0.864000
0.022008 0.002894 0.866000
-0.030214 0.026620 0.861000
-0.012567 0.029983 0.866000
-0.012928 -0.004469 0.843000
0.030812 -0.005996 0.863000
-0.013952 -0.006196 0.842000
-0.023993 0.019374 0.854000
0.033536 -0.022725 0.851000
-0.013799 0.009532 0.854000
0.036665 0.005039 0.867000
-0.014645 -0.011741 0.842000
-0.016689 0.015580 0.858000
-0.032505 0.022238 0.856000
-0.007869 0.037519 0.859000
-0.002947 0.020026 0.867000
-0.023153 0.024523 0.862000
-0.030515 -0.008947 0.840000
0.000616 0.033944 0.858000
-0.014184 0.043729 0.856000
0.032400 0.021231 0.858000
-0.019659 0.004934 0.849000
0.027061 0.003258 0.868000
0.003781 0.004969 0.855000
