0.019801 0.033431 0.863000
0.028415 -0.010515 0.855000
-0.010449 0.010056 0.839000
0.007706 -0.050987 0.861000
0.012652 -0.001373 0.860000
0.005534 -0.018938 0.854000
0.033966 -0.005926 0.853000
-0.018025 0.036256 0.838000
0.026718 -0.013714 0.857000
-0.015592 0.034146 0.837000
-0.003572 0.035558 0.846000
-0.008722 -0.013771 0.839000
0.031822 -0.009426 0.852000
-0.002179 0.025460 0.846000
0.013730 0.004295 0.861000
0.015183 0.009633 0.863000
0.019445 -0.008837 0.863000
0.002367 0.049193 0.853000
-0.009089 -0.035265 0.841000
-0.003563 -0.028096 0.844000
0.025012 0.021962 0.859000
-0.022111 -0.031958 0.836000
0.006215 0.001443 0.851000
0.012298 0.011723 0.860000
0.021222 0.030945 0.863000
-0.020390 -0.020260 0.836000
0.002365 0.036161 0.852000
0.014811 0.012460 0.862000
-0.021767 0.017934 0.836000
-0.022854 0.026254 0.838000
0.022261 0.024877 0.862000
-0.020561 0.006287 0.843000
0.011590 -0.033584 0.860000
0.011223 -0.022938 0.859000
-0.002202 -0.049576 0.855000
0.010139 0.007450 0.857000
0.017690 0.037381 0.864000
0.011604 -0.049570 0.861000
-0.006658 -0.012750 0.840000
0.012652 0.031545 0.860000
-0.016625 -0.001681 0.837000
0.001311 0.048377 0.851000
0.007661 -0.033780 0.856000
-0.007376 0.021553 0.843000
0.031509 0.017596 0.853000
0.003066 0.045629 0.852000
0.019445 0.028103 0.863000
0.009798 0.024056 0.858000
0.006924 -0.001361 0.852000
0.023980 -0.018363 0.860000
-0.000438 0.014318 0.846000
-0.011153 0.031157 0.840000
0.008032 -0.049044 0.858000
0.005534 0.040112 0.854000
0.024659 -0.007029 0.859000
0.031472 0.004951 0.852000
0.013021 0.036188 0.861000
0.001306 -0.027531 0.848000
0.031121 -0.028011 0.852000
-0.007621 -0.046202 0.871000
0.014456 0.012815 0.862000
-0.009435 0.021848 0.841000
0.019090 -0.028373 0.863000
0.015183 0.017447 0.863000
0.028096 0.031398 0.856000
0.009049 0.005666 0.854000
0.020842 -0.025502 0.862000
-0.014214 0.015199 0.837000
-0.000090 0.048728 0.851000
0.022944 0.031227 0.861000
-0.008764 -0.042288 0.843000
0.026365 -0.033114 0.857000
-0.023171 -0.031997 0.837000
0.016249 -0.011679 0.863000
0.012298 -0.006329 0.860000
-0.004941 -0.031841 0.842000
-0.012536 0.041529 0.840000
-0.010807 0.041529 0.840000
0.000960 -0.036692 0.850000
-0.000788 0.033897 0.848000
-0.010807 -0.029691 0.840000
-0.005300 0.033737 0.844000
0.029788 -0.015423 0.854000
-0.001134 0.026505 0.846000
0.007985 -0.011543 0.853000
-0.014593 0.039753 0.839000
0.028063 -0.021424 0.855000
-0.011457 -0.007882 0.837000
0.007625 -0.003815 0.852000
0.013376 0.006421 0.861000
-0.018003 0.033802 0.837000
0.031158 -0.000660 0.853000
-0.004941 0.028112 0.842000
-0.005648 0.024705 0.844000
0.017314 0.008567 0.863000
0.022944 -0.024409 0.861000
0.007976 -0.003815 0.852000
0.004453 -0.010790 0.849000
0.003417 0.024238 0.852000
0.023952 -0.022938 0.859000
-0.017701 -0.041397 0.839000
-0.023171 -0.026485 0.837000
0.012652 0.007122 0.860000
-0.028228 0.028179 0.844000
-0.021129 -0.012720 0.838000
0.023952 -0.039555 0.859000
-0.013196 0.021081 0.838000
-0.010461 -0.015516 0.840000
0.000609 0.033587 0.849000
-0.022826 0.015199 0.837000
-0.015229 0.018622 0.836000
-0.000089 -0.030948 0.846000
0.016959 0.032365 0.863000
0.005521 0.004951 0.852000
0.018025 -0.037963 0.863000
0.024659 0.031508 0.859000
-0.016261 -0.009593 0.836000
-0.008407 0.020488 0.842000
0.000260 0.023132 0.850000
0.029788 -0.039325 0.854000
0.000956 0.015032 0.847000
-0.011816 -0.011685 0.838000
0.025012 0.016306 0.859000
0.021552 0.034811 0.862000
0.011223 0.015245 0.859000
0.021907 0.019910 0.862000
-0.000439 -0.041890 0.849000
0.028448 0.039501 0.856000
0.012298 -0.045264 0.860000
0.029436 -0.002418 0.854000
-0.015573 0.030321 0.836000
-0.021154 0.034918 0.839000
-0.003576 -0.023315 0.847000
-0.000789 -0.036998 0.849000
-0.013196 0.022460 0.838000
0.021907 0.003236 0.862000
-0.021503 0.009321 0.867000
0.010234 -0.051580 0.865000
0.002005 -0.015315 0.848000
0.021907 0.010331 0.862000
-0.022137 -0.024762 0.837000
0.015893 0.009633 0.863000
0.013376 -0.028662 0.861000
-0.002184 -0.042190 0.848000
-0.003216 0.026790 0.844000
-0.000439 -0.021273 0.849000
-0.021104 0.027601 0.837000
-0.021448 -0.036819 0.837000
-0.011457 -0.006160 0.837000
-0.017680 0.005560 0.838000
0.033186 -0.026577 0.851000
-0.014231 0.009009 0.838000
-0.011499 0.019057 0.840000
0.000610 -0.040890 0.850000
0.005878 -0.016459 0.853000
0.020511 0.000753 0.863000
-0.033249 0.022030 0.848000
-0.019014 0.031697 0.836000
0.026365 0.008508 0.857000
0.026718 -0.032056 0.857000
0.022590 -0.015904 0.861000
-0.002527 -0.027118 0.846000
0.031509 0.033746 0.853000
0.027423 0.015562 0.857000
-0.000785 0.009780 0.845000
0.028096 -0.009470 0.856000
0.032173 0.017225 0.852000
0.017669 -0.033701 0.863000
-0.016949 0.022751 0.836000
0.015538 -0.013455 0.863000
0.025690 -0.017261 0.858000
-0.015573 -0.030582 0.836000
0.021907 0.025587 0.862000
0.030806 0.017596 0.853000
0.018025 -0.015586 0.863000
-0.000438 0.013970 0.846000
-0.014558 -0.012016 0.837000
-0.014610 0.043258 0.840000
0.008346 -0.012963 0.854000
-0.025674 0.019057 0.840000
-0.016949 -0.022324 0.836000
-0.014558 -0.013738 0.837000
0.028415 0.016230 0.855000
-0.012521 -0.037598 0.839000
0.024659 -0.005614 0.859000
-0.018648 -0.032607 0.835000
-0.015993 0.041529 0.840000
-0.004308 -0.047761 0.854000
0.023626 0.007122 0.860000
-0.004953 -0.017327 0.844000
0.022590 -0.032914 0.861000
-0.025735 0.028805 0.842000
-0.008070 0.043759 0.843000
0.001661 0.020357 0.851000
-0.025328 0.019402 0.840000
0.023980 -0.019425 0.860000
0.021197 -0.021599 0.862000
0.021907 0.027716 0.862000
-0.016970 -0.038886 0.837000
0.033576 -0.023803 0.852000
-0.006327 -0.016593 0.842000
-0.000785 0.012562 0.845000
0.007308 -0.023563 0.856000
-0.003212 0.012185 0.843000
0.019112 0.027780 0.864000
0.022590 0.036897 0.861000
-0.003920 0.036603 0.846000
0.004474 0.019000 0.853000
-0.031466 0.025839 0.847000
0.012667 -0.028307 0.861000
-0.033249 0.021332 0.848000
0.015893 0.032365 0.863000
-0.014697 0.047688 0.845000
0.023299 0.029455 0.861000
0.016758 -0.041542 0.871000
0.020511 -0.032280 0.863000
-0.014956 -0.042483 0.840000
0.000960 -0.020949 0.850000
0.023626 0.017387 0.860000
-0.006342 -0.023232 0.844000
0.020511 0.009988 0.863000
0.006596 -0.025647 0.855000
-0.031081 0.025112 0.846000
0.001305 0.027582 0.847000
0.033926 0.018627 0.852000
-0.009781 0.016310 0.841000
0.020156 0.014606 0.863000
0.003772 0.023213 0.853000
-0.019726 -0.008227 0.837000
-0.009435 -0.022804 0.841000
0.021907 0.016363 0.862000
0.018735 0.003239 0.863000
0.013021 -0.047443 0.861000
-0.016281 0.034491 0.837000
0.004123 0.038661 0.853000
0.015183 0.012119 0.863000
0.031822 -0.021699 0.852000
0.026043 -0.017968 0.858000
-0.009781 0.017349 0.841000
-0.001138 -0.039793 0.849000
-0.019749 0.011423 0.838000
-0.013196 0.013838 0.838000
-0.008753 -0.022484 0.842000
-0.017638 -0.012690 0.836000
0.031822 -0.022751 0.852000
-0.018304 0.022724 0.835000
-0.002896 -0.046246 0.852000
0.002365 0.039668 0.852000
0.029747 0.026327 0.863000
0.027744 0.033160 0.856000
-0.014558 -0.020973 0.837000
-0.010768 -0.006849 0.837000
0.026365 0.008860 0.857000
0.016604 0.014606 0.863000
0.025012 0.022316 0.859000
0.011944 0.004290 0.860000
-0.016281 -0.003059 0.837000
0.027071 -0.016888 0.857000
-0.001133 0.029604 0.845000
0.002012 0.036469 0.851000
-0.016929 0.021349 0.835000
0.004123 0.022862 0.853000
-0.012521 -0.035181 0.839000
0.025366 0.039286 0.859000
-0.001137 -0.018805 0.848000
0.030806 -0.027342 0.853000
0.013730 0.001814 0.861000
0.003772 -0.020320 0.853000
-0.009781 -0.037342 0.841000
-0.012521 -0.026203 0.839000
0.024334 0.037562 0.860000
0.028767 -0.020368 0.855000
-0.005319 -0.043186 0.847000
0.020866 -0.013455 0.863000
0.006924 0.002847 0.852000
-0.009057 -0.006167 0.838000
-0.019059 0.009699 0.838000
0.000959 0.033587 0.849000
-0.016281 -0.007193 0.837000
0.020866 -0.001023 0.863000
-0.008733 0.013179 0.840000
-0.004941 -0.014514 0.842000
0.008728 0.028613 0.857000
0.028767 0.002154 0.855000
0.020842 -0.025147 0.862000
-0.020439 -0.005822 0.838000
-0.005306 -0.023260 0.845000
-0.011179 -0.042584 0.842000
0.004814 -0.016070 0.851000
-0.008070 -0.022858 0.843000
-0.011499 -0.037989 0.840000
-0.017764 0.040588 0.842000
-0.013212 0.036990 0.839000
0.017669 -0.029794 0.863000
0.018380 -0.020203 0.863000
0.014456 0.038359 0.862000
0.019445 -0.037253 0.863000
0.010870 0.020195 0.859000
-0.004303 -0.045949 0.853000
-0.015936 0.011754 0.837000
-0.015917 0.024127 0.836000
0.013021 0.015989 0.861000
-0.008387 -0.031766 0.840000
-0.018304 -0.027452 0.835000
-0.014214 -0.021317 0.837000
-0.015917 -0.036431 0.836000
0.028448 0.037740 0.856000
-0.010474 0.018733 0.841000
0.029788 -0.010854 0.854000
0.021552 0.007493 0.862000
0.031472 0.009159 0.852000
0.004474 -0.020320 0.853000
0.012298 0.032961 0.860000
-0.010461 0.015945 0.840000
-0.019358 0.027568 0.836000
-0.018123 0.044236 0.859000
-0.009100 -0.022484 0.842000
0.030140 0.010938 0.854000
0.011223 -0.021524 0.859000
0.008022 -0.034172 0.857000
-0.017616 -0.035357 0.835000
-0.010781 -0.002718 0.838000
-0.011153 -0.020011 0.840000
-0.017616 0.019287 0.835000
-0.001482 -0.016672 0.846000
-0.003925 0.047453 0.847000
0.019090 -0.034056 0.863000
0.011590 0.003936 0.860000
0.032836 -0.031481 0.851000
-0.004248 -0.011395 0.842000
-0.016300 0.008319 0.838000
0.018735 -0.018072 0.863000
-0.007004 -0.003762 0.840000
-0.010461 0.012833 0.840000
0.013376 -0.001375 0.861000
0.004831 -0.036513 0.854000
-0.000439 0.039178 0.849000
-0.004947 0.026411 0.843000
-0.005995 0.039990 0.844000
0.013021 0.031227 0.861000
-0.015247 0.030701 0.837000
-0.006320 -0.014842 0.841000
-0.021423 0.019310 0.836000
-0.014956 0.041875 0.840000
0.027744 0.040206 0.856000
0.023272 -0.031106 0.860000
-0.012851 -0.035484 0.838000
0.010870 -0.022938 0.859000
0.015538 -0.023755 0.863000
0.009444 -0.030681 0.858000
-0.025012 0.029463 0.841000
0.010870 0.037872 0.859000
0.031822 0.003899 0.852000
0.021197 -0.027276 0.862000
0.011590 -0.010222 0.860000
0.016604 -0.040094 0.863000
0.007274 0.010211 0.852000
0.023626 0.008891 0.860000
0.012298 -0.047742 0.860000
-0.014903 0.024845 0.837000
0.002356 0.015068 0.849000
0.016959 0.039469 0.863000
-0.013196 0.007284 0.838000
-0.019335 -0.028140 0.835000
-0.020118 0.000732 0.839000
0.003405 0.013670 0.849000
0.028767 -0.021072 0.855000
-0.018370 0.004870 0.838000
-0.002865 -0.030491 0.843000
0.004123 0.037608 0.853000
0.004485 -0.048872 0.855000
0.029085 -0.040379 0.854000
-0.016990 0.036601 0.838000
-0.006335 0.016696 0.843000
-0.028923 0.026442 0.844000
-0.020759 0.028290 0.837000
-0.004248 -0.013127 0.842000
0.013730 -0.039293 0.861000
0.016959 0.008567 0.863000
0.017690 0.012489 0.864000
0.017314 -0.028373 0.863000
-0.021423 -0.024389 0.836000
-0.010820 -0.040457 0.841000
0.011944 -0.017656 0.860000
0.021907 0.009267 0.862000
0.025366 0.031155 0.859000
-0.018348 -0.000648 0.837000
-0.020142 0.036689 0.840000
-0.012521 -0.017224 0.839000
0.009798 -0.037037 0.858000
0.012313 -0.048861 0.861000
0.007274 -0.002413 0.852000
0.015183 0.019578 0.863000
0.021222 0.026327 0.863000
0.014811 -0.029404 0.862000
-0.017638 0.024471 0.836000
0.014456 -0.020890 0.862000
0.005892 -0.047465 0.855000
-0.019358 0.014837 0.836000
0.032486 -0.001009 0.851000
-0.004248 -0.029762 0.842000
-0.012521 -0.018951 0.839000
0.019801 0.007502 0.863000
-0.005654 -0.023608 0.845000
-0.021179 -0.003762 0.840000
-0.003920 -0.037564 0.846000
-0.009100 0.039548 0.842000
-0.016949 -0.008905 0.836000
0.022590 0.004295 0.861000
-0.020366 -0.031576 0.835000
0.024659 0.022316 0.859000
0.015893 0.034141 0.863000
0.020156 0.003950 0.863000
-0.020710 -0.031233 0.835000
0.019801 0.001819 0.863000
0.022236 -0.036812 0.861000
0.026043 -0.011611 0.858000
-0.013196 -0.028586 0.838000
-0.008407 0.019795 0.842000
0.021907 -0.025857 0.862000
-0.009100 0.034350 0.842000
0.032486 -0.005912 0.851000
0.025012 -0.018696 0.859000
-0.014593 -0.041742 0.839000
-0.001826 0.013242 0.844000
-0.021104 -0.037853 0.837000
0.031158 0.011277 0.853000
0.000610 -0.021299 0.850000
-0.019404 -0.040313 0.838000
0.027391 -0.000662 0.856000
-0.000090 -0.037741 0.850000
0.007625 0.002497 0.852000
0.000613 0.050657 0.854000
-0.005967 0.004536 0.840000
0.027744 0.030694 0.856000
0.001661 0.022108 0.851000
0.031509 0.039363 0.853000
-0.021819 0.032462 0.838000
0.010516 -0.017989 0.859000
0.030140 0.008126 0.854000
0.024983 -0.022205 0.858000
-0.015917 -0.012002 0.836000
0.014456 -0.023018 0.862000
0.014101 -0.021599 0.862000
-0.007004 0.004882 0.840000
0.009798 -0.019733 0.858000
0.009049 -0.005933 0.854000
0.004128 0.048899 0.854000
-0.021423 0.020342 0.836000
-0.011526 0.046480 0.842000
0.008022 -0.045459 0.857000
0.029788 0.029216 0.854000
0.022944 0.006421 0.861000
-0.001826 -0.031222 0.844000
-0.016605 0.019998 0.836000
-0.010474 0.034309 0.841000
0.007308 -0.024267 0.856000
0.002703 -0.010778 0.848000
0.016249 -0.004575 0.863000
0.015183 0.019934 0.863000
-0.025359 0.026348 0.841000
-0.006365 0.049196 0.847000
0.000960 0.039225 0.850000
-0.001138 0.039528 0.849000
-0.004594 -0.030108 0.842000
0.024983 -0.032093 0.858000
0.016604 0.026682 0.863000
-0.006009 -0.043135 0.846000
-0.017273 -0.036044 0.835000
0.031158 0.014436 0.853000
0.027391 -0.009118 0.856000
-0.008397 -0.016919 0.841000
0.002715 0.021082 0.852000
0.019801 -0.014876 0.863000
-0.006690 0.046937 0.844000
0.016959 -0.035477 0.863000
-0.013196 -0.004787 0.838000
0.009081 -0.038757 0.857000
0.033536 0.018956 0.851000
0.030491 0.015859 0.854000
0.020866 -0.020914 0.863000
0.031472 -0.002413 0.852000
-0.008753 0.041281 0.842000
-0.008377 0.006257 0.839000
-0.014920 -0.040657 0.838000
0.006237 0.026052 0.854000
0.001305 0.031417 0.847000
-0.009402 -0.007891 0.838000
0.013730 -0.008817 0.861000
-0.021154 -0.006520 0.839000
-0.001486 -0.039398 0.848000
-0.023171 -0.033719 0.837000
0.002005 0.027266 0.848000
-0.020022 -0.032264 0.835000
0.030491 0.038706 0.854000
-0.001137 -0.019503 0.848000
0.027071 0.010624 0.857000
0.024305 -0.001018 0.859000
-0.030001 0.025082 0.845000
-0.002879 0.046756 0.847000
-0.006690 0.043464 0.844000
0.001311 0.048027 0.851000
-0.018648 -0.027796 0.835000
-0.007004 0.002462 0.840000
0.021197 -0.040758 0.862000
0.029788 -0.021047 0.854000
-0.014214 -0.012360 0.837000
0.008375 -0.023590 0.857000
-0.010474 0.038463 0.841000
0.000260 -0.019177 0.849000
-0.014248 0.038717 0.839000
-0.000789 0.035684 0.849000
0.033186 -0.027978 0.851000
-0.001138 -0.021273 0.849000
-0.006690 0.045895 0.844000
0.008728 -0.047576 0.857000
-0.023888 0.016252 0.838000
0.015183 -0.009192 0.863000
-0.009100 0.045093 0.842000
-0.026428 0.023954 0.842000
0.025690 0.008518 0.858000
0.008022 -0.042637 0.857000
0.010151 -0.012671 0.858000
0.016249 0.028103 0.863000
-0.016261 -0.024044 0.836000
-0.005634 0.027419 0.842000
-0.000441 -0.048350 0.852000
-0.009770 0.013179 0.840000
-0.017273 -0.030889 0.835000
0.009081 -0.013361 0.857000
-0.013541 0.022115 0.838000
0.023980 -0.006329 0.860000
0.024305 -0.039201 0.859000
0.029788 -0.025617 0.854000
-0.019773 0.003495 0.839000
0.028096 0.036683 0.856000
0.030491 0.014805 0.854000
-0.000785 0.029256 0.845000
0.000260 0.042723 0.850000
-0.011485 -0.015153 0.839000
0.031546 -0.040379 0.854000
0.021552 -0.031178 0.862000
0.033926 0.032654 0.852000
-0.001828 -0.032650 0.845000
0.017669 -0.024466 0.863000
0.006215 0.007748 0.851000
0.032173 -0.025907 0.852000
0.021552 0.027006 0.862000
0.017314 0.000753 0.863000
0.023626 -0.016594 0.860000
0.022944 0.003586 0.861000
-0.022854 0.025219 0.838000
-0.006320 -0.014496 0.841000
0.019445 0.002174 0.863000
0.016249 -0.004930 0.863000
0.006924 -0.004867 0.852000
-0.018991 0.022380 0.835000
0.001663 -0.046246 0.852000
0.017314 -0.006351 0.863000
0.021197 -0.020180 0.862000
-0.010436 -0.004442 0.838000
-0.009435 0.026348 0.841000
0.016249 0.025617 0.863000
0.014811 0.036230 0.862000
0.019801 -0.004220 0.863000
-0.012176 -0.022749 0.839000
0.005182 0.035894 0.854000
-0.016281 0.000386 0.837000
-0.020366 -0.029171 0.835000
0.028767 -0.004533 0.855000
0.023626 -0.014470 0.860000
0.011590 -0.032522 0.860000
0.022590 -0.036812 0.861000
-0.016670 0.049424 0.857000
-0.025735 0.030192 0.842000
0.004831 0.044681 0.854000
0.010870 0.004992 0.859000
-0.008051 0.030502 0.841000
0.012652 -0.026858 0.860000
0.016604 0.009633 0.863000
-0.001486 -0.020550 0.848000
0.003405 0.029394 0.849000
0.024305 -0.030716 0.859000
0.031158 0.019000 0.853000
-0.011578 -0.045896 0.872000
-0.018304 -0.035013 0.835000
0.021197 -0.027631 0.862000
0.031472 -0.033622 0.852000
0.029436 -0.015423 0.854000
0.002012 -0.044090 0.851000
0.005182 -0.041785 0.854000
-0.007341 -0.008937 0.839000
-0.018003 -0.008571 0.837000
-0.031429 0.022675 0.846000
-0.011830 0.037336 0.839000
-0.021474 -0.011685 0.838000
-0.024320 0.030502 0.841000
0.005182 0.036246 0.854000
-0.003920 0.023719 0.846000
0.002365 -0.020998 0.852000
-0.002184 0.039132 0.848000
-0.010436 -0.009961 0.838000
0.025366 0.038579 0.859000
-0.014938 -0.041742 0.839000
0.000960 0.035026 0.850000
-0.015573 -0.031270 0.836000
-0.021053 -0.031920 0.835000
-0.014558 -0.014427 0.837000
0.026396 0.013815 0.858000
-0.021500 -0.009282 0.839000
-0.017638 0.014837 0.836000
-0.008031 0.005912 0.839000
-0.004268 -0.022243 0.846000
-0.021767 -0.030582 0.836000
-0.001486 0.024124 0.848000
0.000960 0.044122 0.850000
0.008365 0.012726 0.856000
0.030806 -0.011192 0.853000
0.028415 -0.031277 0.855000
0.007661 -0.041178 0.856000
0.022590 0.025203 0.861000
0.015893 -0.004220 0.863000
0.007661 0.015192 0.856000
-0.011830 -0.035181 0.839000
-0.004268 0.037995 0.846000
-0.007020 0.014943 0.842000
-0.024021 -0.027054 0.855000
-0.008070 0.035085 0.843000
-0.023543 -0.029620 0.838000
-0.004953 -0.018022 0.844000
0.030455 -0.038928 0.853000
-0.005634 -0.027683 0.842000
-0.019082 0.004876 0.839000
0.030491 0.030973 0.854000
0.031158 0.029884 0.853000
-0.011858 0.045732 0.841000
0.021907 0.007138 0.862000
0.019445 0.014606 0.863000
0.010151 0.035003 0.858000
-0.012851 0.033152 0.838000
0.015183 -0.022690 0.863000
-0.002533 0.047858 0.848000
-0.011830 0.035609 0.839000
-0.026775 0.026380 0.842000
-0.007020 -0.017286 0.842000
0.005164 -0.032882 0.851000
0.009763 -0.003477 0.855000
-0.012521 -0.039670 0.839000
0.009798 -0.012317 0.858000
-0.018348 -0.003404 0.837000
-0.015917 -0.031270 0.836000
0.013021 0.004295 0.861000
0.000627 -0.051757 0.874000
-0.009402 0.000041 0.838000
-0.006320 0.013887 0.841000
-0.016281 0.033113 0.837000
0.020156 0.021710 0.863000
-0.011830 -0.032073 0.839000
-0.008733 -0.015171 0.840000
0.029119 -0.023887 0.855000
0.023626 0.037562 0.860000
-0.002868 -0.015243 0.844000
-0.004616 0.045308 0.846000
0.001310 0.035026 0.850000
0.004479 -0.046706 0.854000
0.022261 0.016717 0.862000
0.021552 -0.037919 0.862000
0.029436 -0.001012 0.854000
0.013021 0.034062 0.861000
0.023626 -0.021195 0.860000
0.019445 0.008212 0.863000
0.014101 -0.026211 0.862000
0.026718 -0.018652 0.857000
0.004458 -0.031444 0.850000
0.032524 0.013367 0.852000
0.023980 0.020926 0.860000
-0.016705 0.042617 0.841000
0.009455 -0.049454 0.859000
0.011590 -0.027920 0.860000
-0.006674 -0.034614 0.842000
-0.017616 -0.027109 0.835000
0.002012 -0.037786 0.851000
0.029436 -0.022805 0.854000
-0.010768 -0.005471 0.837000
-0.009078 -0.032111 0.840000
-0.012521 0.018343 0.839000
0.004479 -0.047409 0.854000
-0.013525 -0.007193 0.837000
0.029119 0.013415 0.855000
-0.005995 -0.037475 0.844000
-0.021079 -0.034711 0.836000
0.004123 0.046033 0.853000
0.024305 -0.013392 0.859000
0.012652 0.011015 0.860000
0.029788 0.021835 0.854000
-0.001133 0.030647 0.845000
-0.000788 -0.034860 0.848000
-0.019428 0.036645 0.839000
0.010516 -0.043091 0.859000
-0.000440 0.049078 0.851000
0.023980 -0.003851 0.860000
0.028767 -0.035500 0.855000
-0.009781 0.018387 0.841000
-0.021819 -0.015134 0.838000
0.028767 -0.037611 0.855000
0.026718 -0.040521 0.857000
0.014811 -0.009182 0.862000
-0.009435 -0.039418 0.841000
-0.021819 -0.017204 0.838000
0.028096 0.035274 0.856000
0.032173 -0.009777 0.852000
0.025336 -0.033153 0.858000
-0.010807 0.039455 0.840000
0.021222 0.020644 0.863000
-0.008722 0.010056 0.839000
0.030140 0.001800 0.854000
0.013730 -0.023346 0.861000
-0.009100 0.035390 0.842000
-0.003559 0.011838 0.843000
-0.024516 -0.034646 0.860000
0.025690 0.000042 0.858000
0.006565 0.008098 0.851000
-0.000792 -0.048758 0.853000
0.018735 -0.019848 0.863000
0.023626 0.030129 0.860000
-0.017638 0.027912 0.836000
-0.011830 -0.039325 0.839000
0.020866 0.013185 0.863000
-0.017273 -0.030545 0.835000
0.020156 -0.013100 0.863000
-0.004263 0.034473 0.845000
-0.023543 -0.033759 0.838000
0.021552 -0.030469 0.862000
0.019445 0.031300 0.863000
-0.010474 0.026348 0.841000
0.002012 0.039621 0.851000
-0.013886 -0.023757 0.838000
-0.008377 0.003840 0.839000
0.019445 0.020289 0.863000
0.005865 0.029814 0.851000
0.022590 -0.027598 0.861000
0.014811 -0.022664 0.862000
0.023980 0.033669 0.860000
0.018735 -0.021624 0.863000
0.020866 0.006436 0.863000
-0.013306 0.048384 0.845000
0.005170 -0.016439 0.852000
0.032135 -0.030780 0.851000
0.030140 0.038706 0.854000
0.008375 -0.038757 0.857000
-0.013541 -0.026171 0.838000
0.017690 0.022446 0.864000
-0.025359 0.024271 0.841000
0.003066 -0.037830 0.852000
-0.013573 0.041875 0.840000
0.014811 -0.033307 0.862000
-0.009781 0.026002 0.841000
0.027391 0.017658 0.856000
0.026365 -0.006659 0.857000
0.011223 -0.036727 0.859000
0.004123 -0.020672 0.853000
0.005182 0.000394 0.854000
-0.008387 0.012833 0.840000
0.009444 -0.047984 0.858000
-0.020512 0.004887 0.841000
0.028096 -0.012289 0.856000
0.006948 0.026435 0.855000
-0.005306 -0.035780 0.845000
0.008728 0.023322 0.857000
0.029788 -0.021750 0.854000
0.028448 0.016953 0.856000
0.013422 -0.049387 0.864000
0.032173 -0.022401 0.852000
0.014456 -0.020180 0.862000
-0.025674 0.020094 0.840000
0.034006 -0.028077 0.854000
0.029119 0.016934 0.855000
-0.031466 0.027233 0.847000
0.010870 0.033630 0.859000
-0.026051 0.021848 0.841000
0.023272 0.009599 0.860000
-0.012161 0.005215 0.838000
-0.003227 -0.022966 0.847000
-0.012851 -0.027206 0.838000
-0.011139 -0.014462 0.839000
0.028415 -0.040075 0.855000
0.018380 -0.003509 0.863000
0.011223 0.012417 0.859000
-0.015917 -0.024044 0.836000
-0.023503 -0.040652 0.875000
0.020156 -0.032635 0.863000
0.009798 0.021937 0.858000
0.017690 0.015689 0.864000
-0.004594 -0.030455 0.842000
0.008336 0.008117 0.853000
0.015183 0.016382 0.863000
0.021552 -0.038984 0.862000
0.002715 0.023887 0.852000
0.024659 -0.020817 0.859000
-0.012521 0.026976 0.839000
0.003059 -0.027246 0.850000
-0.001828 -0.027781 0.845000
0.027744 -0.013698 0.856000
-0.007695 -0.029345 0.840000
-0.020390 0.021718 0.836000
-0.010511 -0.043728 0.844000
-0.018670 -0.017507 0.836000
0.022944 0.039378 0.861000
-0.007004 0.008339 0.840000
-0.009435 0.041578 0.841000
-0.002530 0.021656 0.847000
0.024305 -0.011978 0.859000
-0.004594 0.011131 0.842000
-0.014903 0.012788 0.837000
0.007661 0.035626 0.856000
0.024305 -0.023292 0.859000
0.029471 0.035232 0.855000
0.007308 -0.037655 0.856000
0.005182 0.017617 0.854000
-0.013886 0.000041 0.838000
0.004458 -0.015001 0.850000
-0.013196 0.005905 0.838000
0.026365 -0.013361 0.857000
-0.010897 -0.044232 0.847000
-0.005300 0.003515 0.844000
-0.022509 0.024875 0.838000
0.025012 0.013124 0.859000
0.001310 -0.036342 0.850000
0.011223 -0.043091 0.859000
0.028767 -0.039019 0.855000
-0.011499 0.033923 0.840000
-0.017960 -0.026078 0.835000
0.030140 0.001448 0.854000
-0.007029 0.039595 0.843000
0.016959 0.022065 0.863000
-0.013196 -0.034794 0.838000
-0.014956 0.042566 0.840000
-0.021835 0.001825 0.866000
-0.012521 0.023523 0.839000
-0.017638 -0.037464 0.836000
0.005182 -0.021750 0.854000
-0.007367 -0.017286 0.842000
0.030104 -0.034364 0.853000
0.005865 -0.032532 0.851000
-0.001479 -0.014201 0.844000
-0.024288 -0.031167 0.852000
-0.014903 -0.029930 0.837000
-0.013886 0.031773 0.838000
0.024716 0.024494 0.861000
0.014101 -0.039693 0.862000
-0.012176 -0.024476 0.839000
-0.005306 0.043167 0.845000
0.028767 -0.014386 0.855000
-0.018991 -0.024016 0.835000
0.001314 -0.048758 0.853000
0.005182 -0.035458 0.854000
0.000610 0.039924 0.850000
0.006215 -0.006963 0.851000
0.005182 0.004260 0.854000
-0.023572 0.026976 0.839000
-0.009424 -0.029691 0.840000
-0.015592 -0.004782 0.837000
-0.005363 -0.046355 0.854000
0.027391 -0.017926 0.856000
0.025012 0.037872 0.859000
0.019445 -0.040094 0.863000
0.008375 0.037784 0.857000
-0.003920 0.023023 0.846000
-0.012851 -0.016169 0.838000
0.033264 0.038310 0.853000
-0.002184 -0.039398 0.848000
-0.021474 0.033497 0.838000
0.032173 -0.009426 0.852000
0.012652 -0.006683 0.860000
-0.005654 -0.038910 0.845000
0.018046 0.001465 0.864000
0.024334 0.035085 0.860000
0.016249 0.024551 0.863000
0.014456 -0.024792 0.862000
-0.005300 0.016716 0.844000
-0.011126 -0.009616 0.838000
-0.013541 -0.035484 0.838000
0.003772 -0.020672 0.853000
-0.006002 0.047341 0.845000
0.019445 -0.034766 0.863000
-0.003250 -0.047002 0.853000
0.031158 -0.011192 0.853000
0.008375 0.025086 0.857000
0.003066 0.021433 0.852000
-0.008733 -0.031420 0.840000
-0.020464 0.010056 0.839000
0.012298 -0.036061 0.860000
0.002354 -0.013570 0.848000
-0.026051 0.025656 0.841000
-0.013196 -0.027206 0.838000
0.019445 -0.034411 0.863000
0.010151 0.030765 0.858000
0.007985 0.009872 0.853000
-0.000090 -0.038441 0.850000
0.023980 0.024112 0.860000
0.020156 -0.023400 0.863000
-0.033249 0.020983 0.848000
0.028096 0.039854 0.856000
-0.008060 -0.026296 0.842000
-0.020759 -0.017528 0.837000
-0.015955 0.006250 0.838000
0.007661 -0.042588 0.856000
0.030140 -0.002770 0.854000
0.007308 0.037388 0.856000
-0.030001 0.024735 0.845000
0.014811 0.019910 0.862000
-0.017982 -0.038152 0.836000
-0.005974 -0.029727 0.841000
0.010528 0.039686 0.860000
0.005508 -0.009754 0.850000
0.008375 -0.039816 0.857000
-0.000089 0.029639 0.846000
0.019090 0.001108 0.863000
0.013730 -0.040356 0.861000
0.002359 0.016485 0.850000
0.002012 0.043474 0.851000
0.002365 -0.046947 0.852000
-0.008377 0.010746 0.839000
0.032486 -0.028329 0.851000
0.000260 -0.018478 0.849000
-0.010807 -0.019319 0.840000
0.000960 0.040274 0.850000
0.014456 -0.014858 0.862000
-0.002521 -0.031569 0.844000
-0.014214 -0.022695 0.837000
0.029119 -0.022831 0.855000
0.018735 -0.020914 0.863000
0.011944 -0.023319 0.860000
0.009820 -0.049512 0.860000
-0.000789 -0.040492 0.849000
-0.003563 -0.034001 0.844000
0.000956 0.031068 0.847000
-0.003627 0.008881 0.859000
-0.009143 -0.044179 0.846000
-0.005628 0.012849 0.841000
0.027423 0.031788 0.857000
0.020866 0.005015 0.863000
-0.014214 -0.013049 0.837000
-0.021684 0.000750 0.860000
0.020511 -0.008482 0.863000
0.015538 -0.028728 0.863000
0.005534 0.019023 0.854000
-0.010807 0.024934 0.840000
0.031158 0.032341 0.853000
-0.009132 -0.043779 0.845000
0.002365 0.041070 0.852000
-0.016261 -0.012002 0.836000
0.006956 -0.024267 0.856000
0.009763 -0.008052 0.855000
-0.002879 0.043269 0.847000
0.001311 0.047677 0.851000
-0.010807 0.035997 0.840000
0.004474 0.016543 0.853000
0.006596 -0.041130 0.855000
-0.006658 0.003499 0.840000
0.004814 0.014403 0.851000
0.013376 0.009965 0.861000
-0.016605 0.020342 0.836000
-0.021819 -0.013410 0.838000
0.006924 -0.002413 0.852000
-0.017659 -0.006504 0.837000
0.025336 -0.021146 0.858000
-0.016949 -0.012346 0.836000
-0.004248 0.009052 0.842000
-0.008387 -0.032803 0.840000
-0.005634 0.027073 0.842000
0.007661 0.033864 0.856000
-0.008397 -0.027304 0.841000
-0.002548 -0.047705 0.853000
-0.020390 -0.036087 0.836000
-0.015573 -0.019915 0.836000
-0.008753 0.037816 0.842000
0.009820 -0.049866 0.860000
-0.016281 -0.007882 0.837000
-0.025359 0.025310 0.841000
-0.007004 0.011796 0.840000
-0.005288 -0.015207 0.842000
0.020511 0.025972 0.863000
0.019112 0.038804 0.864000
0.005534 -0.039676 0.854000
0.000260 -0.018827 0.849000
0.015183 0.015671 0.863000
-0.020439 -0.006512 0.838000
-0.018370 0.003835 0.838000
-0.012866 0.038026 0.839000
0.021552 -0.013439 0.862000
0.022590 -0.010589 0.861000
-0.019082 0.006602 0.839000
-0.019679 0.021005 0.835000
0.026043 0.035003 0.858000
0.021907 0.024523 0.862000
0.021881 -0.032914 0.861000
0.026718 0.030377 0.857000
0.007994 0.011993 0.854000
0.030806 -0.018916 0.853000
-0.022111 -0.032302 0.836000
0.009444 -0.016908 0.858000
0.029788 0.017265 0.854000
0.024659 0.035397 0.859000
-0.003906 -0.016266 0.843000
0.003066 0.038616 0.852000
0.030491 0.032731 0.854000
-0.018720 -0.043543 0.854000
-0.012506 0.004525 0.838000
0.000607 0.027898 0.846000
-0.016625 -0.038886 0.837000
0.009763 0.006376 0.855000
0.019090 -0.036542 0.863000
0.014456 0.025232 0.862000
-0.008743 0.031194 0.841000
-0.004965 -0.041394 0.846000
-0.003929 -0.043586 0.848000
-0.014558 -0.031997 0.837000
0.029119 0.006025 0.855000
0.031822 0.034758 0.852000
0.013730 -0.022637 0.861000
0.025690 -0.009845 0.858000
-0.011830 -0.027584 0.839000
0.021197 0.007848 0.862000
-0.009770 0.013525 0.840000
0.005865 -0.009415 0.851000
0.003052 0.013305 0.848000
-0.010436 0.007629 0.838000
-0.022137 -0.020628 0.837000
-0.005974 -0.029034 0.841000
-0.013985 0.047632 0.844000
-0.006312 -0.031420 0.840000
0.033536 0.028763 0.851000
-0.017638 0.032385 0.836000
0.020842 -0.030114 0.862000
-0.017293 0.016557 0.836000
0.010870 0.023023 0.859000
-0.008753 -0.020405 0.842000
0.021907 -0.007763 0.862000
-0.009435 0.025310 0.841000
-0.001826 -0.012116 0.844000
-0.011471 -0.011340 0.838000
-0.006342 -0.021496 0.844000
-0.004248 0.010438 0.842000
0.026365 0.006744 0.857000
-0.000791 -0.046542 0.851000
0.008013 0.034921 0.856000
0.019112 0.020668 0.864000
-0.003920 0.046700 0.846000
-0.027533 0.031305 0.844000
0.022590 0.017052 0.861000
0.023626 0.026943 0.860000
-0.018304 0.017568 0.835000
-0.019335 0.022036 0.835000
-0.005981 0.031924 0.842000
-0.010858 0.048327 0.844000
-0.000789 -0.019876 0.849000
-0.014558 0.001419 0.837000
-0.020070 0.012788 0.837000
-0.013196 -0.011340 0.838000
0.030140 -0.006285 0.854000
0.019090 -0.039739 0.863000
-0.016949 0.032385 0.836000
-0.014575 -0.041002 0.838000
0.017314 -0.019138 0.863000
-0.016261 -0.032302 0.836000
0.018757 0.032403 0.864000
0.023980 -0.016240 0.860000
0.027071 -0.008070 0.857000
0.024659 -0.007736 0.859000
0.018046 -0.004580 0.864000
0.009444 0.015934 0.858000
-0.003572 0.045308 0.846000
0.020156 -0.039384 0.863000
0.033186 -0.019572 0.851000
-0.010091 0.002111 0.838000
-0.017335 0.036601 0.838000
-0.006690 0.042769 0.844000
0.004464 0.008448 0.851000
-0.023835 -0.037875 0.861000
-0.001137 -0.026135 0.848000
0.023299 0.011382 0.861000
0.003405 0.029744 0.849000
-0.001841 -0.046192 0.851000
0.032836 0.030164 0.851000
0.003772 0.046385 0.853000
-0.000440 -0.045491 0.851000
0.021907 0.015298 0.862000
-0.010461 -0.027617 0.840000
-0.012866 0.035609 0.839000
-0.014903 -0.021317 0.837000
0.016604 0.017447 0.863000
0.000260 -0.045141 0.851000
-0.017314 -0.001337 0.837000
-0.006658 -0.007219 0.840000
0.033186 0.009149 0.851000
-0.009435 -0.023150 0.841000
0.020156 -0.025887 0.863000
-0.018003 -0.000303 0.837000
0.008375 -0.043696 0.857000
0.033536 0.032616 0.851000
0.015183 -0.038674 0.863000
-0.005281 0.008003 0.841000
0.005164 0.027362 0.851000
0.010870 -0.024352 0.859000
0.007291 0.029567 0.854000
-0.006714 0.049544 0.847000
-0.027122 0.021181 0.842000
-0.002521 0.030611 0.844000
-0.007704 -0.015881 0.841000
-0.010128 0.042963 0.841000
-0.026051 0.020118 0.841000
0.008336 0.003553 0.853000
-0.007723 -0.037777 0.843000
0.020866 -0.009548 0.863000
0.026718 -0.036994 0.857000
0.003066 -0.038531 0.852000
0.016604 -0.028373 0.863000
0.006215 -0.012217 0.851000
0.005892 -0.025647 0.855000
0.022236 -0.035040 0.861000
-0.027468 0.021874 0.842000
-0.007367 -0.017633 0.842000
-0.029305 0.026821 0.845000
0.008728 -0.045812 0.857000
-0.014558 0.014166 0.837000
0.032486 -0.024476 0.851000
0.005182 0.020780 0.854000
0.029436 0.001448 0.854000
0.031822 0.006003 0.852000
-0.017680 0.004525 0.838000
0.007697 -0.050574 0.860000
0.019801 0.028458 0.863000
0.021552 -0.017697 0.862000
-0.009402 -0.010996 0.838000
0.011944 -0.027920 0.860000
-0.010116 -0.015862 0.840000
0.004469 0.008107 0.852000
-0.009435 -0.021419 0.841000
0.010151 -0.025383 0.858000
-0.013952 0.046133 0.842000
0.003052 -0.014617 0.848000
0.006596 0.023620 0.855000
-0.006357 -0.042787 0.846000
0.014101 -0.005634 0.862000
-0.023572 0.025595 0.839000
0.023272 -0.025443 0.860000
0.008375 -0.031703 0.857000
-0.010807 -0.016899 0.840000
0.001659 -0.026196 0.850000
-0.007376 -0.025981 0.843000
0.000259 0.010836 0.846000
-0.012851 0.006595 0.838000
0.028096 0.015896 0.856000
0.026365 0.000395 0.857000
-0.008108 -0.044232 0.847000
0.014101 -0.023728 0.862000
0.000259 0.029290 0.846000
0.010870 -0.014100 0.859000
0.004118 -0.035375 0.852000
-0.021179 0.011451 0.840000
0.007308 0.034569 0.856000
0.029788 -0.006285 0.854000
-0.015247 -0.017528 0.837000
0.030879 -0.040778 0.855000
0.031121 -0.035375 0.852000
0.016249 0.036273 0.863000
-0.007029 0.022247 0.843000
-0.014558 0.000386 0.837000
0.018025 -0.034056 0.863000
-0.022111 -0.034023 0.836000
0.002715 -0.044843 0.852000
0.021552 0.034457 0.862000
0.011223 -0.040969 0.859000
0.029788 -0.034755 0.854000
0.002354 0.010513 0.848000
-0.017960 -0.021954 0.835000
0.025336 0.001102 0.858000
-0.005281 0.010772 0.841000
-0.004594 0.031924 0.842000
0.016249 0.009988 0.863000
0.021197 -0.028695 0.862000
-0.001484 -0.017389 0.847000
-0.006357 0.048441 0.846000
0.003767 -0.018193 0.852000
-0.013196 -0.004097 0.838000
-0.017960 0.023411 0.835000
0.009798 -0.014083 0.858000
0.005176 -0.006628 0.853000
-0.002892 -0.045141 0.851000
-0.009435 0.019079 0.841000
0.019801 -0.017717 0.863000
-0.022349 0.034820 0.845000
-0.013886 0.023840 0.838000
0.017690 0.029914 0.864000
0.020156 0.011764 0.863000
0.032173 -0.038882 0.852000
0.032836 0.030865 0.851000
-0.018670 -0.019915 0.836000
-0.021053 -0.031233 0.835000
-0.017293 -0.014066 0.836000
-0.006682 0.034738 0.843000
-0.005967 0.000041 0.840000
-0.018670 -0.013378 0.836000
0.028415 -0.030925 0.855000
0.032524 0.017926 0.852000
-0.004953 -0.035043 0.844000
0.012298 0.008538 0.860000
-0.015993 -0.042483 0.840000
0.014811 -0.019471 0.862000
0.021222 0.031655 0.863000
0.008728 0.027202 0.857000
-0.014502 0.049251 0.854000
-0.009424 -0.029000 0.840000
-0.006342 0.024011 0.844000
-0.004268 0.019193 0.846000
0.000608 0.033199 0.848000
0.008013 -0.020392 0.856000
-0.004248 0.012171 0.842000
0.002703 0.011560 0.848000
0.000607 0.028246 0.846000
0.026012 -0.039463 0.857000
0.026043 -0.013730 0.858000
0.027391 -0.038360 0.856000
0.004474 -0.021725 0.853000
-0.004959 0.040733 0.845000
-0.006658 0.000041 0.840000
-0.007020 -0.034267 0.842000
0.007985 -0.012948 0.853000
-0.007376 -0.023899 0.843000
0.008022 -0.035936 0.857000
-0.003220 -0.017348 0.845000
0.029436 0.011993 0.854000
0.021222 0.039114 0.863000
-0.020759 -0.012705 0.837000
-0.009781 0.020810 0.841000
0.001661 0.023859 0.851000
0.025336 0.010283 0.858000
-0.015573 -0.034367 0.836000
0.010504 -0.007020 0.858000
-0.015917 0.031353 0.836000
-0.009089 0.030502 0.841000
-0.017638 0.025159 0.836000
-0.017616 0.023067 0.835000
0.000957 -0.027531 0.848000
0.014101 0.023458 0.862000
-0.020734 -0.024733 0.836000
-0.009111 0.047576 0.843000
0.023980 0.012785 0.860000
0.002715 -0.037479 0.852000
-0.016949 0.026880 0.836000
0.012667 -0.033268 0.861000
-0.000442 -0.049928 0.855000
-0.023207 -0.014537 0.864000
0.019445 -0.036187 0.863000
-0.013902 0.040444 0.839000
-0.024983 0.022168 0.840000
-0.004959 -0.024651 0.845000
-0.023543 0.022115 0.838000
0.005865 0.028763 0.851000
0.030140 0.022186 0.854000
0.033186 -0.013268 0.851000
-0.018046 0.037336 0.839000
0.028096 0.014135 0.856000
0.033926 0.015822 0.852000
-0.010807 0.020094 0.840000
-0.022509 0.028669 0.838000
-0.014248 0.039408 0.839000
0.003772 0.019000 0.853000
-0.010461 0.031849 0.840000
0.010870 -0.028595 0.859000
0.018046 0.031336 0.864000
0.030387 -0.041419 0.861000
-0.000789 0.037431 0.849000
-0.016929 -0.034326 0.835000
0.013021 0.036897 0.861000
-0.029618 0.018453 0.844000
0.020866 0.017447 0.863000
-0.020784 0.033152 0.838000
-0.007020 0.032617 0.842000
-0.018025 0.007284 0.838000
0.013021 -0.010943 0.861000
-0.012506 -0.012720 0.838000
0.031158 -0.016459 0.853000
0.029436 -0.019290 0.854000
-0.020286 0.037299 0.846000
-0.012190 0.040146 0.840000
0.017334 0.039515 0.864000
-0.005376 -0.048929 0.856000
-0.004616 -0.020154 0.846000
0.017669 -0.010613 0.863000
0.004104 -0.011140 0.849000
0.022590 -0.019448 0.861000
-0.016685 -0.042483 0.840000
0.004123 0.041469 0.853000
0.033576 0.011263 0.852000
-0.014903 -0.007193 0.837000
-0.020759 -0.017183 0.837000
0.010870 0.023377 0.859000
-0.012521 0.020760 0.839000
0.002706 -0.016032 0.849000
-0.014920 0.005560 0.838000
-0.017616 0.017568 0.835000
0.032486 -0.022725 0.851000
0.018757 0.013911 0.864000
0.018401 0.020668 0.864000
0.019468 -0.040852 0.864000
0.027039 -0.033075 0.856000
0.026365 0.009213 0.857000
-0.020759 -0.014427 0.837000
-0.007704 -0.033188 0.841000
-0.018670 0.025503 0.836000
0.022261 0.027006 0.862000
0.028063 -0.036204 0.855000
0.019090 -0.016652 0.863000
0.026104 0.029421 0.860000
-0.004941 0.012517 0.842000
-0.021474 0.033152 0.838000
-0.010807 -0.030383 0.840000
0.005892 0.038048 0.855000
0.022236 -0.026890 0.861000
0.018401 0.025291 0.864000
-0.004611 -0.035780 0.845000
0.032173 -0.022050 0.852000
0.032486 0.001093 0.851000
0.018025 -0.025176 0.863000
0.033536 0.017205 0.851000
-0.008753 0.015636 0.842000
0.004842 -0.049282 0.856000
0.005865 0.008098 0.851000
-0.008753 -0.037039 0.842000
0.012298 0.008891 0.860000
0.021552 -0.026211 0.862000
0.014101 -0.018761 0.862000
0.006215 0.000743 0.851000
0.005865 -0.029379 0.851000
0.006573 0.029849 0.852000
-0.000090 -0.016343 0.847000
-0.019381 0.011754 0.837000
0.022944 0.002523 0.861000
0.033576 0.007757 0.852000
0.020511 -0.023755 0.863000
-0.003212 0.028840 0.843000
0.013730 -0.019448 0.861000
0.028767 -0.036908 0.855000
0.011590 0.034023 0.860000
0.005182 -0.041082 0.854000
0.023626 -0.016240 0.860000
-0.007029 0.038902 0.843000
-0.013196 -0.019618 0.838000
-0.020784 -0.006857 0.838000
0.012652 -0.024381 0.860000
0.006215 -0.003811 0.851000
0.022590 -0.034686 0.861000
0.004464 0.026311 0.851000
0.008022 -0.039110 0.857000
-0.004268 0.040085 0.846000
0.002703 -0.011476 0.848000
-0.020094 0.034187 0.838000
0.024659 0.039640 0.859000
-0.021154 0.034573 0.839000
-0.007029 0.037167 0.843000
0.011944 0.009245 0.860000
0.025690 0.021231 0.858000
0.001310 0.024881 0.850000
-0.016929 -0.027452 0.835000
0.006215 -0.001709 0.851000
0.024659 0.011002 0.859000
-0.032512 0.024445 0.847000
-0.032125 0.019193 0.846000
-0.009781 -0.026265 0.841000
0.010127 -0.004890 0.856000
0.020156 0.032010 0.863000
-0.015917 -0.034023 0.836000
-0.000090 0.016446 0.848000
-0.009781 0.044001 0.841000
0.016604 -0.019138 0.863000
0.010870 0.003224 0.859000
-0.004268 -0.041742 0.846000
-0.003906 -0.032226 0.843000
-0.015229 -0.024733 0.836000
-0.000090 0.038480 0.849000
0.015893 -0.038318 0.863000
0.030806 0.008819 0.853000
-0.022509 -0.037553 0.838000
-0.019749 -0.006167 0.838000
0.018757 0.023513 0.864000
0.008375 0.022617 0.857000
-0.015936 0.009687 0.837000
0.020511 -0.000313 0.863000
0.008728 -0.038405 0.857000
0.006215 0.007397 0.851000
0.005534 0.023241 0.854000
0.028096 0.001099 0.856000
0.003052 0.010513 0.848000
-0.014662 0.046535 0.843000
0.003759 -0.033893 0.850000
-0.015936 0.010721 0.837000
-0.014558 -0.007882 0.837000
0.002703 0.030407 0.848000
-0.016585 -0.033982 0.835000
0.010504 -0.002430 0.858000
-0.022482 -0.024418 0.837000
0.010516 0.032215 0.859000
-0.012943 -0.043728 0.844000
-0.009747 -0.008236 0.838000
0.008013 0.016953 0.856000
-0.019702 0.022751 0.836000
0.005514 -0.007313 0.851000
-0.005974 0.012156 0.841000
-0.005313 -0.042438 0.846000
0.006215 -0.002410 0.851000
0.021552 0.030554 0.862000
0.020511 -0.020914 0.863000
-0.012176 0.034228 0.839000
-0.004616 -0.021895 0.846000
0.032836 0.032966 0.851000
0.016604 -0.019493 0.863000
0.027039 -0.035189 0.856000
-0.009100 0.034004 0.842000
0.006596 0.032769 0.855000
-0.013212 -0.039670 0.839000
0.003066 -0.039233 0.852000
0.015183 -0.039739 0.863000
-0.012176 0.025940 0.839000
0.011223 -0.010564 0.859000
-0.003563 0.026790 0.844000
0.008336 0.002149 0.853000
0.026365 -0.002427 0.857000
-0.009338 -0.048675 0.864000
0.028448 0.029989 0.856000
0.015538 0.020644 0.863000
0.023626 -0.011638 0.860000
-0.009435 -0.038034 0.841000
0.019445 -0.005996 0.863000
0.018735 -0.011679 0.863000
0.029436 -0.027374 0.854000
-0.015320 0.044347 0.841000
0.000607 -0.012842 0.846000
0.004453 -0.013586 0.849000
-0.007376 0.023288 0.843000
-0.003911 -0.033654 0.844000
0.006565 0.000392 0.851000
0.017334 0.034537 0.864000
0.019801 0.006081 0.863000
0.013730 -0.001729 0.861000
0.014101 0.002881 0.862000
0.022590 0.012091 0.861000
0.008375 0.024733 0.857000
-0.015917 -0.020604 0.836000
-0.009435 -0.016573 0.841000
-0.017912 0.043372 0.849000
-0.016605 -0.020260 0.836000
0.003070 -0.048056 0.853000
-0.026020 0.019402 0.840000
0.016249 -0.017717 0.863000
0.030140 0.022538 0.854000
-0.014575 0.003490 0.838000
0.008687 0.008819 0.853000
0.014811 -0.018051 0.862000
0.033926 0.018277 0.852000
0.000610 -0.037391 0.850000
0.026365 -0.040168 0.857000
-0.002530 -0.025755 0.847000
-0.021104 -0.017183 0.837000
-0.025359 0.024964 0.841000
0.011590 -0.005267 0.860000
0.016959 0.000043 0.863000
0.027391 0.007793 0.856000
-0.026775 0.023261 0.842000
0.029085 -0.031592 0.854000
0.029788 -0.028780 0.854000
-0.021423 -0.026453 0.836000
0.019801 -0.021269 0.863000
-0.001138 -0.022671 0.849000
0.002021 0.050716 0.855000
-0.009100 -0.021098 0.842000
-0.005654 0.038298 0.845000
0.031472 -0.038181 0.852000
-0.012176 -0.017224 0.839000
-0.001486 0.021681 0.848000
0.007625 -0.006971 0.852000
0.010127 -0.006299 0.856000
0.009081 0.033551 0.857000
-0.012521 0.029393 0.839000
0.000607 -0.030948 0.846000
0.009081 -0.015125 0.857000
-0.015573 -0.016475 0.836000
-0.014558 -0.019939 0.837000
0.026718 0.009566 0.857000
0.008346 0.011641 0.854000
-0.013541 0.019011 0.838000
-0.004600 0.027105 0.843000
-0.015247 -0.003404 0.837000
0.032173 0.036512 0.852000
-0.015573 -0.013034 0.836000
-0.020022 -0.029858 0.835000
0.021197 -0.012020 0.862000
0.022944 0.029810 0.861000
0.031472 0.008107 0.852000
-0.028576 0.023663 0.844000
0.009798 0.026528 0.858000
0.024659 0.037519 0.859000
-0.024687 -0.029897 0.866000
-0.019335 -0.034669 0.835000
0.033926 -0.015387 0.852000
-0.007367 0.014943 0.842000
0.004123 -0.041736 0.853000
0.013021 0.030873 0.861000
-0.006682 0.016002 0.843000
0.012298 -0.011638 0.860000
-0.017722 -0.042137 0.840000
-0.010103 -0.012735 0.839000
0.033576 0.004250 0.852000
0.001311 0.036819 0.851000
0.012298 -0.032876 0.860000
-0.015610 0.036601 0.838000
-0.018025 0.004870 0.838000
0.023299 0.023785 0.861000
0.024659 -0.013392 0.859000
-0.016261 -0.031958 0.836000
-0.004935 0.007657 0.841000
-0.007037 -0.041991 0.844000
0.032173 0.037213 0.852000
-0.009435 -0.017265 0.841000
-0.011512 0.044347 0.841000
0.013376 -0.033623 0.861000
-0.024983 0.023897 0.840000
0.027391 -0.037655 0.856000
0.030455 0.001446 0.853000
-0.012176 0.030429 0.839000
0.023626 -0.009514 0.860000
-0.003559 0.031268 0.843000
-0.002865 -0.012449 0.843000
0.021345 -0.041398 0.868000
-0.021500 0.034918 0.839000
-0.014231 0.005215 0.838000
0.003055 0.026599 0.849000
-0.016261 -0.026109 0.836000
0.033186 0.011951 0.851000
-0.003920 0.040433 0.846000
0.022590 -0.015195 0.861000
-0.022482 0.019677 0.837000
-0.014903 0.001764 0.837000
0.003066 -0.019595 0.852000
-0.026020 0.018711 0.840000
0.006924 -0.013985 0.852000
0.027071 -0.006659 0.857000
-0.003920 -0.038956 0.846000
0.013376 -0.011652 0.861000
0.006596 0.018341 0.855000
0.012370 -0.050868 0.865000
0.023980 -0.003143 0.860000
-0.002879 0.038737 0.847000
0.013021 -0.031142 0.861000
-0.020734 0.020342 0.836000
-0.014593 0.037336 0.839000
-0.000789 0.040576 0.849000
-0.014903 -0.038886 0.837000
-0.015936 0.003142 0.837000
0.024659 0.012770 0.859000
-0.001137 -0.025786 0.848000
0.015183 -0.004930 0.863000
-0.014558 -0.009604 0.837000
0.007283 0.012330 0.853000
0.004474 -0.021023 0.853000
-0.008743 -0.033880 0.841000
-0.006666 -0.029034 0.841000
0.002354 -0.012872 0.848000
-0.017680 0.002111 0.838000
0.009081 -0.038052 0.857000
0.010870 -0.020463 0.859000
-0.005654 0.046645 0.845000
-0.001841 0.050129 0.851000
-0.008089 -0.043432 0.845000
0.012298 -0.037477 0.860000
0.032836 0.033316 0.851000
-0.018648 0.018256 0.835000
-0.021793 -0.018561 0.837000
0.005164 0.026661 0.851000
-0.018692 -0.005126 0.837000
-0.010128 0.026002 0.841000
-0.006666 -0.033188 0.841000
-0.005628 -0.011381 0.841000
-0.018348 0.012443 0.837000
0.028448 0.014839 0.856000
-0.022137 0.016577 0.837000
0.004910 -0.004601 0.868000
0.000259 -0.016691 0.847000
0.000260 -0.042989 0.850000
0.003077 -0.010515 0.855000
-0.020759 -0.015116 0.837000
0.009798 -0.026796 0.858000
-0.006342 -0.024969 0.844000
0.000610 0.046921 0.850000
-0.021104 0.014166 0.837000
0.020866 0.008212 0.863000
-0.025359 0.027387 0.841000
0.014101 0.009267 0.862000
-0.016605 0.015525 0.836000
0.004831 0.046087 0.854000
0.002012 -0.023075 0.851000
0.005508 -0.011853 0.850000
0.017314 -0.014520 0.863000
0.002354 0.014701 0.848000
0.030455 -0.000660 0.853000
0.014456 -0.029759 0.862000
-0.007358 0.030848 0.841000
0.003066 -0.023803 0.852000
0.003767 0.034407 0.852000
-0.003906 -0.029103 0.843000
0.003405 -0.013935 0.849000
0.002365 -0.039934 0.852000
0.028767 -0.005236 0.855000
-0.012851 0.004870 0.838000
0.027391 0.020476 0.856000
-0.007350 0.012833 0.840000
0.013376 0.007130 0.861000
-0.009057 -0.008926 0.838000
-0.017960 -0.032264 0.835000
0.016604 0.020999 0.863000
0.026225 0.029202 0.864000
-0.015573 0.015869 0.836000
-0.019082 0.005221 0.839000
0.003066 -0.036077 0.852000
0.032173 -0.002062 0.852000
-0.025359 0.026002 0.841000
0.018380 -0.030149 0.863000
0.029788 -0.027726 0.854000
0.015538 0.017092 0.863000
-0.027089 0.017695 0.841000
0.018401 0.017823 0.864000
-0.001835 0.041226 0.848000
-0.017960 -0.032607 0.835000
0.013376 -0.037521 0.861000
0.022236 -0.004919 0.861000
-0.016949 -0.021636 0.836000
0.029788 -0.031592 0.854000
0.021197 0.007138 0.862000
-0.019381 -0.008227 0.837000
0.023299 0.038315 0.861000
-0.008407 -0.020405 0.842000
0.012652 -0.006329 0.860000
0.027744 -0.039769 0.856000
0.007308 -0.035894 0.856000
0.021197 -0.012730 0.862000
0.005865 -0.005562 0.851000
0.033926 -0.002763 0.852000
-0.014903 0.000730 0.837000
0.002365 -0.041337 0.852000
0.026043 -0.002076 0.858000
0.029119 0.016582 0.855000
0.031158 0.007415 0.853000
-0.022137 0.022778 0.837000
-0.016929 -0.030889 0.835000
-0.022509 -0.022033 0.838000
0.018735 0.004305 0.863000
-0.005995 -0.039906 0.844000
-0.018670 0.029976 0.836000
0.031822 -0.026258 0.852000
0.003417 0.036512 0.852000
-0.012176 0.020415 0.839000
-0.009747 0.002801 0.838000
-0.019702 -0.037464 0.836000
-0.005995 0.017410 0.844000
0.008687 -0.000660 0.853000
0.004123 0.022511 0.853000
0.008728 0.029319 0.857000
-0.009100 -0.039465 0.842000
-0.009078 -0.033148 0.840000
0.025012 -0.015160 0.859000
-0.014231 0.034187 0.838000
-0.005974 -0.003074 0.841000
-0.003901 -0.013127 0.842000
0.011223 0.000042 0.859000
0.031822 0.016523 0.852000
0.011590 0.036146 0.860000
-0.016970 -0.039575 0.837000
-0.018648 -0.035013 0.835000
0.015183 0.008212 0.863000
-0.005995 -0.039212 0.844000
-0.028195 0.025023 0.843000
0.006924 0.000393 0.852000
0.011223 -0.022585 0.859000
0.007300 0.031713 0.855000
0.004836 -0.047816 0.855000
-0.013212 0.038717 0.839000
0.020156 0.037338 0.863000
0.031509 0.026022 0.853000
-0.017293 -0.016131 0.836000
0.018380 -0.013455 0.863000
-0.001835 0.039830 0.848000
-0.013605 0.045786 0.842000
0.031822 -0.012933 0.852000
0.011944 0.035792 0.860000
-0.009057 0.004525 0.838000
0.033576 0.003198 0.852000
0.014811 0.024877 0.862000
-0.010781 0.000041 0.838000
-0.020415 0.030012 0.837000
0.013376 0.001814 0.861000
0.018046 0.027780 0.864000
0.002359 -0.026896 0.850000
0.020511 -0.037253 0.863000
-0.013886 0.026599 0.838000
-0.019335 -0.023672 0.835000
0.000965 -0.049928 0.855000
0.020156 -0.020559 0.863000
-0.006690 0.040337 0.844000
-0.020784 -0.007202 0.838000
-0.015265 0.006939 0.838000
0.006924 -0.012582 0.852000
-0.001482 0.033121 0.846000
0.030806 0.023916 0.853000
-0.005654 0.035516 0.845000
0.016249 0.009633 0.863000
