0.027906 -0.017322 0.861000
0.013874 0.000759 0.870000
-0.009840 0.024416 0.846000
-0.016260 -0.032998 0.854000
0.027418 0.009331 0.868000
0.003417 0.027394 0.852000
-0.001503 -0.015143 0.858000
0.014640 -0.027983 0.873000
-0.016983 -0.035148 0.855000
0.000624 -0.045791 0.870000
-0.001142 0.010913 0.852000
0.017495 -0.011801 0.872000
-0.023345 0.034217 0.856000
-0.014118 -0.016089 0.852000
0.037120 0.023431 0.861000
-0.018240 0.002136 0.848000
-0.010561 0.039481 0.848000
-0.019985 -0.002052 0.848000
0.006948 0.041919 0.855000
0.005934 -0.005982 0.861000
0.016738 -0.029677 0.870000
0.021084 0.003632 0.872000
0.017515 -0.009299 0.873000
-0.006066 -0.013314 0.854000
0.003453 -0.009526 0.861000
0.021552 -0.045370 0.862000
-0.008951 -0.037875 0.861000
0.007706 0.015281 0.861000
0.006273 0.022316 0.859000
-0.002953 -0.048599 0.869000
0.025573 -0.008155 0.866000
-0.018983 -0.020599 0.850000
-0.012013 -0.014335 0.852000
-0.011608 0.004928 0.848000
0.037829 0.026975 0.861000
-0.005407 -0.033977 0.861000
0.031348 0.030409 0.868000
0.014965 0.000402 0.871000
-0.011090 -0.042886 0.862000
0.033415 0.028557 0.866000
0.014556 0.008617 0.868000
-0.012958 0.029951 0.845000
0.016758 0.002911 0.871000
0.007652 0.028194 0.855000
-0.011259 0.003532 0.848000
-0.014417 0.037082 0.849000
-0.006721 0.028662 0.848000
-0.000793 0.050305 0.854000
-0.011051 -0.036727 0.859000
0.006303 0.003239 0.863000
-0.020683 -0.003797 0.848000
-0.012745 -0.017181 0.854000
-0.005463 -0.050088 0.870000
0.017077 -0.035724 0.869000
-0.019203 0.015186 0.876000
0.033183 -0.000665 0.860000
-0.027347 -0.015683 0.849000
-0.001839 0.032927 0.850000
-0.007204 -0.044408 0.864000
0.003812 -0.013794 0.862000
-0.005325 0.034246 0.848000
0.002365 0.048084 0.852000
-0.004720 -0.039831 0.865000
0.032233 0.008922 0.863000
0.036141 0.028458 0.863000
-0.022288 0.001452 0.856000
-0.005432 -0.041255 0.865000
-0.029758 -0.028927 0.848000
-0.011985 -0.010803 0.850000
-0.025221 -0.031370 0.848000
-0.007154 -0.032093 0.858000
-0.010212 0.006673 0.848000
-0.009863 0.007022 0.848000
-0.026330 -0.036342 0.850000
0.029272 0.026541 0.870000
0.026488 -0.024763 0.861000
0.016437 -0.014329 0.873000
0.008551 -0.043533 0.875000
-0.008847 -0.011166 0.851000
0.026377 0.008985 0.869000
0.014183 0.015030 0.867000
0.022084 0.029729 0.869000
0.015183 0.034141 0.863000
0.001663 0.038265 0.852000
0.002019 0.013047 0.854000
0.011276 0.021710 0.863000
0.024418 -0.026242 0.863000
0.039201 0.027297 0.860000
0.026134 -0.025827 0.861000
0.006619 0.009224 0.858000
0.014439 0.042213 0.861000
-0.002194 0.016173 0.852000
0.018865 0.018999 0.869000
-0.028711 -0.032068 0.848000
0.005996 -0.025739 0.870000
0.031095 -0.005627 0.861000
0.011930 0.039640 0.859000
0.000623 -0.040015 0.869000
0.015949 0.023567 0.866000
0.010857 0.047716 0.858000
0.000978 -0.027046 0.866000
0.016796 -0.011455 0.873000
-0.005822 -0.050088 0.870000
0.003131 -0.035765 0.870000
-0.015797 0.001787 0.848000
0.023353 -0.029794 0.863000
-0.010224 0.011573 0.849000
0.033852 0.001810 0.859000
-0.023697 0.031398 0.856000
0.015359 -0.019719 0.873000
0.024917 -0.001743 0.868000
0.026079 0.035533 0.871000
-0.011392 -0.033859 0.858000
0.017077 -0.034293 0.869000
0.011406 -0.037685 0.873000
0.039555 0.029067 0.860000
-0.020382 -0.024097 0.850000
0.015148 0.042922 0.861000
-0.000441 0.049136 0.852000
-0.023235 0.023537 0.852000
0.017136 -0.001751 0.872000
-0.003242 0.025961 0.851000
0.008041 0.009588 0.859000
-0.015080 -0.046347 0.867000
-0.013961 -0.044408 0.864000
-0.018326 -0.031518 0.852000
-0.014468 -0.016790 0.852000
-0.004288 0.025581 0.850000
0.001669 0.015526 0.855000
-0.028675 0.030071 0.879000
-0.017314 -0.032998 0.854000
0.017833 0.008288 0.871000
0.009134 0.003590 0.862000
-0.013495 -0.035936 0.857000
0.020249 -0.026720 0.867000
-0.000791 0.012666 0.852000
0.017156 -0.008940 0.873000
0.006642 0.003232 0.861000
0.008154 -0.023259 0.871000
-0.019682 0.007739 0.850000
0.004474 0.032341 0.853000
0.032551 0.007138 0.862000
-0.015098 0.012258 0.848000
-0.022481 -0.033193 0.850000
-0.006485 -0.037963 0.863000
0.007652 0.045790 0.855000
0.034800 0.029236 0.865000
0.009477 0.050009 0.861000
0.006016 -0.043074 0.873000
0.006980 0.023023 0.859000
-0.009165 0.040179 0.848000
0.014489 0.025291 0.864000
-0.007054 0.033469 0.846000
-0.006372 0.028313 0.848000
0.019824 -0.042986 0.864000
0.000960 0.031178 0.850000
-0.002930 -0.022664 0.862000
-0.009604 -0.030961 0.856000
0.013188 -0.014672 0.872000
-0.020307 -0.045076 0.877000
0.017057 -0.037469 0.868000
0.015502 0.043630 0.861000
0.007822 -0.039167 0.874000
0.023596 0.014399 0.872000
0.016059 -0.004264 0.872000
0.000265 -0.036397 0.868000
-0.015447 0.014352 0.848000
-0.016903 -0.045738 0.869000
0.013469 0.011105 0.867000
-0.002230 -0.036313 0.866000
-0.007112 -0.010139 0.853000
-0.021751 -0.041467 0.877000
-0.013767 -0.028713 0.852000
-0.023475 -0.007637 0.848000
-0.011731 -0.033114 0.857000
-0.012989 0.015729 0.847000
0.003113 -0.017046 0.865000
-0.003242 0.026661 0.851000
0.009809 0.036104 0.859000
0.019892 0.032872 0.867000
-0.009143 0.033817 0.846000
0.021084 0.006144 0.872000
-0.013322 0.019193 0.846000
0.001319 0.021181 0.856000
0.031312 0.024665 0.867000
0.026999 0.000043 0.866000
-0.004644 0.019306 0.851000
-0.024173 -0.027531 0.848000
0.004831 0.037652 0.854000
-0.014002 0.023343 0.845000
0.008041 0.009942 0.859000
-0.024173 -0.031719 0.848000
-0.012655 0.002834 0.848000
0.019201 0.026837 0.868000
-0.002572 -0.029016 0.861000
0.025187 -0.013842 0.865000
0.027711 0.003607 0.866000
0.007768 -0.012461 0.868000
0.007706 0.002523 0.861000
0.000266 -0.042519 0.869000
-0.012056 -0.023887 0.855000
0.011577 0.039640 0.859000
-0.019378 0.033706 0.852000
-0.009863 0.015050 0.848000
-0.017891 0.026567 0.848000
-0.013353 0.005277 0.848000
0.015359 -0.024390 0.873000
0.007343 0.004998 0.860000
0.019289 0.006503 0.872000
0.023928 0.009722 0.871000
-0.015520 -0.030115 0.852000
-0.020358 0.021707 0.849000
-0.010897 0.017821 0.847000
-0.019264 -0.004490 0.847000
0.030812 0.002529 0.863000
0.006596 0.041567 0.855000
0.000265 -0.026333 0.866000
0.013203 -0.019360 0.873000
-0.018677 0.035109 0.852000
0.017057 -0.039969 0.868000
-0.014400 0.012607 0.848000
-0.026899 0.027908 0.857000
-0.002926 -0.027598 0.861000
0.024390 -0.028695 0.862000
0.005650 -0.035488 0.872000
0.032233 0.010698 0.863000
0.015000 -0.025827 0.873000
0.009433 0.040253 0.857000
0.013142 0.000758 0.869000
0.021060 0.019043 0.871000
0.011766 -0.019719 0.873000
0.006244 0.038400 0.855000
0.017475 0.008647 0.871000
-0.012098 -0.034565 0.858000
0.033453 0.032872 0.867000
0.023900 0.034060 0.870000
0.014183 0.012532 0.867000
-0.006066 -0.014017 0.854000
0.002392 -0.009891 0.862000
0.001700 -0.044051 0.871000
0.008004 0.028898 0.855000
-0.013353 0.037736 0.848000
0.012652 0.038978 0.860000
0.010516 0.037519 0.859000
0.032159 -0.000312 0.861000
0.018422 0.034220 0.865000
0.016777 -0.019337 0.872000
0.018066 -0.045528 0.865000
0.009488 0.021684 0.862000
0.018508 -0.027497 0.869000
0.022642 -0.034056 0.863000
0.032829 -0.001727 0.860000
-0.000092 -0.033857 0.867000
0.004500 0.020877 0.858000
0.006635 0.020218 0.860000
0.020319 0.021169 0.870000
-0.015063 0.029290 0.846000
0.015718 -0.020797 0.873000
0.026611 -0.007434 0.865000
-0.007196 -0.040805 0.863000
-0.011608 0.004230 0.848000
-0.010648 -0.016849 0.855000
0.014573 0.005408 0.869000
-0.009874 -0.003452 0.849000
-0.023181 -0.003107 0.850000
0.015682 -0.033655 0.871000
-0.008567 -0.023971 0.858000
0.029289 -0.019071 0.860000
0.001326 -0.016259 0.861000
-0.025888 -0.026104 0.847000
-0.007437 0.014386 0.850000
-0.019775 -0.038270 0.854000
-0.010561 0.015748 0.848000
0.019581 0.020787 0.869000
-0.012789 -0.033819 0.857000
0.008769 0.013509 0.861000
-0.014051 -0.005891 0.848000
0.008144 -0.019651 0.870000
0.023955 0.015117 0.872000
0.004162 -0.008817 0.861000
-0.012745 -0.019993 0.854000
-0.010735 -0.043241 0.862000
0.013922 -0.013611 0.873000
0.025720 0.019401 0.871000
0.012770 0.004687 0.868000
0.012097 -0.013221 0.871000
-0.015502 -0.016070 0.851000
-0.007778 0.006681 0.849000
0.027030 0.004682 0.867000
-0.010561 0.010163 0.848000
-0.002892 0.026311 0.851000
0.014215 0.002904 0.869000
-0.011259 0.004230 0.848000
-0.006721 0.041575 0.848000
0.036680 0.012063 0.859000
-0.011352 -0.017905 0.855000
-0.019137 0.012978 0.873000
-0.023099 -0.021572 0.847000
0.013516 -0.002464 0.870000
0.008759 0.009245 0.860000
-0.013686 0.035251 0.847000
0.016437 -0.009658 0.873000
0.029747 -0.002799 0.863000
-0.004982 0.043022 0.849000
0.006002 -0.030428 0.871000
0.019179 0.029661 0.867000
-0.015437 -0.045990 0.867000
-0.025888 -0.029241 0.847000
-0.013751 -0.012217 0.851000
-0.014400 -0.005891 0.848000
0.018108 0.026449 0.867000
0.000265 -0.037826 0.868000
0.004142 0.014504 0.857000
-0.018938 -0.013919 0.848000
0.010870 0.038226 0.859000
0.012484 -0.031576 0.873000
-0.019636 -0.011825 0.848000
0.018822 -0.035641 0.867000
-0.011649 -0.012567 0.851000
-0.022079 -0.004146 0.848000
0.006956 0.036331 0.856000
0.010504 0.039241 0.858000
-0.004288 0.008788 0.850000
0.013188 -0.036924 0.872000
-0.025518 0.032531 0.858000
-0.006745 0.045926 0.851000
0.037431 0.019510 0.860000
-0.027631 -0.027847 0.847000
-0.011915 0.030299 0.845000
0.019513 0.033547 0.866000
0.036496 0.029169 0.863000
0.029712 -0.004570 0.862000
-0.015797 -0.001354 0.848000
-0.014715 0.018148 0.846000
0.000978 0.052081 0.866000
-0.005688 0.014036 0.850000
0.026225 -0.014893 0.864000
0.002785 -0.048879 0.874000
0.028068 0.003251 0.866000
0.009250 -0.031576 0.873000
-0.001156 -0.030824 0.862000
-0.000092 -0.028083 0.865000
0.005618 -0.016729 0.867000
-0.001528 0.009374 0.872000
0.015218 0.024608 0.865000
-0.021730 -0.023343 0.848000
-0.014400 0.002485 0.848000
-0.031060 -0.023887 0.855000
-0.029793 -0.031756 0.849000
-0.014118 -0.025907 0.852000
0.004191 -0.018513 0.867000
-0.010648 -0.018257 0.855000
0.024617 0.004340 0.870000
-0.000448 -0.025235 0.865000
0.034245 -0.002435 0.860000
-0.024373 0.026787 0.855000
-0.018240 0.003183 0.848000
-0.010561 0.007022 0.848000
-0.014819 -0.015387 0.852000
0.028781 0.008954 0.866000
-0.015063 0.028942 0.846000
0.019513 0.034616 0.866000
-0.016923 -0.029414 0.852000
0.019157 -0.037026 0.866000
-0.010548 0.018867 0.847000
-0.020903 -0.040168 0.857000
-0.008477 0.012272 0.849000
0.012284 0.047771 0.859000
0.037518 0.030909 0.862000
0.012844 -0.031936 0.873000
0.025003 0.015099 0.871000
0.024258 0.034776 0.870000
-0.019027 -0.030115 0.852000
0.006368 -0.034411 0.872000
-0.017500 0.022675 0.846000
0.006596 0.041215 0.855000
-0.016572 -0.026609 0.852000
0.029104 0.003959 0.865000
0.003772 0.033395 0.853000
-0.021558 0.035232 0.855000
0.039509 0.026559 0.859000
0.012028 0.004320 0.866000
-0.013066 -0.027661 0.852000
-0.013702 0.006673 0.848000
-0.004638 0.007739 0.850000
0.006642 -0.002084 0.861000
0.023515 -0.003891 0.869000
0.009261 -0.041325 0.874000
0.024258 0.005056 0.870000
-0.015797 0.003532 0.848000
-0.004293 0.006697 0.851000
0.000621 -0.025620 0.866000
0.020296 0.022933 0.869000
0.004147 0.021584 0.858000
-0.002930 -0.033662 0.862000
-0.002882 0.038783 0.848000
0.021060 0.016892 0.871000
-0.009230 -0.015775 0.854000
0.021957 -0.035162 0.864000
0.022971 -0.037919 0.862000
0.035307 0.011015 0.860000
0.022852 0.000043 0.871000
-0.018218 0.018518 0.847000
-0.009143 0.034862 0.846000
-0.019310 0.024852 0.849000
0.014640 -0.020797 0.873000
-0.015794 -0.045990 0.867000
-0.010884 0.025112 0.846000
0.003134 -0.041900 0.871000
0.001319 0.019772 0.856000
-0.014400 -0.004844 0.848000
-0.004994 0.005646 0.851000
0.006346 0.006123 0.869000
-0.007204 -0.045475 0.864000
-0.023099 -0.014600 0.847000
-0.009316 -0.042886 0.862000
0.027647 -0.007069 0.864000
-0.021858 -0.037874 0.853000
0.018066 -0.045884 0.865000
-0.012422 -0.033075 0.856000
-0.017193 0.028313 0.848000
0.034444 0.031372 0.865000
0.009599 -0.022209 0.872000
-0.018960 -0.017430 0.849000
-0.004720 -0.039475 0.865000
0.005194 0.050071 0.856000
0.038050 0.016993 0.858000
0.028935 -0.021195 0.860000
0.039463 0.020877 0.858000
0.014281 -0.022234 0.873000
-0.014749 0.000042 0.848000
-0.003618 -0.015478 0.857000
0.000260 0.029779 0.850000
-0.000805 -0.035284 0.867000
-0.005041 -0.027181 0.859000
-0.026377 0.034141 0.863000
-0.018240 -0.011127 0.848000
-0.017562 -0.012887 0.849000
-0.026268 -0.032068 0.848000
0.019648 -0.008571 0.872000
-0.010308 -0.018278 0.856000
0.022669 -0.029117 0.864000
-0.018240 -0.008684 0.848000
-0.007062 0.030371 0.847000
0.018865 0.017926 0.869000
0.015324 -0.030787 0.871000
0.032829 0.000042 0.860000
-0.001841 0.027712 0.851000
0.004553 -0.023893 0.868000
-0.023154 -0.030708 0.849000
-0.027315 -0.018107 0.848000
-0.004698 -0.024763 0.861000
0.024091 -0.021294 0.864000
0.033537 0.003582 0.860000
0.013562 -0.015048 0.873000
-0.001512 -0.022690 0.863000
-0.008920 -0.022558 0.858000
0.002412 -0.033220 0.869000
-0.010910 0.008069 0.848000
-0.007769 0.040877 0.848000
0.012638 0.028326 0.859000
0.021777 0.019760 0.871000
0.014422 0.045703 0.860000
0.011380 -0.013221 0.871000
-0.005344 0.003545 0.851000
-0.017891 0.026218 0.848000
0.024560 -0.001386 0.868000
-0.017253 -0.020623 0.851000
0.005182 0.032379 0.854000
0.006719 -0.030787 0.871000
-0.011259 0.000391 0.848000
-0.001844 0.010562 0.852000
0.028457 0.009321 0.867000
-0.016863 0.031491 0.849000
0.028293 -0.027276 0.862000
0.015271 0.012904 0.868000
0.012484 -0.022234 0.873000
0.009588 -0.020749 0.871000
-0.017954 -0.027278 0.851000
0.025216 -0.009581 0.866000
-0.009525 0.011224 0.849000
0.025809 -0.023018 0.862000
0.030102 0.002174 0.863000
-0.004293 0.015103 0.851000
-0.014819 -0.029063 0.852000
0.017495 -0.002110 0.872000
-0.004720 -0.038407 0.865000
0.025869 -0.012759 0.864000
0.007804 -0.031181 0.872000
-0.010561 0.015399 0.848000
0.034444 0.029948 0.865000
-0.001144 0.022160 0.853000
-0.024402 0.029637 0.856000
0.026874 -0.020890 0.862000
-0.009316 -0.040758 0.862000
-0.018611 0.026948 0.849000
0.013562 -0.015767 0.873000
-0.000801 -0.018406 0.862000
-0.025949 -0.011140 0.849000
0.035348 0.015635 0.861000
0.004485 0.035584 0.855000
0.010688 -0.022953 0.873000
-0.001140 0.035026 0.850000
0.010920 0.003950 0.863000
0.030528 0.008943 0.865000
0.002766 -0.027823 0.868000
-0.005688 0.014386 0.850000
-0.025165 0.033944 0.858000
-0.022831 -0.001707 0.850000
0.033970 0.014589 0.862000
0.013890 -0.003900 0.871000
-0.015411 0.025808 0.846000
-0.019705 -0.026928 0.851000
0.014281 -0.019000 0.873000
-0.003593 0.023159 0.851000
0.021777 0.020118 0.871000
-0.008826 -0.000308 0.849000
0.021577 -0.040450 0.863000
0.019179 0.029304 0.867000
-0.020334 -0.014268 0.848000
0.018066 0.035289 0.865000
0.014982 -0.009288 0.872000
0.039201 0.028005 0.860000
-0.004649 0.018978 0.852000
0.022944 -0.041419 0.861000
-0.016222 -0.029765 0.852000
0.011406 -0.027264 0.873000
-0.018589 0.004579 0.848000
0.006642 0.002877 0.861000
0.004123 0.043576 0.853000
0.016700 0.016834 0.868000
-0.017624 0.036512 0.852000
0.004848 0.012740 0.857000
0.031095 -0.002438 0.861000
0.014590 -0.045433 0.870000
0.025425 -0.032560 0.861000
0.002776 -0.040466 0.871000
0.017813 -0.026813 0.870000
-0.005688 0.021033 0.850000
0.021084 -0.002828 0.872000
0.022998 -0.030504 0.863000
0.002404 -0.020987 0.866000
0.007652 0.044734 0.855000
-0.013848 -0.037347 0.857000
-0.021730 -0.020201 0.848000
0.020891 -0.037296 0.864000
-0.013702 0.004928 0.848000
-0.002542 0.025961 0.851000
0.010269 -0.006388 0.868000
0.005534 0.042221 0.854000
0.033020 0.023896 0.865000
0.004147 0.020877 0.858000
0.034760 0.024935 0.864000
-0.013369 -0.010092 0.849000
0.031559 0.012845 0.864000
0.031027 0.034021 0.869000
-0.004994 0.005296 0.851000
-0.004982 0.027647 0.849000
0.010920 0.021354 0.863000
-0.012306 0.006324 0.848000
0.004220 -0.044511 0.873000
0.019961 0.020811 0.870000
0.008060 0.016344 0.861000
-0.015429 0.031765 0.847000
0.029036 -0.005640 0.863000
0.031027 0.033663 0.869000
-0.023669 0.030658 0.855000
0.015682 -0.000315 0.871000
0.025455 -0.038629 0.862000
0.011210 0.028646 0.858000
0.013021 0.032645 0.861000
-0.009874 0.010874 0.849000
-0.028711 -0.031719 0.848000
0.026019 0.007196 0.869000
-0.010723 -0.041419 0.861000
0.012341 0.023485 0.863000
-0.024638 -0.038181 0.852000
0.004904 -0.018870 0.867000
-0.019659 0.024153 0.849000
0.012014 0.013927 0.865000
0.041229 0.026175 0.858000
0.012844 -0.022593 0.873000
0.015700 -0.004264 0.872000
-0.005432 -0.044104 0.865000
-0.012655 0.012956 0.848000
0.024362 -0.036812 0.861000
-0.025811 0.026114 0.856000
0.018108 -0.038496 0.867000
-0.011445 -0.043596 0.862000
0.038847 0.028713 0.860000
-0.009514 0.039830 0.848000
0.034599 0.007830 0.860000
0.010492 0.043075 0.857000
0.021369 -0.016052 0.869000
0.009112 0.011723 0.860000
0.014982 -0.031540 0.872000
0.015253 0.017885 0.867000
-0.003239 0.028030 0.850000
-0.006094 -0.027502 0.858000
0.015271 -0.044971 0.868000
-0.004976 0.034595 0.848000
0.014281 -0.030139 0.873000
0.039110 0.021231 0.858000
-0.025888 -0.017389 0.847000
0.032829 -0.002081 0.860000
0.000621 -0.027046 0.866000
0.031450 -0.003856 0.861000
0.010688 -0.040200 0.873000
-0.005688 0.045872 0.850000
0.005913 0.008518 0.858000
-0.020358 -0.022671 0.849000
-0.006729 0.011923 0.849000
-0.009863 0.016795 0.848000
0.022800 0.031517 0.869000
0.008116 -0.010662 0.867000
0.022642 -0.036187 0.863000
-0.001144 0.049895 0.853000
-0.000449 -0.037069 0.867000
0.020987 0.031481 0.868000
0.028326 -0.007416 0.863000
0.002373 0.013415 0.855000
0.008135 -0.014979 0.869000
0.025333 0.009711 0.870000
0.031413 -0.012700 0.860000
0.024917 -0.003887 0.868000
0.017394 -0.041351 0.867000
-0.002882 0.040877 0.848000
-0.012625 0.033121 0.846000
0.020366 -0.001034 0.872000
-0.025191 -0.022966 0.847000
0.016059 -0.006417 0.872000
-0.014749 0.034595 0.848000
0.036453 0.026651 0.862000
0.028227 -0.025089 0.860000
-0.003284 -0.026211 0.862000
0.007094 -0.038762 0.873000
-0.024430 0.031788 0.857000
0.016939 0.043681 0.862000
0.016059 -0.022926 0.872000
0.008718 0.031046 0.856000
0.016700 -0.040684 0.868000
-0.011352 -0.018960 0.855000
-0.012655 0.038434 0.848000
0.015183 0.035207 0.863000
0.008051 0.022342 0.860000
0.016399 0.003269 0.871000
-0.022777 -0.027531 0.848000
0.015288 0.006123 0.869000
0.004469 0.030550 0.852000
0.027355 -0.001383 0.866000
-0.001493 0.049136 0.852000
0.010857 0.039947 0.858000
0.023928 0.012590 0.871000
-0.015946 -0.036246 0.856000
0.027154 0.022269 0.871000
-0.005332 0.044769 0.849000
0.006588 0.047142 0.854000
0.005201 0.012740 0.857000
0.005534 0.047493 0.854000
-0.015241 -0.034484 0.856000
-0.029898 -0.035025 0.852000
-0.014941 -0.040616 0.859000
-0.016495 0.029709 0.848000
-0.027315 -0.032766 0.848000
0.029305 0.033741 0.871000
0.015324 -0.034013 0.871000
-0.024872 -0.012174 0.848000
-0.000441 0.049486 0.852000
0.012298 0.036500 0.860000
-0.007196 -0.038674 0.863000
-0.013718 -0.007646 0.849000
0.035661 0.002520 0.860000
0.033415 0.028914 0.866000
-0.022777 -0.024390 0.848000
0.001695 -0.010317 0.868000
-0.014468 -0.026959 0.852000
-0.011286 -0.011853 0.850000
0.002012 0.031565 0.851000
0.010971 -0.000314 0.867000
0.016059 -0.004982 0.872000
0.000626 0.009385 0.873000
0.001319 0.018715 0.856000
-0.009592 -0.027406 0.855000
-0.010248 -0.012217 0.851000
-0.007507 -0.019733 0.858000
-0.017891 0.027615 0.848000
0.009261 -0.036649 0.874000
0.029289 -0.015886 0.860000
-0.004988 0.046571 0.850000
0.015646 0.010415 0.869000
-0.017933 0.010187 0.850000
0.002379 0.016973 0.857000
-0.016883 0.033277 0.850000
0.004574 -0.041948 0.872000
0.009786 0.030377 0.857000
0.015664 -0.035048 0.870000
-0.009828 0.032386 0.845000
-0.013081 -0.016459 0.853000
0.004938 -0.041996 0.873000
0.007334 0.009942 0.859000
0.004215 -0.040513 0.872000
0.021777 -0.002466 0.871000
-0.001165 -0.044307 0.869000
0.023211 0.007213 0.871000
0.007822 -0.042404 0.874000
0.007334 0.010649 0.859000
-0.004638 0.011237 0.850000
0.017854 -0.007135 0.872000
0.011034 -0.017543 0.872000
0.025691 0.009353 0.870000
-0.017193 -0.005193 0.848000
-0.010548 0.019564 0.847000
0.018572 -0.012160 0.872000
0.028947 0.035175 0.871000
0.024418 -0.026952 0.863000
0.002773 -0.036839 0.870000
-0.022777 -0.009033 0.848000
-0.001839 0.030478 0.850000
0.016604 0.036983 0.863000
-0.028462 -0.036034 0.851000
0.000261 0.049895 0.853000
0.017374 0.029626 0.866000
0.017854 -0.006058 0.872000
-0.021406 -0.024768 0.849000
-0.000803 -0.021649 0.864000
-0.002593 -0.047115 0.868000
-0.013799 -0.021399 0.854000
-0.021007 -0.009022 0.847000
0.018171 -0.022158 0.870000
0.011047 -0.022234 0.873000
0.007086 -0.031540 0.872000
-0.025980 -0.036342 0.850000
0.040522 0.026881 0.858000
-0.016903 -0.017121 0.851000
0.026286 -0.003165 0.866000
0.017156 -0.008221 0.873000
0.006735 -0.038044 0.873000
-0.002930 -0.022309 0.862000
0.032196 0.004655 0.862000
-0.016804 0.022675 0.846000
-0.017933 -0.020249 0.850000
-0.001519 -0.037426 0.867000
0.005201 0.009919 0.857000
-0.016863 0.030792 0.849000
0.024645 0.016892 0.871000
0.023184 -0.001031 0.870000
0.011766 -0.029420 0.873000
-0.006380 0.009477 0.849000
-0.026934 -0.027498 0.847000
0.020678 -0.012132 0.870000
-0.000440 0.040974 0.850000
0.024231 -0.001745 0.869000
0.000610 0.046571 0.850000
0.003794 0.020524 0.858000
-0.020310 -0.011811 0.847000
-0.001142 0.026342 0.852000
0.012413 0.001115 0.868000
-0.015466 0.034636 0.849000
-0.011759 -0.038141 0.859000
-0.001839 0.031178 0.850000
-0.014068 -0.009393 0.849000
0.011289 0.016401 0.864000
-0.020032 0.025930 0.850000
0.035116 0.026358 0.864000
0.015165 0.038359 0.862000
0.014590 -0.041852 0.870000
0.025362 0.033024 0.871000
-0.029409 -0.025437 0.848000
0.023131 -0.010675 0.868000
-0.021356 -0.012160 0.847000
-0.007860 -0.020440 0.858000
-0.011259 0.000740 0.848000
0.024617 0.005056 0.870000
-0.006729 0.007031 0.849000
-0.019332 -0.024097 0.850000
0.015218 0.026744 0.865000
-0.021807 -0.033232 0.851000
0.006980 0.008528 0.859000
0.024475 -0.014910 0.865000
-0.014655 -0.042936 0.863000
0.015236 0.020359 0.866000
-0.013670 0.032772 0.846000
0.021932 -0.038674 0.863000
-0.024523 -0.029625 0.848000
0.027743 0.008607 0.867000
0.012829 -0.039077 0.872000
0.023515 -0.002461 0.869000
-0.001876 -0.041351 0.867000
0.001661 0.042423 0.851000
0.012441 -0.005686 0.870000
0.032475 -0.002789 0.860000
-0.002259 -0.051934 0.877000
-0.013158 -0.037743 0.858000
-0.005344 0.019656 0.851000
0.010492 0.044838 0.857000
0.025187 -0.015266 0.865000
0.004876 -0.011665 0.862000
-0.004293 0.023159 0.851000
-0.019332 0.007039 0.850000
0.011658 0.014283 0.865000
0.011590 0.033315 0.860000
-0.001846 0.020756 0.853000
-0.024373 0.028194 0.855000
0.021271 -0.034847 0.865000
-0.009143 0.029290 0.846000
-0.013004 0.008069 0.848000
-0.005338 0.021382 0.850000
0.024175 -0.009949 0.867000
0.006997 0.000751 0.861000
0.007343 0.005706 0.860000
-0.010910 0.007022 0.848000
-0.014749 -0.004146 0.848000
-0.020358 -0.021623 0.849000
0.038538 0.031227 0.861000
0.020701 0.019401 0.871000
0.003485 -0.031789 0.869000
0.002057 -0.041494 0.870000
0.029205 0.018977 0.868000
0.026104 -0.030398 0.860000
-0.015466 -0.008694 0.849000
0.035471 0.030980 0.864000
0.005527 0.046736 0.853000
0.027418 0.008260 0.868000
0.012844 -0.022953 0.873000
-0.010910 0.002136 0.848000
-0.022534 -0.037129 0.852000
0.036723 0.019510 0.860000
0.021394 0.023318 0.870000
-0.018938 0.001787 0.848000
-0.005755 -0.022965 0.860000
0.023928 0.010798 0.871000
-0.009514 0.004579 0.848000
-0.013767 -0.015387 0.852000
-0.002235 -0.046400 0.868000
0.025839 -0.017717 0.863000
0.024774 -0.025531 0.863000
-0.005801 -0.048131 0.867000
-0.007906 -0.042936 0.863000
0.008820 -0.008155 0.866000
0.004933 -0.038718 0.872000
0.032063 0.030409 0.868000
-0.012042 -0.031240 0.854000
-0.017152 0.020237 0.846000
0.006244 0.040159 0.855000
-0.005344 0.004245 0.851000
0.021802 0.001120 0.872000
-0.008098 0.031728 0.846000
0.023900 0.003982 0.870000
-0.008098 0.030335 0.846000
-0.020659 -0.012508 0.847000
0.005605 -0.014198 0.865000
0.029426 0.002532 0.864000
0.026346 0.004687 0.868000
-0.019729 0.032654 0.852000
0.007697 0.007830 0.860000
0.018422 -0.046240 0.865000
0.024617 0.006846 0.870000
0.011406 -0.021516 0.873000
-0.017645 -0.032257 0.853000
-0.009863 0.008767 0.848000
0.036099 0.023103 0.862000
0.004200 -0.029286 0.869000
0.012755 0.008607 0.867000
-0.022777 -0.026135 0.848000
-0.001519 -0.038139 0.867000
-0.024202 -0.008344 0.849000
-0.001839 0.029779 0.850000
-0.006387 0.004240 0.850000
0.027679 -0.003517 0.865000
-0.001162 -0.038139 0.867000
-0.026962 0.031508 0.859000
-0.000791 0.035768 0.851000
0.035156 0.030660 0.865000
-0.019287 0.000391 0.848000
-0.004709 -0.035122 0.863000
0.020511 -0.042226 0.863000
0.037120 0.022014 0.861000
0.024286 0.009364 0.871000
0.008444 -0.006003 0.864000
0.028391 -0.000313 0.865000
0.010305 -0.015730 0.871000
-0.003652 -0.036983 0.865000
-0.020406 0.026661 0.851000
-0.012306 -0.005193 0.848000
0.021552 -0.045724 0.862000
0.002047 -0.022769 0.866000
-0.004278 0.038085 0.848000
-0.013799 -0.022805 0.854000
0.002033 -0.014116 0.860000
-0.004627 0.042273 0.848000
0.026407 0.014366 0.870000
-0.002940 -0.036271 0.865000
-0.025539 -0.021921 0.847000
0.006288 -0.002084 0.861000
-0.005688 0.024531 0.850000
-0.000439 0.041974 0.849000
-0.015187 -0.024533 0.853000
0.003785 0.024000 0.856000
0.011047 -0.024031 0.873000
0.028914 0.024392 0.870000
-0.015946 -0.037655 0.856000
0.031312 0.022881 0.867000
0.005625 -0.018177 0.868000
0.019938 0.022218 0.869000
0.028814 0.010391 0.867000
0.024286 0.009722 0.871000
0.035307 0.012077 0.860000
-0.023154 -0.005549 0.849000
0.017854 0.002555 0.872000
0.020273 -0.021750 0.868000
0.017455 0.010069 0.870000
-0.014151 -0.023508 0.854000
-0.011103 -0.044002 0.863000
0.010305 -0.015013 0.871000
-0.021705 -0.013903 0.847000
0.039110 0.019112 0.858000
0.004904 -0.017442 0.867000
-0.018655 -0.025527 0.851000
-0.017583 0.012986 0.850000
-0.003258 0.008136 0.855000
-0.008194 -0.028495 0.856000
0.035156 0.033152 0.865000
-0.012306 0.005626 0.848000
-0.021057 -0.001006 0.849000
-0.016572 -0.024505 0.852000
0.012111 -0.014672 0.872000
-0.023181 -0.033543 0.850000
0.014811 0.035521 0.862000
0.027873 -0.022257 0.860000
0.001311 0.047327 0.851000
-0.014383 0.013986 0.847000
0.016418 -0.000675 0.872000
-0.002885 0.036383 0.849000
-0.017562 0.029394 0.849000
0.032271 0.013911 0.864000
-0.026966 -0.017409 0.848000
-0.016222 -0.019595 0.852000
0.011631 0.020289 0.863000
-0.007428 0.013670 0.849000
0.009433 0.031082 0.857000
-0.010586 -0.009404 0.850000
0.007804 -0.031540 0.872000
0.025362 0.028005 0.871000
0.005225 -0.002438 0.861000
0.005540 0.035936 0.855000
-0.017193 -0.000307 0.848000
0.023515 -0.002103 0.869000
0.018108 0.027163 0.867000
-0.002187 0.038130 0.849000
0.004836 0.035936 0.855000
0.002023 0.022590 0.856000
0.002731 0.016973 0.857000
-0.013542 -0.041371 0.860000
-0.018698 0.036203 0.853000
-0.024218 -0.039693 0.862000
0.008502 -0.019293 0.870000
-0.004369 -0.045580 0.866000
0.023078 -0.021343 0.866000
0.024645 0.027647 0.871000
0.012484 -0.020797 0.873000
-0.009491 0.027201 0.846000
0.024860 -0.009224 0.866000
-0.018983 0.007739 0.850000
-0.007437 0.014735 0.850000
0.008088 -0.007781 0.864000
0.021652 -0.023838 0.866000
-0.016983 -0.034796 0.855000
0.004848 0.013446 0.857000
-0.009615 -0.020416 0.857000
0.001671 0.016601 0.856000
-0.024523 -0.011127 0.848000
-0.004994 0.018956 0.851000
0.026765 0.018663 0.870000
-0.015241 -0.037655 0.856000
0.014281 -0.024031 0.873000
0.024475 -0.016334 0.865000
-0.004339 -0.027920 0.860000
0.040522 0.028646 0.858000
0.018844 0.023979 0.868000
-0.001156 -0.031178 0.862000
0.019648 0.004709 0.872000
-0.019961 -0.011811 0.847000
0.011766 -0.042356 0.873000
-0.015812 -0.046400 0.868000
0.014931 -0.045023 0.869000
-0.016553 -0.016420 0.851000
0.018909 0.008647 0.871000
0.030991 0.027909 0.868000
-0.008118 0.009814 0.848000
0.005285 -0.033655 0.871000
0.029747 -0.001733 0.863000
0.004118 0.028446 0.852000
-0.025888 -0.018783 0.847000
-0.020781 0.028446 0.852000
-0.015520 -0.019595 0.852000
-0.007869 -0.024706 0.859000
0.020273 -0.023536 0.868000
-0.012306 -0.000307 0.848000
0.021552 -0.043951 0.862000
-0.024551 -0.009742 0.849000
-0.022131 -0.033893 0.850000
0.023736 -0.023783 0.864000
-0.024901 -0.009393 0.849000
-0.011259 0.006673 0.848000
0.005188 0.034177 0.855000
-0.018017 -0.034755 0.854000
-0.008098 0.031031 0.846000
0.001337 -0.034611 0.868000
0.030276 0.018620 0.868000
0.024286 0.021552 0.871000
-0.008127 0.002837 0.849000
0.032159 0.002877 0.861000
0.002719 0.026373 0.853000
-0.001142 0.014069 0.852000
0.005566 0.018073 0.859000
-0.011971 -0.009043 0.849000
0.032383 0.027520 0.867000
0.000265 -0.028828 0.866000
0.024286 0.011873 0.871000
-0.020103 0.033044 0.853000
-0.013495 -0.035583 0.857000
-0.017521 0.024445 0.847000
0.023184 -0.001747 0.870000
-0.010897 0.016426 0.847000
0.017475 -0.022183 0.871000
-0.017891 0.000042 0.848000
0.025484 -0.021269 0.863000
0.024645 0.031590 0.871000
0.002023 0.021181 0.856000
-0.002950 -0.047472 0.868000
-0.015797 -0.004844 0.848000
0.011944 0.025174 0.860000
0.038094 0.014184 0.859000
0.007462 -0.039886 0.874000
0.025003 0.031948 0.871000
0.001316 0.013399 0.854000
0.006635 0.017387 0.860000
0.023569 0.024062 0.871000
0.031705 0.031124 0.868000
-0.023099 -0.015646 0.847000
-0.025280 -0.035292 0.850000
-0.017193 0.015050 0.848000
0.001333 -0.019182 0.865000
-0.009525 0.011923 0.849000
0.015000 -0.022234 0.873000
0.006665 -0.012048 0.864000
-0.005332 0.010874 0.849000
-0.020502 -0.039371 0.855000
-0.029758 -0.028578 0.848000
-0.008547 -0.027438 0.856000
-0.012730 -0.015756 0.853000
0.009422 0.046195 0.856000
0.034245 0.006414 0.860000
-0.006066 -0.012260 0.854000
-0.030456 -0.027182 0.848000
-0.011259 -0.003099 0.848000
0.004147 0.021231 0.858000
0.011406 -0.021875 0.873000
0.011577 0.041408 0.859000
0.012370 0.016064 0.865000
0.026049 0.013292 0.870000
0.016267 0.033470 0.864000
0.012844 -0.028702 0.873000
-0.011405 -0.037787 0.859000
0.021246 -0.035874 0.864000
0.005213 0.020902 0.859000
-0.011259 0.003881 0.848000
0.025245 -0.005667 0.867000
-0.021432 0.023482 0.850000
0.016059 -0.022568 0.872000
0.005618 -0.016372 0.867000
0.016777 -0.006058 0.872000
-0.010586 -0.009054 0.850000
0.004123 0.047438 0.853000
0.025691 0.010069 0.870000
-0.010735 -0.042177 0.862000
-0.014018 0.031031 0.846000
-0.009944 -0.016497 0.855000
0.006383 -0.042764 0.874000
0.003134 -0.042259 0.871000
0.013531 -0.007485 0.871000
0.004474 0.041469 0.853000
0.001311 0.048377 0.851000
-0.020056 -0.030080 0.851000
0.002409 -0.031038 0.868000
0.016681 -0.044205 0.867000
-0.003610 -0.010515 0.855000
0.029528 0.013603 0.867000
0.030884 0.013215 0.865000
0.023708 -0.028018 0.863000
0.016059 -0.000675 0.872000
0.012398 0.005752 0.867000
0.024831 -0.017402 0.865000
0.010139 0.027555 0.857000
0.002049 -0.027077 0.867000
-0.011690 -0.016829 0.854000
0.014472 0.032010 0.863000
0.032944 0.013895 0.863000
0.030032 -0.008462 0.861000
0.012799 -0.004254 0.870000
0.038448 0.020902 0.859000
-0.017912 0.007380 0.849000
0.025042 -0.035708 0.860000
-0.021381 -0.018456 0.848000
-0.008165 -0.005926 0.853000
-0.000449 -0.034214 0.867000
-0.014767 -0.007646 0.849000
-0.026998 -0.014285 0.849000
-0.002584 -0.035203 0.865000
-0.002187 0.044769 0.849000
0.016585 0.043681 0.862000
0.009809 0.024437 0.859000
-0.027284 0.026175 0.858000
0.004825 0.028128 0.853000
0.014965 -0.000674 0.871000
-0.019705 0.030514 0.851000
-0.022209 0.028831 0.853000
0.027323 -0.004229 0.865000
-0.019355 -0.025877 0.851000
-0.016146 -0.001005 0.848000
-0.003635 -0.032560 0.861000
0.006266 0.013462 0.858000
0.008163 -0.029387 0.872000
0.003142 -0.008221 0.873000
0.038183 0.026975 0.861000
0.026316 0.000043 0.867000
0.031915 0.013200 0.864000
-0.025751 -0.008745 0.854000
-0.010871 0.033081 0.845000
0.001316 0.012344 0.854000
0.033537 0.001812 0.860000
-0.013265 -0.046952 0.865000
-0.008951 -0.036103 0.861000
-0.021082 0.002491 0.850000
0.024617 0.033702 0.870000
0.036099 0.024523 0.862000
-0.016824 0.016775 0.847000
0.015857 0.045756 0.861000
-0.010212 -0.001703 0.848000
-0.010212 0.002136 0.848000
0.012125 -0.039481 0.873000
0.005225 -0.005627 0.861000
-0.003296 0.052377 0.865000
0.020511 -0.044712 0.863000
0.002023 0.019420 0.856000
-0.004671 -0.015460 0.856000
-0.007112 -0.010841 0.853000
0.009477 0.022014 0.861000
-0.015081 0.016078 0.847000
-0.004627 0.039132 0.848000
-0.014400 0.011560 0.848000
0.019289 -0.007853 0.872000
-0.009840 0.035906 0.846000
0.013547 -0.035129 0.872000
-0.001530 -0.051338 0.873000
0.028748 0.004315 0.865000
0.014150 0.023540 0.865000
0.013203 -0.024749 0.873000
-0.005681 0.010874 0.849000
-0.000442 0.021132 0.854000
-0.010320 -0.022532 0.857000
0.014640 -0.014689 0.873000
0.023763 -0.018826 0.865000
0.002420 -0.046973 0.872000
-0.023853 -0.032805 0.849000
0.032121 -0.010222 0.860000
-0.001514 -0.023783 0.864000
0.003481 -0.024608 0.868000
0.018909 0.012949 0.871000
-0.026237 -0.021223 0.847000
-0.001839 0.030129 0.850000
0.027154 0.028364 0.871000
-0.009956 -0.018630 0.856000
-0.013004 0.010862 0.848000
0.010920 0.009633 0.863000
-0.009956 -0.019687 0.856000
0.001311 0.046976 0.851000
0.028781 0.006459 0.866000
0.032905 0.006783 0.862000
0.023131 -0.009603 0.868000
-0.003235 0.046167 0.849000
-0.003284 -0.023373 0.862000
0.021552 -0.043241 0.862000
0.026407 0.013292 0.870000
-0.002581 0.052317 0.864000
-0.020358 0.022406 0.849000
-0.016146 -0.002052 0.848000
-0.013337 0.036297 0.847000
-0.013783 -0.025236 0.853000
-0.012028 -0.029449 0.853000
0.026079 0.033382 0.871000
-0.011581 0.023371 0.846000
0.020249 0.034656 0.867000
0.013006 0.039686 0.860000
0.009134 0.001462 0.862000
-0.009604 -0.031314 0.856000
-0.003593 0.008098 0.851000
0.002715 0.040720 0.852000
0.003772 0.048842 0.853000
0.022135 0.023345 0.871000
-0.026934 -0.026104 0.847000
-0.018304 -0.022725 0.851000
0.011766 -0.039481 0.873000
0.010920 0.006436 0.863000
-0.008414 -0.050244 0.879000
0.013562 -0.021156 0.873000
-0.003246 0.023186 0.852000
-0.021107 -0.032182 0.851000
0.033732 0.024252 0.865000
-0.003300 -0.038808 0.866000
-0.029129 -0.034593 0.850000
0.016681 0.020740 0.867000
0.010857 0.026528 0.858000
0.026049 0.010427 0.870000
0.006273 0.014891 0.859000
-0.016804 0.023023 0.846000
-0.012479 -0.049494 0.885000
0.012097 -0.010712 0.871000
-0.019682 0.026280 0.850000
-0.004283 0.029394 0.849000
0.006346 -0.019629 0.869000
-0.004288 0.009838 0.850000
-0.018240 -0.007986 0.848000
0.022084 0.028656 0.869000
-0.012042 -0.025968 0.854000
-0.025048 0.024295 0.854000
-0.014715 0.029639 0.846000
0.003134 -0.040108 0.871000
0.009588 -0.019315 0.871000
0.025455 -0.024792 0.862000
0.001336 -0.027077 0.867000
-0.018261 -0.016381 0.849000
-0.015401 -0.043391 0.865000
0.028947 0.033024 0.871000
-0.029094 -0.032455 0.849000
-0.014350 -0.046650 0.866000
0.004162 -0.007045 0.861000
0.010870 0.048832 0.859000
0.008060 0.004649 0.861000
0.023596 0.019424 0.872000
0.003066 0.043876 0.852000
-0.008447 0.035558 0.846000
0.002066 0.009036 0.874000
0.023407 -0.020962 0.865000
-0.010548 0.019215 0.847000
-0.017562 0.015417 0.849000
-0.016824 0.026885 0.847000
-0.013096 -0.020344 0.854000
-0.012277 0.019889 0.846000
-0.018677 0.035459 0.852000
0.006281 0.016679 0.860000
0.012652 0.040748 0.860000
0.002712 0.046976 0.851000
0.021084 0.003991 0.872000
-0.003296 -0.036627 0.865000
0.002057 -0.041136 0.870000
-0.006448 -0.027855 0.858000
0.000265 -0.037111 0.868000
0.004147 0.016287 0.858000
0.012125 -0.027983 0.873000
-0.025539 -0.023315 0.847000
0.006665 0.050894 0.864000
-0.004988 0.008438 0.850000
0.021418 0.018326 0.871000
-0.005325 0.033548 0.848000
-0.021244 0.021911 0.871000
-0.016298 -0.037303 0.856000
0.009566 -0.011760 0.869000
-0.007062 0.029674 0.847000
-0.014767 -0.009742 0.849000
-0.028395 -0.034202 0.849000
-0.014366 0.030683 0.846000
0.012284 0.026205 0.859000
0.031730 -0.009150 0.859000
0.021084 0.010810 0.872000
-0.001865 -0.032243 0.862000
-0.000091 -0.020583 0.864000
-0.002545 0.022835 0.852000
0.017354 0.034220 0.865000
0.013922 -0.030139 0.873000
0.037387 0.017013 0.859000
0.001696 -0.036081 0.869000
-0.016844 0.005975 0.848000
-0.010871 0.032386 0.845000
-0.018961 0.015708 0.865000
-0.001839 0.037125 0.850000
-0.028395 -0.018129 0.849000
0.007308 0.025761 0.856000
0.030884 0.011791 0.865000
-0.016495 -0.002401 0.848000
0.009866 -0.000669 0.864000
-0.012263 0.022300 0.845000
0.025632 0.003973 0.868000
0.026079 0.023345 0.871000
-0.020659 -0.010416 0.847000
0.006735 -0.036966 0.873000
-0.024494 -0.020875 0.847000
0.016343 0.017548 0.868000
0.017751 -0.037782 0.867000
0.023024 -0.030184 0.864000
-0.000092 -0.024167 0.865000
0.009588 -0.021466 0.871000
0.034484 0.033191 0.866000
0.040169 0.027234 0.858000
-0.006714 0.032811 0.847000
0.000266 -0.049070 0.871000
0.020007 0.009374 0.872000
0.009477 0.008193 0.861000
-0.029129 -0.019199 0.850000
-0.014451 -0.012917 0.851000
0.034639 0.011028 0.861000
-0.019946 0.017730 0.877000
-0.015081 0.030719 0.847000
-0.023669 0.030306 0.855000
0.005940 -0.009537 0.862000
0.000260 0.040274 0.850000
-0.012098 -0.035624 0.858000
0.018909 -0.017164 0.871000
0.025003 0.017967 0.871000
-0.013306 0.024735 0.845000
0.014101 0.029844 0.862000
0.004910 -0.023893 0.868000
0.012298 0.036146 0.860000
0.011047 -0.025109 0.873000
0.025661 0.004693 0.869000
-0.001493 0.010913 0.852000
0.003437 0.016620 0.857000
-0.010037 -0.045778 0.863000
-0.009381 0.043628 0.868000
-0.009525 -0.000308 0.849000
0.011367 -0.011057 0.870000
-0.021558 0.035936 0.855000
0.012125 -0.018641 0.873000
0.014506 0.021048 0.865000
0.016022 -0.032542 0.870000
-0.029793 -0.032106 0.849000
-0.004298 0.006354 0.852000
0.005298 -0.040918 0.873000
-0.016495 0.006324 0.848000
0.031767 -0.007037 0.860000
-0.018916 0.019564 0.847000
0.001340 -0.043284 0.870000
0.025003 0.012590 0.871000
0.021777 0.016892 0.871000
0.008154 -0.026127 0.871000
-0.017912 0.028346 0.849000
0.016267 0.032403 0.864000
-0.022053 -0.014600 0.847000
0.013922 -0.031936 0.873000
-0.010308 -0.017926 0.856000
-0.007162 -0.022585 0.859000
-0.004693 -0.027566 0.860000
0.020273 0.028623 0.868000
-0.016146 0.009814 0.848000
0.017813 -0.033616 0.870000
0.017854 -0.009288 0.872000
0.008163 -0.028310 0.872000
0.004516 -0.005273 0.861000
-0.019983 0.008922 0.863000
-0.004013 0.051369 0.866000
0.032513 0.003941 0.861000
0.004205 -0.033258 0.870000
0.010340 -0.034130 0.874000
0.013531 -0.041542 0.871000
0.026079 0.024779 0.871000
0.027583 -0.016632 0.862000
0.012028 0.006459 0.866000
-0.023796 -0.020875 0.847000
-0.010871 0.029256 0.845000
-0.017193 0.006673 0.848000
0.007343 0.003228 0.860000
-0.005755 -0.025443 0.860000
-0.013767 -0.029765 0.852000
0.011631 0.020999 0.863000
0.007652 0.029602 0.855000
0.011009 -0.012490 0.870000
-0.022131 0.000042 0.850000
0.014068 0.046411 0.860000
0.022826 -0.003538 0.870000
-0.016943 -0.032257 0.853000
-0.002596 -0.048957 0.869000
0.016230 0.046164 0.862000
0.005225 -0.003147 0.861000
-0.025888 -0.025407 0.847000
0.030172 0.008587 0.865000
-0.017604 -0.020273 0.851000
0.017833 -0.020032 0.871000
0.036453 0.024877 0.862000
0.031095 -0.005273 0.861000
0.016642 0.031372 0.865000
0.025514 -0.018449 0.864000
-0.001512 -0.020559 0.863000
0.028880 0.020430 0.869000
-0.011000 -0.017201 0.855000
-0.020382 -0.026546 0.850000
-0.013605 -0.044408 0.864000
0.004142 0.023675 0.857000
0.010565 0.018158 0.863000
0.000265 -0.023454 0.865000
0.009444 0.036769 0.858000
0.014472 0.032721 0.863000
0.015646 0.010773 0.869000
0.022261 -0.040048 0.862000
0.000610 0.044122 0.850000
-0.001496 0.018320 0.854000
0.017792 -0.028570 0.869000
0.015893 0.048349 0.863000
0.026195 -0.017717 0.863000
0.023051 -0.045528 0.865000
0.012652 0.039332 0.860000
-0.024173 -0.029276 0.848000
-0.004278 0.040179 0.848000
0.028588 0.029797 0.871000
0.020179 -0.041563 0.864000
0.003843 -0.028928 0.869000
0.011406 -0.036607 0.873000
-0.019705 -0.029730 0.851000
0.030351 -0.017302 0.860000
-0.006030 0.007380 0.849000
0.021727 -0.013906 0.869000
0.015700 -0.028669 0.872000
-0.020310 -0.005885 0.847000
0.027197 -0.024409 0.861000
0.000265 -0.028472 0.866000
-0.020079 0.030550 0.852000
-0.014587 -0.040969 0.859000
0.016362 0.012204 0.869000
-0.017253 -0.021324 0.851000
-0.021032 -0.021248 0.848000
0.002776 -0.041542 0.871000
0.009240 -0.026874 0.872000
0.008172 -0.030858 0.873000
0.025989 0.003973 0.868000
-0.024523 -0.031021 0.848000
-0.026041 -0.037830 0.852000
0.026437 0.029797 0.871000
0.001665 0.025671 0.853000
0.000961 0.032966 0.851000
0.023184 -0.000315 0.870000
0.001683 -0.016632 0.862000
-0.002542 0.015103 0.851000
-0.008467 0.021332 0.848000
0.024475 -0.018470 0.865000
-0.021807 0.024910 0.851000
0.010504 0.041359 0.858000
-0.000090 0.028379 0.850000
-0.011929 0.018496 0.846000
0.003489 -0.034690 0.870000
-0.010561 0.001787 0.848000
0.010504 0.031118 0.858000
-0.002187 0.040576 0.849000
0.013778 0.024580 0.864000
0.010577 0.016401 0.864000
0.025959 -0.002455 0.867000
-0.011608 0.008069 0.848000
-0.018240 0.003532 0.848000
-0.003943 0.008798 0.851000
-0.001839 0.034677 0.850000
-0.014068 -0.008344 0.849000
-0.019961 -0.006582 0.847000
-0.015152 -0.028679 0.851000
0.007437 -0.027561 0.871000
0.003481 -0.025679 0.868000
0.018508 0.016853 0.869000
-0.006380 0.026599 0.849000
0.034404 0.024224 0.864000
0.004171 -0.015231 0.863000
-0.012715 -0.028362 0.852000
0.029289 -0.020133 0.860000
-0.011232 0.019541 0.846000
-0.014051 0.011909 0.848000
-0.012760 -0.021776 0.855000
0.007428 -0.022158 0.870000
0.028969 -0.011652 0.861000
0.007804 -0.029746 0.872000
-0.010648 -0.026702 0.855000
0.008041 0.011002 0.859000
0.002365 0.048434 0.852000
0.017515 -0.011455 0.873000
-0.012306 0.007720 0.848000
-0.029478 -0.033893 0.850000
0.010933 0.002888 0.864000
-0.002892 0.015453 0.851000
0.018572 -0.002469 0.872000
0.003066 0.040369 0.852000
0.000616 0.051247 0.858000
-0.027283 -0.030287 0.847000
0.004205 -0.034690 0.870000
-0.014068 -0.007995 0.849000
-0.028779 -0.034942 0.850000
-0.014035 0.033160 0.847000
-0.002896 0.015822 0.852000
0.030102 0.001108 0.863000
-0.022777 -0.008335 0.848000
0.025543 -0.010994 0.865000
0.011766 -0.024031 0.873000
-0.021432 0.001092 0.850000
0.001334 -0.026689 0.866000
0.029323 -0.022992 0.861000
0.017097 -0.030752 0.870000
0.023569 0.026213 0.871000
-0.012028 -0.028395 0.853000
0.010870 0.037872 0.859000
-0.013702 -0.001703 0.848000
0.020654 0.025795 0.869000
0.022494 0.003628 0.871000
-0.007778 0.041275 0.849000
-0.004988 0.014036 0.850000
0.037474 0.026975 0.861000
0.021802 0.005785 0.872000
-0.024960 -0.036735 0.851000
-0.018589 0.002485 0.848000
-0.002572 -0.028662 0.861000
-0.017891 -0.004844 0.848000
0.017038 -0.044919 0.867000
-0.007087 -0.001008 0.850000
0.029919 0.019335 0.868000
-0.008204 -0.031703 0.857000
0.029678 -0.009526 0.861000
0.014948 0.003624 0.870000
0.013746 0.035521 0.862000
-0.013096 -0.017884 0.854000
-0.016495 0.002834 0.848000
-0.008213 -0.032799 0.858000
-0.008961 -0.040758 0.862000
-0.025077 0.027139 0.855000
0.012028 0.011805 0.866000
-0.014434 -0.011503 0.850000
-0.007079 0.012971 0.849000
0.003776 0.035191 0.854000
-0.024872 -0.032068 0.848000
-0.026585 -0.027498 0.847000
0.029643 -0.016240 0.860000
0.005176 0.027777 0.853000
0.020701 -0.006051 0.871000
0.022161 0.014040 0.872000
0.013453 0.014300 0.866000
0.004469 0.030199 0.852000
0.016399 -0.026127 0.871000
0.023653 -0.036458 0.861000
0.004558 -0.028213 0.869000
0.001689 -0.020250 0.865000
-0.023290 0.028161 0.854000
0.017731 0.029626 0.866000
-0.011929 0.021630 0.846000
-0.020009 -0.019876 0.849000
-0.005344 0.003194 0.851000
-0.021457 -0.032882 0.851000
0.003106 -0.015941 0.863000
0.022494 0.023345 0.871000
0.007351 -0.001021 0.861000
-0.015797 -0.006939 0.848000
-0.019268 0.014515 0.879000
-0.000092 -0.041088 0.869000
0.032551 0.008912 0.862000
0.037785 0.023404 0.860000
0.001313 0.035810 0.852000
-0.002889 0.031178 0.850000
0.021036 -0.012490 0.870000
0.024975 0.033702 0.870000
0.008901 -0.040965 0.874000
-0.003652 -0.037695 0.865000
-0.017933 -0.018850 0.850000
0.003847 -0.035765 0.870000
0.023708 -0.031215 0.863000
-0.006801 -0.032093 0.858000
-0.006387 0.021382 0.850000
-0.015187 -0.023480 0.853000
-0.016095 -0.042630 0.864000
0.017751 0.026449 0.867000
0.027583 -0.017342 0.862000
0.009588 -0.021108 0.871000
0.016399 -0.027919 0.871000
0.031841 0.003236 0.862000
-0.004288 0.011937 0.850000
0.020654 0.027941 0.869000
-0.026237 -0.019480 0.847000
0.013360 0.041456 0.860000
0.016418 -0.002828 0.872000
-0.015539 -0.031906 0.853000
0.022800 0.032590 0.869000
-0.021858 0.028128 0.853000
-0.002916 -0.010552 0.858000
-0.023345 0.032103 0.856000
0.022339 -0.028083 0.865000
-0.004638 0.025581 0.850000
-0.011219 0.032386 0.845000
0.024175 -0.009235 0.867000
0.028227 -0.020487 0.860000
0.009610 -0.026546 0.873000
0.028260 -0.026181 0.861000
-0.002197 0.021809 0.853000
0.007697 0.022696 0.860000
0.000982 -0.045433 0.870000
0.009091 0.024762 0.858000
0.014965 -0.033296 0.871000
-0.012408 -0.021072 0.855000
-0.025250 -0.034901 0.849000
-0.013432 -0.016108 0.853000
0.003062 0.029814 0.851000
0.004825 0.046033 0.853000
-0.003593 0.008448 0.851000
0.015985 -0.042827 0.868000
0.015359 -0.009658 0.873000
0.013360 0.040394 0.860000
-0.004374 0.051785 0.867000
-0.020334 -0.014617 0.848000
0.004181 -0.016334 0.865000
-0.002187 0.038480 0.849000
0.001689 -0.019538 0.865000
0.015324 -0.034730 0.871000
0.009081 0.031082 0.857000
-0.004982 0.030792 0.849000
0.024645 0.013307 0.871000
-0.015797 0.000740 0.848000
-0.011635 -0.010803 0.850000
0.034444 0.029592 0.865000
0.009610 -0.029061 0.873000
-0.019027 0.034758 0.852000
0.020701 -0.005693 0.871000
-0.022885 0.023887 0.852000
0.007786 -0.020009 0.870000
0.003767 0.043876 0.852000
-0.000090 0.043423 0.850000
-0.003631 -0.018717 0.860000
-0.024402 0.030694 0.856000
0.023104 -0.016015 0.867000
0.010933 0.015689 0.864000
0.021577 -0.037963 0.863000
-0.010236 -0.010453 0.850000
-0.009348 -0.047664 0.865000
-0.005388 -0.028915 0.858000
-0.012292 0.015032 0.847000
-0.006737 0.020333 0.850000
0.032905 0.009622 0.862000
0.022879 0.015835 0.872000
-0.001526 -0.050145 0.871000
-0.016146 0.001787 0.848000
-0.001517 -0.036313 0.866000
-0.013686 0.015381 0.847000
-0.011232 0.021282 0.846000
0.030777 0.000397 0.862000
-0.010561 0.003532 0.848000
-0.002590 -0.044205 0.867000
0.027418 0.010046 0.868000
0.025750 -0.032522 0.860000
-0.003281 -0.019448 0.861000
0.027355 0.002894 0.866000
-0.012379 -0.029097 0.853000
-0.002548 0.021107 0.853000
0.022494 0.024062 0.871000
0.025779 -0.030433 0.861000
-0.004665 -0.012274 0.855000
0.021320 -0.024579 0.867000
0.002715 0.040369 0.852000
0.013874 -0.043284 0.870000
0.030741 -0.004919 0.861000
0.020179 -0.039785 0.864000
-0.007551 -0.040805 0.863000
-0.017604 0.036118 0.851000
0.035307 0.012431 0.860000
0.007343 0.021280 0.860000
0.012484 -0.017563 0.873000
0.011752 -0.014672 0.872000
-0.003601 0.049193 0.853000
0.038448 0.019841 0.859000
-0.026268 -0.016711 0.848000
-0.003948 0.018978 0.852000
-0.007154 -0.019027 0.858000
0.006635 0.019864 0.860000
0.008728 0.038842 0.857000
0.019289 0.007939 0.872000
0.021577 -0.041515 0.863000
-0.000793 0.022538 0.854000
0.005267 -0.022107 0.868000
-0.016165 0.033238 0.849000
-0.006769 -0.014369 0.854000
0.023158 -0.006753 0.869000
0.000611 0.025991 0.852000
-0.005714 -0.011557 0.854000
-0.000090 0.013734 0.853000
-0.014732 0.014683 0.847000
0.016078 -0.007862 0.873000
0.018800 0.032121 0.866000
0.003437 0.016268 0.857000
0.025661 0.005408 0.869000
0.028035 -0.000313 0.865000
-0.008098 0.036603 0.846000
0.025959 -0.001385 0.867000
-0.000449 0.052559 0.868000
0.034912 0.001457 0.859000
-0.009909 -0.012933 0.852000
0.023237 0.017270 0.872000
0.017854 -0.002469 0.872000
0.032271 0.012845 0.864000
-0.001846 0.016543 0.853000
-0.009895 -0.050053 0.882000
0.025333 0.010785 0.870000
-0.016844 0.007371 0.848000
-0.008447 0.028942 0.846000
0.031705 0.028623 0.868000
0.032063 0.031124 0.868000
0.008728 0.026144 0.857000
0.018550 -0.018240 0.871000
-0.018633 -0.021648 0.850000
0.019626 0.014741 0.871000
-0.011608 0.006324 0.848000
0.006635 0.020572 0.860000
-0.018304 0.033316 0.851000
0.018778 -0.043035 0.865000
0.001667 0.050305 0.854000
0.011289 0.017823 0.864000
0.004147 0.019818 0.858000
-0.019729 -0.034323 0.852000
-0.011567 0.032386 0.845000
-0.016495 -0.007288 0.848000
0.018508 0.020787 0.869000
