0.006696 0.010046 0.868000
-0.021684 -0.011284 0.860000
-0.025905 0.019401 0.871000
-0.019005 0.025735 0.867000
0.011833 0.027507 0.878000
-0.028931 -0.003161 0.865000
-0.002623 0.017028 0.878000
0.025750 0.000042 0.860000
-0.040727 0.018221 0.866000
-0.029490 0.016892 0.871000
0.014540 0.040009 0.867000
-0.034346 0.008336 0.876000
-0.010710 -0.004559 0.860000
-0.024167 0.018009 0.873000
0.009303 0.026423 0.878000
-0.009197 -0.019923 0.851000
0.022983 0.034295 0.876000
0.015700 0.012963 0.872000
-0.042639 0.004009 0.876000
0.017038 0.007180 0.867000
-0.002970 0.011195 0.874000
-0.013526 -0.035666 0.859000
0.032815 0.014349 0.869000
0.001706 0.012633 0.874000
-0.043261 0.000403 0.874000
0.007283 -0.014703 0.853000
0.013650 -0.003481 0.856000
0.015820 0.001457 0.859000
-0.044752 0.006165 0.875000
0.007994 -0.009800 0.854000
-0.011392 -0.007727 0.858000
-0.015633 0.014137 0.878000
0.015412 -0.004185 0.856000
0.030005 0.029777 0.881000
0.003781 -0.007348 0.855000
0.010364 0.028887 0.876000
0.034126 -0.002074 0.857000
0.018614 0.016231 0.874000
0.035061 -0.010854 0.854000
-0.017274 -0.021699 0.852000
-0.007682 0.018835 0.878000
0.023184 0.012576 0.870000
0.002078 0.019941 0.879000
-0.006769 -0.015072 0.854000
0.026874 0.003945 0.862000
-0.002256 0.023839 0.876000
0.033303 -0.005582 0.854000
0.025089 0.037454 0.874000
0.001716 0.017771 0.879000
-0.028023 -0.000673 0.870000
-0.031726 -0.022102 0.854000
-0.034498 -0.027342 0.853000
0.023136 -0.015090 0.855000
0.010553 0.003590 0.862000
0.031348 0.024255 0.878000
-0.052384 0.005443 1.008000
0.015042 -0.016849 0.855000
0.028868 -0.001370 0.858000
-0.042037 0.012590 0.871000
-0.013848 -0.013714 0.857000
0.012931 -0.005588 0.855000
0.023173 0.049934 1.010000
-0.016431 -0.006706 0.863000
0.023317 0.019130 0.875000
-0.035388 0.011207 0.875000
-0.005482 0.009745 0.873000
-0.006959 0.015944 0.878000
0.007411 0.035768 0.868000
0.021060 0.039118 0.871000
-0.014234 -0.036020 0.859000
0.008901 0.013713 0.874000
-0.016806 -0.004580 0.864000
-0.040727 -0.009581 0.866000
-0.001495 -0.018214 0.853000
0.044259 0.004300 0.862000
-0.028730 -0.009857 0.859000
0.038361 0.009299 0.865000
-0.017253 -0.028329 0.851000
-0.023153 -0.009182 0.862000
-0.014155 0.018431 0.876000
0.041788 -0.008755 0.855000
0.028818 0.035096 0.878000
-0.014515 0.018431 0.876000
-0.026683 0.003636 0.873000
-0.039858 -0.027054 0.855000
0.004904 0.007893 0.867000
-0.028610 0.010872 0.877000
0.023158 0.011131 0.869000
0.002440 0.021388 0.879000
0.020030 0.014775 0.873000
0.024601 -0.004190 0.857000
-0.041666 -0.024620 0.856000
-0.017059 0.010511 0.877000
-0.001146 -0.007700 0.855000
0.027355 0.012518 0.866000
-0.014449 0.005785 0.872000
-0.049395 -0.013175 0.868000
-0.035593 -0.028780 0.854000
-0.035695 0.020692 0.865000
-0.042104 0.018556 0.865000
0.006689 0.008964 0.867000
0.010026 0.026423 0.878000
-0.045361 -0.010650 0.866000
-0.035200 -0.026289 0.853000
0.022826 0.012576 0.870000
0.039930 0.023839 0.876000
-0.023195 0.011594 0.877000
0.015034 0.015889 0.875000
-0.020430 -0.030817 0.852000
-0.029548 -0.024505 0.852000
0.017816 -0.012597 0.853000
-0.042231 0.006886 0.875000
-0.008034 0.013760 0.877000
-0.028839 0.002558 0.873000
-0.001898 0.014482 0.877000
0.017057 0.008260 0.868000
-0.033189 0.002561 0.874000
-0.021976 0.029711 0.901000
0.013619 -0.010854 0.854000
0.033303 -0.011557 0.854000
0.002406 0.006823 0.867000
0.039343 0.027177 0.879000
0.024398 0.019130 0.875000
-0.017294 -0.030502 0.853000
-0.004399 0.026961 0.872000
0.002722 -0.011909 0.854000
-0.016318 0.009778 0.876000
-0.001538 0.016305 0.878000
-0.013188 -0.006329 0.860000
0.023840 -0.006996 0.855000
-0.032073 0.001480 0.873000
0.020053 0.035656 0.874000
0.006581 -0.016459 0.853000
-0.000805 0.007536 0.867000
0.025899 0.007875 0.865000
0.010957 -0.002903 0.895000
0.042288 0.001808 0.858000
0.036509 -0.011571 0.855000
0.035454 -0.003829 0.855000
-0.013142 -0.013009 0.857000
0.016508 -0.000311 0.858000
0.019378 0.032853 0.876000
-0.045472 0.005805 0.875000
-0.024516 -0.009514 0.860000
-0.029591 0.003281 0.874000
0.008125 0.036483 0.868000
0.015801 -0.000664 0.858000
-0.007525 -0.035354 0.860000
0.041709 0.012547 0.868000
-0.010822 0.026868 0.869000
0.003785 -0.005242 0.856000
0.045132 0.011887 0.872000
-0.048212 -0.016709 0.866000
-0.007262 0.026571 0.871000
0.026620 0.022423 0.877000
0.005975 0.008964 0.867000
0.009049 -0.010503 0.854000
-0.042823 -0.025030 0.858000
-0.028277 -0.016164 0.856000
0.042542 -0.001719 0.856000
-0.027794 -0.025206 0.852000
0.037321 0.020547 0.874000
-0.002251 0.011195 0.874000
-0.020261 0.007966 0.875000
0.017915 0.017330 0.875000
-0.022885 -0.031518 0.852000
0.025624 0.026121 0.880000
0.023010 0.020979 0.877000
0.007308 -0.004185 0.856000
-0.016553 -0.027978 0.851000
-0.009305 -0.003147 0.861000
-0.022834 0.010872 0.877000
0.000269 0.018856 0.879000
0.004215 0.030908 0.872000
0.033970 0.007138 0.862000
0.026919 0.019851 0.875000
-0.005701 -0.018894 0.852000
0.007994 -0.012611 0.854000
-0.000092 0.009700 0.869000
-0.028948 -0.020720 0.855000
0.025986 0.025035 0.880000
0.032211 -0.009788 0.853000
0.027776 -0.002779 0.857000
-0.017914 0.029626 0.866000
0.025869 0.007155 0.864000
-0.015804 0.026393 5.291000
-0.015593 -0.033075 0.856000
0.025425 0.001814 0.861000
-0.042116 -0.020086 0.858000
-0.025690 -0.030115 0.852000
0.023900 0.014366 0.870000
0.004558 0.010773 0.869000
0.035441 0.018347 0.872000
0.018742 0.027208 0.880000
-0.016412 -0.007408 0.862000
-0.016564 0.023676 0.870000
0.021777 0.012949 0.871000
0.026169 0.037454 0.874000
0.013826 0.039652 0.867000
-0.003601 -0.022778 0.853000
-0.037350 -0.026320 0.854000
-0.036891 -0.005316 0.868000
-0.011978 0.009407 0.875000
0.003127 0.033306 0.869000
-0.018060 -0.016164 0.856000
0.033812 0.000749 0.858000
0.001314 -0.017863 0.853000
0.024136 -0.012597 0.853000
-0.025245 0.017290 0.873000
0.017485 -0.009800 0.854000
-0.008497 -0.026227 0.851000
0.027829 0.027964 0.881000
0.037088 0.024588 0.877000
0.011861 -0.011206 0.854000
0.043548 -0.005940 0.855000
0.007795 0.033024 0.871000
0.019400 0.020618 0.877000
-0.048982 -0.015301 0.867000
-0.014383 0.026837 0.868000
0.021271 0.005739 0.865000
0.025959 0.013603 0.867000
-0.043981 0.008317 0.874000
-0.034147 -0.027342 0.853000
-0.037613 -0.016594 0.860000
-0.006753 -0.018193 0.852000
-0.044796 -0.016987 0.862000
0.018252 -0.003485 0.857000
0.035800 0.017988 0.872000
-0.011286 -0.024097 0.850000
0.030634 0.000396 0.858000
-0.034588 0.001121 0.873000
-0.024443 0.020811 0.870000
-0.030851 -0.014453 0.859000
-0.012495 -0.037875 0.861000
0.011145 -0.012948 0.853000
-0.008930 -0.034959 0.859000
-0.032469 0.012633 0.874000
0.023218 -0.002783 0.858000
0.024203 0.012189 0.868000
-0.009944 -0.015793 0.855000
-0.006590 0.021340 0.877000
-0.040790 0.001844 0.875000
-0.037952 0.006173 0.876000
0.020721 -0.005249 0.857000
0.000964 -0.012611 0.854000
0.025032 0.016552 0.872000
0.021640 0.025759 0.880000
0.046634 -0.002789 0.860000
-0.015437 0.027876 0.867000
-0.041036 0.018912 0.865000
-0.010308 -0.012993 0.856000
0.039982 -0.003473 0.854000
-0.016113 -0.002805 0.865000
0.022237 0.034616 0.875000
-0.047801 -0.014198 0.865000
0.032211 -0.007682 0.853000
-0.027506 0.026032 0.865000
-0.037162 0.018934 0.866000
0.030367 0.028327 0.881000
-0.002253 0.024892 0.875000
-0.018605 0.027812 0.865000
-0.038756 -0.026671 0.854000
0.027359 -0.005940 0.855000
-0.008537 -0.011922 0.855000
-0.011286 -0.025846 0.850000
-0.014468 -0.020998 0.852000
-0.032073 0.014056 0.873000
0.030005 0.029414 0.881000
-0.005350 -0.018894 0.852000
-0.027025 -0.007399 0.861000
0.001665 -0.017512 0.853000
0.040994 0.013261 0.868000
0.024515 -0.008042 0.854000
0.010467 -0.018257 0.855000
0.038171 0.024949 0.877000
0.004610 0.021388 0.879000
-0.031595 -0.013762 0.860000
0.017878 -0.007004 0.856000
0.037873 -0.010151 0.854000
-0.041958 -0.014504 0.862000
0.000267 0.029473 0.872000
0.020630 0.042556 0.868000
0.011861 -0.016478 0.854000
-0.027862 0.024252 0.865000
-0.009013 0.005039 0.867000
0.029119 -0.005588 0.855000
0.030102 0.009988 0.863000
-0.034229 0.001121 0.873000
-0.029185 -0.006698 0.862000
-0.012789 -0.013361 0.857000
-0.010723 -0.036812 0.861000
0.028227 0.002166 0.860000
-0.026713 0.004000 0.874000
0.023705 0.035016 0.876000
-0.035551 -0.025587 0.853000
0.012902 0.018091 0.877000
-0.009886 -0.025147 0.850000
0.018865 0.009342 0.869000
-0.029456 0.018663 0.870000
-0.035748 0.011207 0.875000
-0.034862 -0.013439 0.862000
-0.004665 -0.009107 0.855000
0.022055 -0.008745 0.854000
-0.020145 0.021886 0.870000
-0.026742 -0.024154 0.852000
0.033264 -0.008735 0.853000
0.030806 -0.009086 0.853000
-0.029548 -0.024855 0.852000
0.039660 0.026062 0.878000
0.024544 -0.014738 0.855000
0.021902 0.034295 0.876000
0.031486 0.008203 0.862000
-0.026836 -0.015090 0.855000
0.005176 -0.015405 0.853000
0.021780 -0.004896 0.857000
-0.025136 -0.011598 0.857000
-0.037438 -0.021097 0.856000
-0.012741 0.015221 0.878000
-0.042460 0.018556 0.865000
-0.021885 0.023979 0.868000
-0.037746 -0.022128 0.855000
-0.017059 0.011233 0.877000
-0.006236 0.020280 0.878000
0.004558 0.034021 0.869000
-0.015526 0.005427 0.872000
0.024362 0.001460 0.861000
-0.039783 -0.014841 0.861000
0.004831 -0.013666 0.854000
-0.030636 -0.024182 0.853000
-0.008146 -0.025877 0.851000
-0.033151 0.013338 0.873000
0.031509 -0.010490 0.853000
-0.036218 -0.004249 0.869000
0.006940 -0.009097 0.854000
-0.004384 0.029729 0.869000
-0.019496 0.019446 0.873000
0.041630 0.002517 0.859000
0.016060 -0.011543 0.853000
0.015103 0.027177 0.879000
0.031062 0.015798 0.870000
-0.018121 0.016989 0.876000
0.038493 0.003228 0.860000
-0.005476 0.026961 0.872000
0.000621 0.034973 0.866000
0.002057 0.010785 0.870000
-0.029917 0.002199 0.873000
0.020345 -0.005947 0.856000
0.037697 -0.012317 0.858000
0.042309 0.020165 0.873000
0.042406 0.023092 0.875000
0.019039 0.019535 0.877000
-0.029151 -0.007754 0.861000
0.012527 0.016628 0.876000
-0.026041 -0.029414 0.852000
0.008932 0.027837 0.877000
0.007086 0.012605 0.872000
0.019648 0.036651 0.872000
0.006758 0.027805 0.876000
-0.037779 0.013322 0.872000
0.044656 -0.003833 0.856000
-0.026711 -0.027278 0.851000
-0.030068 0.021810 0.867000
-0.009909 -0.018894 0.852000
0.002801 0.021388 0.879000
0.016060 -0.012246 0.853000
-0.024218 -0.008117 0.862000
-0.028088 0.016911 0.872000
-0.040060 -0.007451 0.867000
-0.024112 0.001835 0.871000
-0.040988 -0.012404 0.864000
0.029153 -0.003833 0.856000
-0.007137 -0.030257 0.856000
0.000268 0.025613 0.875000
0.000631 0.018494 0.879000
0.025176 0.021340 0.877000
0.008502 0.034776 0.870000
-0.018720 -0.019290 0.854000
0.028522 0.025759 0.880000
0.018380 0.025035 0.880000
-0.011000 -0.015090 0.855000
-0.003957 -0.011206 0.854000
-0.010489 0.025137 0.871000
-0.000443 -0.007004 0.856000
-0.018961 0.028524 0.865000
-0.003605 -0.012963 0.854000
-0.023781 0.002555 0.872000
-0.034147 -0.026991 0.853000
0.019245 0.010785 0.870000
-0.021652 0.004714 0.873000
0.026559 0.019490 0.875000
0.023813 0.029743 0.880000
0.044355 -0.007365 0.857000
0.033230 0.027932 0.880000
0.022313 0.031844 0.878000
0.022084 0.043678 0.869000
-0.013767 -0.020297 0.852000
0.019946 -0.009800 0.854000
0.036087 0.026815 0.879000
-0.012775 -0.014755 0.856000
-0.038629 0.003284 0.875000
-0.035053 -0.017614 0.858000
0.035722 -0.005926 0.853000
-0.038410 -0.013794 0.862000
0.006058 0.018856 0.879000
0.017751 0.007536 0.867000
0.015466 0.000396 0.859000
-0.020732 -0.024447 0.850000
-0.016572 -0.030115 0.852000
-0.033365 -0.015178 0.860000
-0.000453 0.024200 0.876000
-0.029098 -0.000673 0.870000
-0.029197 -0.025206 0.852000
0.042142 0.024588 0.877000
0.026242 -0.009437 0.853000
0.020413 0.035656 0.874000
0.014372 -0.002074 0.857000
0.029575 0.025006 0.879000
0.045183 0.010463 0.873000
-0.016883 -0.027596 0.850000
-0.027925 -0.014755 0.856000
0.023980 -0.000665 0.860000
0.018486 0.008617 0.868000
-0.018121 0.008696 0.876000
0.014523 0.008241 0.866000
0.022511 -0.002783 0.858000
0.009303 0.026062 0.878000
-0.001162 0.033229 0.867000
-0.011964 0.008677 0.874000
0.006940 -0.012611 0.854000
0.025573 0.010736 0.866000
-0.005482 0.009385 0.873000
-0.010320 -0.008423 0.857000
0.029505 -0.003481 0.856000
-0.020670 -0.009182 0.862000
0.004610 0.020303 0.879000
-0.032791 0.013697 0.873000
0.040333 -0.004176 0.854000
0.040021 0.026423 0.878000
-0.001533 0.011928 0.875000
-0.022062 0.006526 0.875000
-0.034538 -0.022453 0.854000
-0.038945 0.010475 0.874000
0.021752 0.040506 0.870000
0.005261 0.008964 0.867000
-0.004308 -0.014369 0.854000
0.008116 0.009321 0.867000
-0.012466 -0.006321 0.859000
-0.039841 -0.003538 0.870000
-0.020261 0.007246 0.875000
-0.015401 0.029592 0.865000
0.032249 -0.011206 0.854000
-0.006395 -0.020273 0.851000
-0.021734 -0.008827 0.862000
-0.025361 0.009067 0.877000
-0.027056 -0.006344 0.862000
-0.015648 -0.036727 0.859000
0.043596 0.011859 0.870000
-0.007673 0.020257 0.877000
-0.046074 -0.011363 0.866000
0.017655 0.026121 0.880000
-0.007577 0.031409 0.866000
0.037130 0.026062 0.878000
-0.008497 -0.020623 0.851000
-0.009219 -0.017161 0.853000
0.006735 0.030585 0.873000
0.035931 -0.000311 0.858000
-0.026763 -0.004225 0.864000
-0.001902 0.018132 0.879000
-0.015927 -0.032685 0.855000
0.010399 0.025368 0.879000
-0.038143 0.022446 0.864000
0.023477 0.028327 0.881000
0.016431 -0.009097 0.854000
0.036948 -0.000310 0.857000
0.012932 0.022112 0.879000
-0.028730 -0.010210 0.859000
0.042238 0.027177 0.879000
-0.038802 -0.023887 0.855000
0.017628 0.002169 0.861000
-0.016095 -0.003513 0.864000
0.015728 -0.010503 0.854000
-0.013103 0.015944 0.878000
0.016450 -0.017201 0.855000
-0.039841 0.014366 0.870000
-0.044803 0.004730 0.876000
0.004910 0.009331 0.868000
-0.039437 0.015780 0.869000
-0.019429 0.001833 0.870000
-0.040337 -0.000676 0.873000
0.028127 0.033689 0.879000
0.026620 0.021701 0.877000
-0.005875 0.015944 0.878000
0.022132 -0.016183 0.857000
0.033615 -0.008384 0.853000
-0.024105 -0.011258 0.858000
-0.011631 0.011220 0.876000
0.013953 0.016609 0.875000
-0.007814 -0.016810 0.853000
-0.016260 -0.031240 0.854000
-0.016981 0.006151 0.873000
0.022700 0.023921 0.879000
0.012484 0.013697 0.873000
0.020649 -0.009097 0.854000
0.005878 -0.016459 0.853000
-0.033562 -0.020744 0.856000
-0.013418 0.009047 0.875000
-0.014416 0.025108 0.870000
0.009240 0.012605 0.872000
-0.006943 0.012302 0.876000
-0.003614 -0.007356 0.856000
0.026624 -0.008042 0.854000
-0.028178 -0.023129 0.853000
-0.043981 0.008677 0.874000
-0.013219 -0.038984 0.862000
0.019984 0.038401 0.871000
0.026944 -0.009437 0.853000
0.029902 0.024616 0.878000
-0.010810 0.028266 0.868000
0.024065 0.034295 0.876000
-0.026561 0.021145 0.869000
-0.006598 0.018112 0.878000
-0.002251 0.025583 0.874000
0.039073 0.010367 0.865000
-0.025245 0.016931 0.873000
-0.038225 0.001842 0.874000
-0.043630 -0.017656 0.860000
0.010411 0.023586 0.880000
0.027702 0.035417 0.877000
0.006948 -0.006292 0.855000
-0.010332 -0.007020 0.858000
-0.039951 -0.028881 0.857000
-0.025548 -0.009857 0.859000
-0.025014 0.026744 0.865000
-0.020781 -0.030466 0.852000
0.011262 0.003945 0.862000
-0.013127 -0.032723 0.856000
-0.022831 -0.026546 0.850000
-0.025577 -0.008807 0.860000
-0.020056 -0.023775 0.851000
-0.007516 -0.034252 0.859000
0.016450 -0.007700 0.855000
-0.040938 -0.030952 0.886000
0.012785 0.010773 0.869000
-0.014532 0.017730 0.877000
-0.019093 0.002552 0.871000
0.040326 0.015780 0.869000
-0.025875 0.020095 0.870000
0.003073 -0.011557 0.854000
0.025218 -0.013666 0.854000
0.017615 0.021003 0.878000
-0.015045 -0.000669 0.865000
0.023952 -0.001018 0.859000
-0.002253 0.011568 0.875000
0.016569 0.026846 0.880000
0.023784 -0.011192 0.853000
-0.001848 -0.014017 0.854000
-0.025720 -0.021725 0.853000
0.021830 -0.002432 0.859000
0.009654 0.027476 0.877000
0.020191 0.027932 0.880000
-0.009933 -0.017181 0.854000
0.009544 0.009678 0.867000
0.023812 -0.012963 0.854000
-0.022062 0.016970 0.875000
0.005996 0.033702 0.870000
0.027229 0.005719 0.862000
-0.010611 -0.019245 0.852000
0.016777 0.013322 0.872000
0.018614 0.015871 0.874000
0.029962 0.004285 0.859000
-0.017954 -0.022024 0.851000
-0.010623 -0.018565 0.853000
0.011110 0.019557 0.878000
-0.023590 0.026744 0.865000
-0.011299 -0.026928 0.851000
-0.030888 -0.002105 0.870000
0.000626 0.029114 0.872000
-0.043014 0.013634 0.869000
0.007994 -0.012260 0.854000
-0.041056 0.010822 0.873000
-0.047911 -0.010662 0.867000
0.009676 0.020303 0.879000
-0.041344 0.019957 0.864000
0.003433 -0.005595 0.856000
0.017816 -0.011543 0.853000
-0.033758 -0.013778 0.861000
0.022029 -0.012948 0.853000
0.024860 0.009310 0.866000
-0.016611 -0.018587 0.854000
-0.029745 -0.002458 0.868000
0.042337 0.002871 0.859000
0.039816 0.001808 0.858000
0.012327 0.004300 0.862000
-0.011635 -0.025497 0.850000
0.034285 0.015082 0.870000
0.006781 0.019218 0.879000
0.040067 0.027539 0.879000
-0.022112 0.011955 0.877000
-0.032432 0.014416 0.873000
-0.034307 0.010847 0.875000
0.033723 0.019468 0.874000
0.005885 -0.012260 0.854000
-0.014802 -0.021324 0.851000
-0.031786 0.004725 0.875000
-0.038499 0.021379 0.864000
0.016912 0.022474 0.879000
-0.023235 -0.031167 0.852000
-0.012335 -0.026546 0.850000
-0.017395 -0.013730 0.858000
-0.012380 0.017389 0.878000
0.041042 0.015065 0.869000
0.010639 0.036167 0.869000
-0.004649 -0.018543 0.852000
-0.004384 0.008627 0.869000
-0.034386 -0.032082 0.877000
0.020297 -0.015072 0.854000
-0.042816 -0.011706 0.865000
0.037213 -0.003125 0.855000
0.042212 -0.011070 0.871000
-0.011731 -0.011245 0.857000
0.011889 -0.003129 0.856000
-0.002970 0.025943 0.874000
0.021727 0.040817 0.869000
0.026687 -0.004538 0.856000
0.002722 -0.018587 0.854000
-0.040961 -0.022506 0.856000
0.006727 0.031626 0.872000
-0.015702 -0.007053 0.862000
-0.011498 0.002894 0.866000
0.029255 0.001810 0.859000
-0.015666 -0.010222 0.860000
-0.025018 -0.031906 0.853000
-0.041009 -0.020416 0.857000
-0.017996 -0.030853 0.853000
-0.037875 -0.008512 0.866000
-0.019161 -0.014436 0.858000
0.036936 0.008943 0.865000
-0.045928 -0.023948 0.870000
-0.005842 0.024836 0.873000
0.046314 0.011195 0.874000
-0.024772 0.021145 0.869000
-0.018677 -0.021699 0.852000
0.045849 0.013681 0.872000
-0.024960 -0.025527 0.851000
-0.002253 0.025253 0.875000
0.041837 -0.009470 0.856000
0.022364 0.029381 0.880000
0.032284 0.019468 0.874000
-0.037909 0.002564 0.875000
0.007867 0.021750 0.879000
0.005334 0.022112 0.879000
0.026012 -0.003838 0.857000
0.046261 0.016571 0.873000
0.008004 -0.019312 0.855000
-0.012253 0.027225 0.869000
0.018713 0.002526 0.862000
0.021777 0.039118 0.871000
0.029902 0.035457 0.878000
-0.030987 -0.028044 0.853000
0.033004 0.019468 0.874000
0.017655 0.023224 0.880000
-0.052381 0.011839 0.955000
-0.013684 0.025795 0.869000
0.031673 0.022784 0.877000
0.010049 0.023224 0.880000
0.017174 -0.005242 0.856000
-0.017707 -0.015812 0.856000
0.020191 0.029019 0.880000
0.032107 0.026453 0.879000
-0.043833 -0.012759 0.864000
0.017057 0.008617 0.868000
0.032084 0.004992 0.859000
0.026286 0.011805 0.866000
-0.017395 -0.035978 0.858000
0.042939 0.007866 0.864000
0.008228 0.023559 0.879000
0.049104 0.007020 0.892000
0.035578 0.000749 0.858000
0.007094 0.030944 0.873000
-0.001891 0.011195 0.874000
-0.009604 -0.009470 0.856000
-0.026622 0.018684 0.871000
-0.013357 0.024779 0.871000
-0.017078 0.013414 0.878000
-0.027862 0.026032 0.865000
0.012153 0.031375 0.875000
-0.032220 0.007623 0.877000
0.022669 0.004666 0.864000
0.038711 -0.000663 0.857000
-0.039795 -0.005322 0.869000
0.025304 0.015065 0.869000
-0.016001 -0.011625 0.859000
0.011158 -0.009097 0.854000
0.017057 0.040055 0.868000
0.032868 0.027570 0.880000
0.027310 0.036098 0.876000
0.010806 -0.011557 0.854000
0.026316 0.014316 0.867000
0.004825 -0.016108 0.853000
0.014741 0.027900 0.879000
-0.036491 -0.007094 0.867000
0.035243 0.023479 0.876000
-0.024658 0.027100 0.865000
-0.026899 -0.012656 0.857000
-0.026805 0.010872 0.877000
0.013619 -0.016478 0.854000
0.034049 0.009288 0.864000
-0.016717 0.014137 0.878000
-0.009716 0.032478 0.866000
-0.017935 0.026806 0.867000
-0.001496 -0.010854 0.854000
-0.008847 -0.026928 0.851000
-0.016592 -0.019969 0.853000
-0.024021 -0.017905 0.855000
0.004610 0.022474 0.879000
0.026624 -0.013314 0.854000
-0.026392 -0.023453 0.852000
0.033694 -0.012626 0.855000
-0.018691 0.000401 0.869000
-0.007287 0.023425 0.874000
0.002763 0.034656 0.867000
0.037474 0.005004 0.861000
-0.027252 -0.011950 0.857000
-0.000454 0.022087 0.878000
0.029997 0.006414 0.860000
-0.008756 0.013399 0.877000
-0.009392 0.028298 0.869000
0.031348 0.023894 0.878000
-0.019407 0.023291 0.869000
-0.040199 -0.004612 0.870000
-0.021810 -0.006010 0.865000
-0.008857 -0.019245 0.852000
0.004836 -0.006292 0.855000
-0.081395 0.048415 2.347000
0.013112 0.039295 0.867000
0.011712 0.037240 0.869000
-0.012712 0.010860 0.876000
0.019603 0.011143 0.870000
-0.035737 -0.007799 0.866000
-0.012712 0.010499 0.876000
0.003477 0.007536 0.867000
-0.031779 -0.004586 0.865000
-0.041558 0.004370 0.876000
-0.020192 -0.038718 0.872000
-0.000810 0.010810 0.872000
0.011861 -0.017181 0.854000
-0.014910 0.013414 0.878000
-0.006545 0.027288 0.871000
0.028615 0.005712 0.861000
0.029609 0.001103 0.859000
0.031596 0.011435 0.865000
0.025218 -0.008394 0.854000
-0.015202 0.019828 0.874000
-0.019093 0.002911 0.871000
0.030987 0.000749 0.858000
-0.009381 0.032910 0.868000
-0.014825 0.021961 0.873000
0.033878 0.024978 0.878000
-0.001898 0.015204 0.877000
-0.011731 -0.009481 0.857000
-0.032040 -0.025236 0.853000
-0.044493 -0.014520 0.863000
0.016098 -0.006996 0.855000
-0.035760 -0.018674 0.858000
-0.021131 -0.031167 0.852000
-0.015994 0.013414 0.878000
-0.011405 -0.034959 0.859000
-0.044338 -0.020133 0.860000
-0.008878 -0.016829 0.854000
0.006696 0.036125 0.868000
0.031348 0.024978 0.878000
-0.040743 0.009396 0.874000
-0.039566 -0.012048 0.864000
-0.015630 -0.013377 0.858000
0.015120 0.026483 0.880000
0.000261 -0.013314 0.854000
-0.026083 0.011233 0.877000
-0.003660 0.034656 0.867000
-0.027540 -0.017201 0.855000
-0.027540 -0.020016 0.855000
0.013267 -0.008394 0.854000
0.013391 0.005010 0.862000
0.028457 0.034735 0.878000
0.023759 0.032567 0.878000
0.035003 0.070367 1.400000
0.025304 0.042247 0.869000
0.010761 0.019941 0.879000
0.037193 0.017609 0.871000
-0.036338 -0.021776 0.855000
0.017273 0.028624 0.879000
-0.009794 0.024117 0.873000
-0.011731 -0.010892 0.857000
0.012579 -0.004884 0.855000
0.010614 0.009678 0.867000
0.008840 0.010403 0.868000
-0.029934 -0.028395 0.853000
0.032432 0.024255 0.878000
0.030195 0.021315 0.876000
-0.043935 -0.010650 0.866000
0.034009 0.007857 0.863000
0.040428 -0.000662 0.856000
-0.029287 0.025320 0.865000
0.035661 0.003936 0.860000
0.020963 0.007536 0.867000
0.022983 0.019873 0.876000
0.044303 -0.005242 0.856000
-0.038053 -0.027023 0.854000
-0.029490 -0.000315 0.871000
0.014691 0.018071 0.876000
0.009544 0.037868 0.867000
0.015746 -0.005940 0.855000
0.025986 0.025759 0.880000
0.027481 0.041938 0.870000
-0.035902 -0.024884 0.853000
0.029246 0.027208 0.880000
0.009411 -0.005236 0.855000
-0.007321 0.014498 0.878000
-0.007577 0.004676 0.866000
-0.007146 -0.007365 0.857000
-0.026082 0.025320 0.865000
0.004961 0.025310 0.877000
-0.017598 0.025765 0.868000
-0.022183 -0.030466 0.852000
-0.015561 0.020547 0.874000
0.033337 0.009644 0.864000
0.034317 -0.008033 0.853000
-0.028023 -0.009857 0.859000
0.041533 0.000395 0.857000
-0.003711 0.019218 0.879000
0.029153 -0.004538 0.856000
-0.014485 -0.030151 0.853000
-0.022261 -0.016849 0.855000
0.013391 0.004300 0.862000
-0.008137 -0.023048 0.850000
0.008336 -0.015054 0.853000
0.031267 -0.003481 0.856000
-0.007915 -0.038363 0.864000
0.035910 0.010736 0.866000
0.024774 0.003595 0.863000
0.028129 -0.002427 0.857000
-0.019605 -0.008827 0.862000
0.039520 0.012532 0.867000
-0.023263 -0.032608 0.853000
0.002440 0.018132 0.879000
0.004474 -0.016810 0.853000
-0.040257 -0.027438 0.856000
0.019806 0.030433 0.879000
-0.018100 0.007966 0.875000
-0.043377 -0.026921 0.862000
-0.012112 -0.035312 0.859000
0.020559 0.005383 0.865000
0.024220 -0.004890 0.856000
0.043246 -0.001719 0.856000
-0.021807 -0.023075 0.851000
-0.036721 0.021735 0.864000
-0.035067 0.010139 0.876000
-0.049753 -0.013533 0.868000
-0.032791 0.001121 0.873000
-0.026530 -0.002458 0.868000
-0.014638 -0.005279 0.862000
-0.022037 0.005079 0.874000
-0.011538 0.006123 0.869000
0.040153 0.020165 0.873000
-0.032819 -0.030573 0.855000
-0.023835 0.004720 0.874000
0.018380 0.025397 0.880000
0.007652 -0.018609 0.855000
-0.037746 -0.028462 0.855000
-0.019765 0.000401 0.869000
-0.009489 0.018835 0.878000
0.028424 0.022784 0.877000
-0.022473 0.009789 0.877000
-0.016039 -0.038230 0.861000
-0.000441 -0.015756 0.853000
0.005279 0.032628 0.870000
-0.046732 0.016776 0.865000
-0.035298 0.022090 0.864000
0.045061 -0.005601 0.857000
0.022838 -0.004190 0.857000
0.026043 -0.001723 0.858000
-0.010935 0.016305 0.878000
-0.006598 0.018835 0.878000
-0.030144 -0.013039 0.859000
0.018657 0.032492 0.876000
-0.040680 0.018912 0.865000
-0.009478 0.012677 0.877000
0.027797 0.031554 0.880000
0.032513 0.007839 0.861000
-0.013400 -0.020973 0.851000
0.026377 0.015780 0.869000
-0.015615 0.016647 0.877000
0.019289 0.037369 0.872000
-0.022112 0.011233 0.877000
-0.016222 -0.020647 0.852000
-0.027957 -0.013714 0.857000
-0.041763 -0.020793 0.858000
0.035685 0.025339 0.878000
-0.003690 0.025224 0.874000
-0.011418 -0.003851 0.860000
0.006758 0.015186 0.876000
-0.033796 -0.025938 0.853000
0.022468 0.040506 0.870000
0.006419 0.019941 0.879000
-0.009096 0.022011 0.875000
-0.044291 -0.010650 0.866000
-0.025871 -0.010552 0.858000
0.003851 0.011873 0.871000
-0.034862 -0.012375 0.862000
-0.000817 0.017409 0.879000
-0.012335 -0.025497 0.850000
-0.031067 0.024964 0.865000
-0.006158 0.031088 0.867000
0.012427 0.037598 0.869000
0.037431 0.003936 0.860000
-0.022209 -0.031906 0.853000
-0.013912 -0.004919 0.861000
0.011135 0.024310 0.880000
0.043010 0.027208 0.880000
0.005322 0.017008 0.877000
0.027967 0.038174 0.874000
-0.033680 -0.016574 0.859000
0.001716 0.018132 0.879000
0.040685 -0.006285 0.854000
0.029279 0.028327 0.881000
0.026874 0.004655 0.862000
0.014305 -0.011543 0.853000
-0.022561 -0.021023 0.853000
0.018508 0.040101 0.869000
0.020273 -0.012948 0.853000
0.034165 0.001102 0.858000
-0.028277 -0.017573 0.856000
0.024093 0.033612 0.877000
-0.004017 0.006466 0.867000
-0.044493 0.019223 0.863000
0.037449 0.025310 0.877000
0.019267 0.012590 0.871000
-0.012700 -0.027628 0.851000
-0.035489 -0.015886 0.860000
0.007135 0.017750 0.878000
-0.007271 0.025884 0.872000
-0.011999 -0.021674 0.851000
0.012638 0.000396 0.859000
-0.002259 0.022784 0.877000
-0.007154 -0.033153 0.858000
0.010103 -0.010854 0.854000
0.036936 0.009299 0.865000
-0.007271 0.026243 0.872000
0.040199 0.021986 0.874000
0.009229 0.012232 0.871000
-0.022878 -0.006366 0.865000
-0.027056 -0.005989 0.862000
0.018742 0.026121 0.880000
-0.040044 -0.018342 0.859000
-0.010212 0.015582 0.878000
0.025809 0.003236 0.862000
0.024362 0.000751 0.861000
-0.005350 -0.019946 0.852000
0.042641 0.001102 0.858000
-0.023558 -0.029379 0.851000
-0.016717 0.014498 0.878000
-0.027496 0.006533 0.876000
0.005316 0.014826 0.876000
0.029936 0.025006 0.879000
0.011819 0.028559 0.877000
0.000965 -0.008052 0.855000
0.013329 -0.000664 0.858000
0.016979 0.004666 0.864000
0.000269 0.020665 0.879000
0.014434 0.006826 1.264000
-0.042639 0.005812 0.876000
-0.040014 0.018221 0.866000
-0.023288 -0.003526 0.867000
-0.024829 0.019043 0.871000
-0.020551 -0.037641 0.872000
-0.006402 -0.025907 0.852000
0.024231 0.013634 0.869000
-0.024943 0.014809 0.875000
-0.003962 -0.008755 0.855000
0.019090 0.002529 0.863000
-0.025340 -0.023453 0.852000
-0.024278 0.012316 0.877000
0.015700 0.013322 0.872000
0.045466 -0.001370 0.858000
0.037594 0.018706 0.872000
0.006588 -0.018587 0.854000
-0.015366 -0.004930 0.863000
-0.045717 -0.009937 0.866000
-0.013526 -0.009503 0.859000
0.012916 -0.007339 0.854000
-0.000454 0.015204 0.877000
0.013609 0.030329 0.876000
0.004249 0.021388 0.879000
-0.021860 -0.003526 0.867000
-0.043322 0.014333 0.868000
-0.048268 -0.011376 0.867000
-0.016355 0.012330 0.878000
-0.039210 -0.011692 0.864000
-0.033093 -0.023831 0.853000
0.040744 0.026062 0.878000
0.016380 0.010427 0.870000
-0.040846 -0.015904 0.861000
0.039233 -0.006979 0.853000
-0.021107 -0.030080 0.851000
0.003851 0.031231 0.871000
0.007840 0.015547 0.876000
0.023371 0.021701 0.877000
0.029085 -0.011557 0.854000
-0.026485 -0.017201 0.855000
-0.032429 -0.029483 0.854000
0.004123 -0.017161 0.853000
0.018444 0.005746 0.866000
0.030367 0.031590 0.881000
0.034317 -0.008384 0.853000
0.016623 0.005377 0.864000
-0.006455 -0.033898 0.859000
0.022391 0.008250 0.867000
0.013267 -0.009800 0.854000
-0.018249 -0.004229 0.865000
0.027608 0.038893 0.874000
-0.042865 -0.009581 0.866000
0.030598 0.014316 0.867000
-0.011378 -0.033114 0.857000
0.029051 -0.008033 0.853000
-0.042493 -0.000316 0.873000
0.031972 -0.003129 0.856000
0.025868 0.020594 0.876000
-0.046323 0.017467 0.864000
-0.041150 0.002204 0.875000
0.020654 0.040817 0.869000
-0.024288 -0.022751 0.852000
0.002437 0.017389 0.878000
-0.083263 0.013500 1.553000
-0.030779 -0.018299 0.857000
0.012413 0.038269 0.868000
0.038312 0.018706 0.872000
0.001667 -0.011206 0.854000
0.024231 0.043678 0.869000
0.006781 0.024644 0.879000
0.028448 -0.004185 0.856000
-0.008888 -0.010515 0.855000
-0.014976 -0.008817 0.861000
0.031897 -0.011206 0.854000
0.014117 0.005371 0.863000
0.013986 -0.005940 0.855000
-0.043072 -0.013455 0.863000
-0.016533 -0.024097 0.850000
0.019378 0.018431 0.876000
0.008182 0.013713 0.874000
-0.034347 -0.018321 0.858000
-0.000093 0.013383 0.876000
0.020392 -0.003489 0.858000
0.009324 0.022499 0.880000
-0.038541 0.011182 0.873000
-0.036239 -0.014132 0.861000
0.012213 -0.016829 0.854000
0.000980 0.009331 0.868000
-0.011039 -0.034565 0.858000
0.008182 0.030620 0.874000
0.019969 -0.008052 0.855000
-0.000450 0.031875 0.869000
-0.041666 -0.024267 0.856000
-0.010368 -0.003501 0.861000
-0.037605 -0.005673 0.868000
0.035847 -0.002776 0.856000
-0.019946 0.013399 0.877000
-0.027573 -0.013698 0.856000
0.006588 -0.013314 0.854000
0.005975 0.036084 0.867000
0.012916 -0.016126 0.854000
-0.025077 -0.018960 0.855000
0.014776 0.002520 0.860000
-0.027991 -0.002103 0.869000
0.031241 0.020211 0.875000
0.004547 0.008250 0.867000
0.017983 0.002169 0.861000
0.033693 0.009288 0.864000
0.025986 0.031554 0.880000
0.027608 0.018749 0.874000
0.037873 -0.003824 0.854000
0.029609 0.004639 0.859000
0.037829 0.004649 0.861000
0.033966 -0.009086 0.853000
-0.020502 -0.017201 0.855000
-0.006158 0.005752 0.867000
-0.035067 0.005451 0.876000
-0.010154 0.008307 0.873000
-0.015866 0.022986 0.871000
-0.017477 -0.008827 0.862000
0.016920 0.002877 0.861000
-0.025429 -0.017201 0.855000
0.032495 0.015082 0.870000
0.009314 0.024283 0.879000
-0.005701 -0.025557 0.852000
-0.017261 0.025079 0.869000
-0.014366 0.002541 0.867000
-0.030415 0.009067 0.877000
-0.025905 0.001477 0.871000
-0.032491 0.024608 0.865000
-0.028846 -0.028362 0.852000
-0.027093 -0.024154 0.852000
-0.023558 -0.028679 0.851000
0.001667 -0.014720 0.854000
0.011158 -0.017181 0.854000
0.029540 -0.002779 0.857000
0.006588 -0.017532 0.854000
-0.013794 0.018431 0.876000
0.045166 0.001103 0.859000
-0.030284 -0.005285 0.863000
-0.218241 0.134393 6.147000
-0.040799 -0.017302 0.860000
-0.022115 -0.008482 0.863000
0.029902 0.024255 0.878000
-0.014434 -0.025147 0.850000
-0.046678 -0.014537 0.864000
-0.012019 0.017028 0.878000
-0.007860 -0.006314 0.858000
-0.039079 0.015422 0.869000
0.019946 -0.014720 0.854000
-0.001535 0.024560 0.876000
-0.012098 -0.008080 0.858000
-0.010760 0.001109 0.864000
-0.033559 -0.007434 0.865000
-0.026203 0.020430 0.869000
0.012556 0.019919 0.878000
-0.027892 -0.017201 0.855000
-0.031652 -0.026258 0.852000
-0.011013 -0.014755 0.856000
-0.046127 0.015030 0.867000
0.005534 -0.018235 0.854000
0.000992 0.018132 0.879000
0.011171 -0.018609 0.855000
0.023082 -0.012246 0.853000
-0.018940 -0.006358 0.864000
0.003152 0.014465 0.876000
-0.027347 -0.008807 0.860000
-0.039703 0.017171 0.867000
-0.005111 0.009005 0.871000
-0.044744 -0.019448 0.861000
-0.037076 0.022090 0.864000
0.002423 0.029147 0.873000
-0.039245 -0.020768 0.857000
-0.000455 0.021027 0.879000
0.034245 0.005706 0.860000
0.032753 0.003574 0.858000
0.011197 -0.002427 0.857000
0.040698 0.025671 0.877000
-0.032391 -0.025938 0.853000
0.009389 -0.013650 0.853000
0.025959 0.012532 0.867000
-0.021432 -0.026896 0.850000
0.011846 0.020665 0.879000
-0.030345 0.013008 0.875000
0.021253 0.023197 0.879000
0.009763 -0.004884 0.855000
0.040015 0.016514 0.870000
-0.024001 0.023951 0.867000
0.011498 0.023948 0.880000
0.036057 0.004649 0.861000
0.023732 0.021701 0.877000
-0.038499 0.021735 0.864000
-0.010872 0.007589 0.873000
-0.024609 -0.029379 0.851000
0.032046 0.002514 0.858000
0.017175 0.015871 0.874000
0.045413 -0.005249 0.857000
-0.015276 -0.013024 0.858000
0.000612 -0.017512 0.853000
0.033106 0.002867 0.858000
-0.004665 -0.008755 0.855000
-0.009186 -0.024097 0.850000
0.033106 0.001455 0.858000
0.013233 0.016609 0.875000
0.036637 0.000396 0.858000
-0.033445 -0.023831 0.853000
0.024231 0.042247 0.869000
-0.019206 -0.010930 0.860000
-0.037591 0.007975 0.876000
0.030915 -0.003833 0.856000
0.000261 -0.020344 0.854000
-0.012338 0.009407 0.875000
0.015962 0.044017 0.929000
-0.028872 0.003640 0.874000
-0.041989 0.013650 0.870000
0.012755 0.010034 0.867000
-0.043933 -0.023645 0.859000
0.044047 0.025006 0.879000
0.015412 -0.002776 0.856000
0.023082 -0.010490 0.853000
0.032469 0.025730 0.879000
-0.028120 0.016212 0.873000
0.021108 0.036333 0.873000
0.034559 0.004285 0.859000
0.008473 0.008964 0.867000
-0.005445 0.005752 0.867000
0.016060 -0.013650 0.853000
-0.017360 0.006518 0.874000
0.008512 0.033382 0.871000
0.028424 0.035417 0.877000
0.008172 0.012978 0.873000
-0.043721 0.002928 0.876000
-0.020406 -0.023775 0.851000
-0.018412 -0.034132 0.856000
-0.038313 0.003649 0.876000
-0.025429 -0.003169 0.867000
0.035827 0.007866 0.864000
-0.043072 -0.013100 0.863000
-0.035067 0.005091 0.876000
0.017595 0.020257 0.877000
0.014690 -0.017553 0.855000
0.029643 0.006414 0.860000
0.016719 0.039028 0.869000
-0.047856 0.015013 0.866000
-0.028217 0.006533 0.876000
-0.006066 -0.015072 0.854000
0.031450 0.007130 0.861000
0.005261 0.036441 0.867000
-0.007656 0.010847 0.875000
-0.014871 -0.032333 0.855000
0.032791 0.004639 0.859000
0.004610 0.021027 0.879000
0.023272 -0.000311 0.860000
0.031509 -0.009086 0.853000
0.024645 0.040552 0.871000
0.039429 0.010367 0.865000
0.022110 0.011859 0.870000
0.002376 -0.006299 0.856000
-0.036604 -0.025236 0.853000
-0.014009 0.002898 0.867000
-0.009186 -0.025497 0.850000
-0.038321 -0.016240 0.860000
-0.035067 0.004730 0.876000
0.019378 0.000042 0.860000
-0.033954 -0.018652 0.857000
-0.027401 0.003636 0.873000
-0.034307 -0.030998 0.857000
-0.004068 0.016666 0.878000
0.024148 0.023921 0.879000
-0.001496 -0.013666 0.854000
-0.008156 -0.018193 0.852000
0.017615 0.021364 0.878000
-0.011759 -0.006321 0.859000
0.017772 0.008974 0.868000
-0.034707 0.008336 0.876000
-0.013794 0.019152 0.876000
-0.030741 0.005451 0.876000
0.028360 0.019851 0.875000
-0.034427 -0.014824 0.860000
0.010443 -0.012948 0.853000
-0.028630 -0.018630 0.856000
0.003425 -0.009800 0.854000
-0.029929 -0.005996 0.863000
-0.034271 0.022116 0.865000
-0.035421 -0.006380 0.867000
0.037126 -0.007682 0.853000
-0.013928 -0.004215 0.862000
0.004239 0.025310 0.877000
0.040333 -0.005933 0.854000
0.036707 0.013618 0.868000
-0.046430 -0.011363 0.866000
0.041388 -0.004879 0.854000
0.017293 0.024673 0.880000
0.034922 0.024227 0.877000
-0.008746 0.021315 0.876000
-0.038847 -0.021097 0.856000
-0.006410 -0.028044 0.853000
0.035283 0.023866 0.877000
-0.025845 -0.001745 0.869000
0.017858 -0.007348 0.855000
0.008346 -0.006636 0.854000
0.012711 0.006799 0.864000
-0.025399 -0.020696 0.854000
-0.034509 -0.001032 0.871000
-0.017294 -0.019267 0.853000
-0.025875 0.000043 0.870000
-0.008300 0.005752 0.867000
-0.028244 -0.020368 0.855000
0.043059 0.027964 0.881000
-0.072719 0.000672 1.457000
0.029609 0.000396 0.859000
-0.032078 -0.029483 0.854000
-0.048212 -0.014214 0.866000
-0.036848 0.018599 0.867000
-0.010685 -0.006314 0.858000
0.024164 -0.008394 0.854000
-0.017000 0.019108 0.874000
-0.008888 -0.015441 0.855000
-0.042384 0.023344 1.048000
0.007411 0.036483 0.868000
0.000629 0.015204 0.877000
-0.030207 0.000043 0.871000
0.033325 0.018368 0.873000
0.044355 -0.001721 0.857000
-0.033915 0.021760 0.865000
0.008932 0.017730 0.877000
0.042599 0.026815 0.879000
-0.036576 -0.003891 0.869000
-0.038450 -0.028462 0.855000
0.043784 0.026514 0.881000
-0.005357 -0.016810 0.853000
-0.012084 -0.033114 0.857000
0.010479 -0.018983 0.856000
-0.020079 -0.022401 0.852000
0.021320 0.007536 0.867000
-0.037018 0.014024 0.871000
0.034559 0.002871 0.859000
-0.027073 -0.032692 0.874000
-0.031652 -0.025907 0.852000
-0.016572 -0.029765 0.852000
-0.018633 -0.027596 0.850000
0.006932 -0.015756 0.853000
-0.011498 0.030696 0.866000
0.035143 -0.002776 0.856000
-0.022534 -0.030817 0.852000
-0.019946 0.015564 0.877000
0.037344 0.000749 0.858000
0.023516 -0.005595 0.856000
-0.006864 0.004320 0.866000
-0.023780 -0.010564 0.859000
0.024630 -0.003136 0.858000
0.001714 0.023171 0.878000
0.024475 0.006095 0.865000
-0.047966 0.012904 0.868000
0.016469 -0.004890 0.856000
-0.027766 -0.005989 0.862000
-0.024725 -0.014386 0.855000
0.040029 -0.010867 0.855000
0.020553 0.025397 0.880000
0.023840 -0.006644 0.855000
0.000614 -0.021449 0.856000
0.027647 0.010355 0.864000
-0.019519 0.006878 0.874000
-0.021432 -0.027946 0.850000
0.009763 -0.005588 0.855000
0.017878 -0.006299 0.856000
-0.023037 0.001477 0.871000
0.006689 0.036441 0.867000
0.003429 -0.007700 0.855000
-0.001177 0.016666 0.878000
0.001354 0.021027 0.879000
0.009752 -0.011557 0.854000
-0.045056 0.015387 0.867000
0.013052 0.005015 0.863000
-0.009219 -0.028746 0.853000
0.040122 -0.000310 0.857000
0.026611 0.011435 0.865000
-0.041057 -0.020086 0.858000
0.005657 0.029866 0.873000
-0.011257 0.021291 0.875000
0.020553 0.026121 0.880000
0.024509 0.032242 0.879000
-0.046323 -0.014182 0.864000
-0.007121 -0.015072 0.854000
-0.033908 0.012993 0.874000
-0.017707 -0.015460 0.856000
-0.020981 0.007246 0.875000
0.010049 0.023586 0.880000
0.041012 0.023839 0.876000
0.013127 0.040412 0.868000
-0.028145 -0.025907 0.852000
-0.043327 -0.016259 0.861000
-0.021935 -0.014403 0.856000
-0.002620 0.014121 0.877000
-0.023917 0.010872 0.877000
0.035702 0.005358 0.861000
-0.019878 0.006158 0.874000
-0.001883 0.029763 0.870000
0.041886 0.000395 0.857000
-0.008766 0.018473 0.878000
-0.010272 -0.017512 0.853000
0.006361 0.032307 0.871000
-0.036218 -0.004607 0.869000
-0.046537 0.013261 0.868000
-0.034862 -0.012730 0.862000
-0.014871 -0.016497 0.855000
-0.013558 -0.038230 0.861000
-0.029332 0.010511 0.877000
-0.025875 -0.000673 0.870000
0.013985 0.031086 0.877000
-0.009240 -0.012978 0.855000
0.002763 0.007180 0.867000
-0.034947 0.001121 0.873000
0.011793 0.016249 0.875000
-0.036407 0.020692 0.865000
0.022002 0.026846 0.880000
-0.048268 0.013960 0.867000
-0.017659 0.022269 0.871000
0.009621 0.014072 0.874000
-0.023126 -0.009880 0.861000
0.024532 0.010391 0.867000
-0.018376 0.022628 0.871000
-0.031426 0.004365 0.875000
-0.029265 0.004725 0.875000
0.009049 -0.011909 0.854000
-0.004424 0.013760 0.877000
-0.038488 -0.031829 0.880000
-0.002984 0.019919 0.878000
0.002728 -0.005947 0.856000
-0.010177 0.010127 0.875000
0.012513 0.016249 0.875000
-0.015348 -0.007053 0.862000
0.024900 0.025759 0.880000
-0.013605 -0.000669 0.864000
-0.000091 -0.007004 0.856000
-0.005862 0.011941 0.876000
-0.017335 -0.033037 0.855000
0.012427 0.036882 0.869000
-0.034113 -0.013424 0.861000
-0.001145 -0.013314 0.854000
-0.018123 -0.012685 0.859000
-0.011051 -0.034959 0.859000
-0.020406 -0.029730 0.851000
-0.016203 -0.029029 0.851000
0.038715 0.019446 0.873000
0.016892 0.029676 0.878000
0.005885 -0.009097 0.854000
0.024537 0.026121 0.880000
-0.016337 0.011955 0.877000
-0.024029 0.023264 0.868000
0.007643 -0.006988 0.854000
-0.014976 -0.007399 0.861000
0.006376 0.030944 0.873000
-0.017142 -0.006351 0.863000
0.017962 0.001104 0.860000
0.040923 0.002517 0.859000
0.001317 -0.007700 0.855000
-0.013495 -0.034172 0.857000
0.034438 -0.002072 0.856000
0.036766 0.005004 0.861000
0.012198 -0.013650 0.853000
-0.016611 -0.031592 0.854000
-0.012140 -0.003856 0.861000
-0.007682 0.014137 0.878000
0.015844 0.024673 0.880000
0.023291 0.017310 0.874000
0.014322 -0.008394 0.854000
-0.021390 0.011594 0.877000
-0.037162 -0.008155 0.866000
-0.003605 -0.010503 0.854000
0.038314 -0.002072 0.856000
-0.023531 -0.025846 0.850000
-0.002902 -0.012611 0.854000
-0.007833 -0.010163 0.855000
-0.042823 -0.021852 0.858000
-0.029898 -0.025206 0.852000
-0.000090 -0.009800 0.854000
0.041036 -0.008745 0.854000
-0.013311 0.026837 0.868000
0.019265 -0.007348 0.855000
-0.013810 0.017008 0.877000
-0.020886 0.021552 0.871000
-0.009716 0.032121 0.866000
0.047410 0.008746 0.881000
0.004574 0.030549 0.872000
-0.011999 -0.020623 0.851000
-0.024373 -0.014738 0.855000
0.002016 -0.017863 0.853000
-0.033837 -0.010613 0.863000
-0.026010 -0.029029 0.851000
0.007505 0.019580 0.879000
0.027008 -0.014034 0.855000
0.000261 -0.015756 0.853000
-0.003605 -0.009800 0.854000
0.039555 0.003582 0.860000
-0.026053 0.013023 0.876000
-0.036051 -0.008858 0.865000
-0.005376 -0.008061 0.856000
0.032588 0.009633 0.863000
0.039479 0.021627 0.874000
0.025396 -0.015532 0.860000
-0.002599 0.009353 0.870000
0.031860 -0.010139 0.853000
0.014914 -0.018534 0.868000
-0.014283 -0.039338 0.862000
-0.045506 -0.019471 0.862000
0.028785 0.022062 0.877000
-0.005023 -0.008413 0.856000
-0.040209 -0.023535 0.855000
0.020749 0.036693 0.873000
-0.027862 0.023896 0.865000
-0.040774 0.016458 0.867000
-0.007970 0.027257 0.870000
-0.009705 0.002179 0.865000
-0.006229 0.020618 0.877000
0.044156 -0.008807 0.860000
0.007822 0.013713 0.874000
-0.008386 0.011941 0.876000
0.011766 0.013338 0.873000
-0.042313 -0.014149 0.862000
0.016004 0.038671 0.869000
-0.023725 -0.013009 0.857000
0.035266 0.003224 0.859000
0.037692 0.010379 0.866000
0.042424 0.012189 0.868000
0.026348 0.031554 0.880000
-0.024430 -0.012656 0.857000
-0.020169 0.020835 0.871000
-0.000441 -0.017512 0.853000
0.037741 0.001457 0.859000
-0.025546 0.001477 0.871000
0.026273 -0.012611 0.854000
0.007094 0.030585 0.873000
-0.040557 0.014366 0.870000
-0.001848 -0.014369 0.854000
0.035020 -0.009437 0.853000
0.007402 0.008964 0.867000
-0.015419 0.030339 0.866000
0.017077 0.038671 0.869000
0.024645 0.040194 0.871000
0.033593 0.027208 0.880000
0.043951 -0.005242 0.856000
0.020133 0.001462 0.862000
-0.002623 0.016305 0.878000
-0.027166 0.010511 0.877000
-0.023672 -0.002101 0.868000
-0.016184 -0.024447 0.850000
-0.024316 -0.031906 0.853000
0.005618 0.036441 0.867000
0.003073 -0.012260 0.854000
0.017234 0.032168 0.877000
0.013937 0.015152 0.874000
-0.007979 0.026213 0.871000
0.035061 -0.010503 0.854000
0.009038 -0.015756 0.853000
0.008191 0.014809 0.875000
0.026259 0.035056 0.877000
-0.037205 -0.006737 0.867000
-0.034498 -0.028395 0.853000
-0.017161 -0.004936 0.864000
0.017254 0.001812 0.860000
-0.012509 -0.001731 0.862000
0.036200 -0.002072 0.856000
-0.024555 0.016590 0.874000
0.023845 0.042913 0.868000
0.041066 0.006074 0.862000
-0.037735 0.013666 0.871000
-0.025429 -0.018960 0.855000
0.026611 0.011079 0.865000
0.007822 0.029900 0.874000
-0.037702 -0.023508 0.854000
0.026593 -0.008735 0.853000
0.004191 0.008964 0.867000
-0.020386 0.027812 0.865000
0.021443 0.037369 0.872000
-0.007682 0.019196 0.878000
0.028581 0.004290 0.860000
-0.009705 0.002891 0.865000
0.024305 -0.001725 0.859000
-0.012239 0.028266 0.868000
-0.027119 -0.004225 0.864000
0.004831 -0.010503 0.854000
-0.036273 -0.032155 0.879000
0.040245 0.022372 0.875000
0.037873 -0.004527 0.854000
-0.011454 0.007597 1.824000
0.009389 -0.012948 0.853000
0.027327 -0.012963 0.854000
-0.000453 0.025973 0.875000
0.038183 0.004295 0.861000
-0.017020 0.008326 0.875000
0.019311 0.035615 0.873000
-0.038138 -0.001034 0.872000
0.011498 0.023586 0.880000
-0.042411 -0.011692 0.864000
-0.023590 0.026032 0.865000
0.016343 0.008974 0.868000
-0.010561 0.018452 0.877000
0.023873 0.043678 0.869000
-0.038990 0.017171 0.867000
0.025927 0.034012 0.878000
-0.027307 -0.001031 0.870000
0.002440 0.019941 0.879000
0.023211 0.014383 0.871000
-0.008596 -0.036812 0.861000
0.031312 0.013603 0.867000
-0.015579 0.019490 0.875000
-0.005438 0.004676 0.866000
-0.012350 -0.027278 0.851000
0.014134 0.006799 0.864000
-0.002261 0.021003 0.878000
-0.028696 -0.012317 0.858000
-0.039394 0.006533 0.876000
-0.012727 0.018452 0.877000
0.019201 0.008617 0.868000
-0.043422 0.012934 0.870000
-0.020574 -0.013730 0.858000
0.021502 -0.001019 0.860000
-0.038313 0.007615 0.876000
0.039647 0.006074 0.862000
-0.041510 0.007966 0.875000
0.006023 0.028821 0.874000
-0.014171 0.017008 0.877000
0.024758 0.019130 0.875000
-0.004736 0.031124 0.868000
0.025275 0.014690 0.868000
-0.017935 -0.001741 0.867000
0.017895 0.016231 0.874000
-0.021807 -0.024126 0.851000
0.028515 -0.001017 0.858000
0.029928 0.002514 0.858000
-0.043311 0.006165 0.875000
-0.008146 -0.021324 0.851000
-0.034667 0.020716 0.866000
0.041757 0.013634 0.869000
0.036407 0.026062 0.878000
-0.007787 -0.023048 0.850000
0.026286 0.012874 0.866000
0.020630 0.041127 0.868000
0.028227 0.003228 0.860000
-0.011731 -0.009129 0.857000
0.034912 0.002871 0.859000
0.011861 -0.010503 0.854000
0.000261 -0.011557 0.854000
-0.027011 0.002196 0.872000
-0.012335 -0.022348 0.850000
-0.010961 -0.019595 0.852000
-0.019318 0.028524 0.865000
0.039155 0.001810 0.859000
-0.032391 -0.023480 0.853000
-0.032505 -0.019687 0.856000
-0.038495 -0.029200 0.856000
-0.023917 0.013760 0.877000
0.001353 0.022448 0.878000
-0.014993 -0.006344 0.862000
-0.007246 0.029371 0.869000
-0.038181 0.000402 0.873000
-0.010236 -0.026196 0.850000
0.037551 0.016533 0.871000
0.028195 -0.001018 0.859000
-0.021627 0.019424 0.872000
-0.003711 0.017047 0.879000
0.041565 0.010011 0.865000
0.035512 0.009299 0.865000
0.022261 0.002171 0.862000
-0.042420 -0.022885 0.857000
0.023451 0.029743 0.880000
-0.012070 -0.032018 0.856000
-0.005363 -0.013314 0.854000
0.004579 0.029866 0.873000
0.008346 -0.009800 0.854000
0.037521 -0.010151 0.854000
0.025869 0.006088 0.864000
0.039018 -0.001367 0.856000
0.036226 0.017771 3.291000
-0.046034 0.009374 0.872000
-0.038138 0.012605 0.872000
-0.023558 -0.029730 0.851000
0.018721 0.022474 0.879000
-0.041870 0.007606 0.875000
-0.013035 -0.023398 0.850000
-0.005835 0.009016 0.872000
-0.005862 0.012302 0.876000
-0.019787 0.001117 0.870000
-0.028414 0.000402 0.871000
-0.013173 -0.008089 0.859000
0.031693 -0.000664 0.858000
0.006023 0.029540 0.874000
-0.042823 -0.022558 0.858000
-0.020854 -0.033388 0.855000
-0.010885 0.021986 0.874000
-0.035380 -0.007799 0.866000
-0.002551 -0.009448 0.854000
0.019640 -0.006299 0.856000
-0.032303 -0.014116 0.860000
0.014395 0.026483 0.880000
-0.017436 -0.010930 0.860000
0.036818 -0.010503 0.854000
-0.039755 0.007254 0.876000
0.032071 0.024978 0.878000
0.006781 0.019941 0.879000
0.002789 0.026693 0.875000
0.007428 0.034060 0.870000
-0.026255 -0.009503 0.859000
0.002798 0.023532 0.878000
0.011496 -0.015054 0.853000
-0.024499 0.017988 0.872000
-0.030137 -0.002103 0.869000
-0.018038 -0.032685 0.855000
-0.027411 -0.025176 0.851000
-0.043000 0.004730 0.876000
-0.024373 -0.017553 0.855000
0.036350 0.012904 0.868000
0.021888 0.029870 3.607000
-0.048625 -0.011733 0.867000
0.023397 0.032567 0.878000
0.006940 -0.018235 0.854000
-0.013434 0.010860 0.876000
-0.000805 0.034973 0.866000
0.014330 0.016989 0.876000
-0.030741 0.010860 0.876000
0.019024 0.000042 0.860000
0.013970 -0.006988 0.854000
0.030879 -0.004533 0.855000
-0.031926 -0.002818 0.869000
0.033852 0.004992 0.859000
-0.037076 -0.010270 0.864000
0.025118 0.036777 0.875000
0.024175 0.030468 0.880000
-0.008175 -0.016478 0.854000
0.005683 0.017008 0.877000
-0.018017 -0.031592 0.854000
0.037046 0.023839 0.876000
-0.009034 0.007196 0.869000
-0.003957 -0.014369 0.854000
0.015746 -0.006996 0.855000
-0.023208 -0.024126 0.851000
0.042238 0.026453 0.879000
-0.092392 0.051410 2.308000
0.032137 0.015082 0.870000
-0.006598 0.016305 0.878000
-0.015939 0.019130 0.875000
0.030590 0.022784 0.877000
0.023131 0.009689 0.868000
0.005982 0.035411 0.868000
-0.006745 -0.022374 0.851000
-0.016883 -0.026896 0.850000
0.043951 -0.003833 0.856000
