-0.028745 0.026599 0.849000
-0.000090 0.045575 0.851000
-0.037741 0.030022 0.847000
-0.039945 0.025686 0.842000
-0.000442 0.041518 0.854000
0.032913 0.009521 0.853000
-0.020834 0.006956 0.840000
0.021000 0.020077 0.854000
-0.014558 -0.003404 0.837000
-0.013864 0.026528 0.858000
0.021427 -0.005601 0.857000
0.010857 0.004986 0.858000
0.036015 -0.005621 0.860000
-0.021079 -0.006152 0.836000
0.022210 0.009245 0.860000
0.004814 0.040672 0.851000
-0.005587 -0.023328 0.835000
0.043293 0.004940 0.850000
-0.006777 0.047197 0.855000
0.045713 -0.008413 0.856000
0.025450 0.021382 0.850000
0.011184 0.026114 0.856000
0.002320 -0.014410 0.836000
0.012549 0.029533 0.853000
-0.029953 0.003131 0.834000
-0.033016 0.033667 0.851000
0.028349 -0.016459 0.853000
-0.021602 0.017737 0.843000
-0.015229 -0.006496 0.836000
0.037344 -0.017614 0.858000
-0.009712 -0.012331 0.835000
0.045113 -0.011258 0.858000
0.043347 -0.024324 0.858000
-0.000433 -0.009949 0.837000
-0.045361 0.017864 0.866000
-0.014920 0.000386 0.838000
0.013954 0.028480 0.853000
-0.040229 0.030058 0.848000
0.030915 -0.015460 0.856000
0.031693 0.002867 0.858000
0.039509 -0.018342 0.859000
0.045446 -0.000658 0.851000
0.003102 0.025942 0.862000
0.032475 -0.001373 0.860000
0.026718 -0.010539 0.857000
-0.026177 0.002444 0.834000
-0.022938 0.028864 0.854000
0.013970 0.026404 0.854000
-0.025268 0.007284 0.838000
-0.015648 0.030094 0.859000
0.036031 0.008107 0.852000
0.020297 -0.008394 0.854000
-0.038905 0.024647 0.842000
0.011958 0.017761 0.861000
-0.031243 0.018041 0.841000
-0.002148 -0.018495 0.834000
0.006565 0.039271 0.851000
0.024113 -0.037643 0.840000
-0.023459 -0.004770 0.835000
0.001675 0.013462 0.858000
0.006581 0.036203 0.853000
0.013856 -0.012508 0.847000
-0.030241 0.018755 0.842000
-0.015852 0.018606 0.851000
0.010667 -0.010367 0.843000
0.018127 -0.034669 0.835000
0.027841 -0.007736 0.859000
0.029998 0.016485 0.850000
0.039246 -0.012715 0.861000
-0.034114 0.008633 0.835000
-0.010368 0.040441 0.861000
0.022758 0.017265 0.854000
-0.033891 0.014527 0.838000
0.034814 -0.030672 0.848000
0.036552 -0.020744 0.856000
-0.021255 0.011491 0.843000
0.009775 0.027523 0.856000
-0.010636 0.018671 0.854000
0.004836 0.034529 0.855000
0.002712 0.042773 0.851000
-0.031822 -0.004787 0.838000
0.005566 0.028326 0.859000
-0.029512 0.016656 0.841000
-0.007079 0.012622 0.849000
0.021197 0.002881 0.862000
0.012213 0.029216 0.854000
0.020976 0.020756 0.853000
0.042593 0.003191 0.850000
0.018167 0.023916 0.853000
-0.016339 0.004190 0.840000
0.033264 -0.021725 0.853000
0.013300 -0.031882 0.834000
0.033576 -0.007754 0.861000
0.032753 -0.013730 0.858000
0.010247 -0.024762 0.837000
-0.026303 0.008319 0.838000
-0.001867 0.028458 0.863000
-0.023803 -0.005457 0.835000
0.021148 -0.000665 0.860000
0.005085 -0.018928 0.838000
-0.001811 -0.007882 0.837000
-0.026020 0.014908 0.840000
0.008575 -0.010702 0.842000
0.019732 0.000396 0.860000
0.040522 -0.021146 0.858000
-0.034801 0.010008 0.835000
-0.026928 0.006923 0.836000
-0.001461 -0.019181 0.834000
-0.014655 0.042311 0.863000
-0.008691 -0.020604 0.836000
0.026881 0.018956 0.851000
0.012284 0.020195 0.859000
0.023272 -0.002081 0.860000
0.047067 -0.008052 0.855000
-0.000088 -0.026015 0.833000
-0.012013 0.016523 0.852000
-0.035271 0.000386 0.838000
0.028464 -0.027814 0.846000
0.011736 -0.008653 0.845000
0.005201 0.009566 0.857000
0.031413 -0.009514 0.860000
0.035537 -0.018299 0.857000
-0.023641 0.029567 0.854000
-0.034093 0.022247 0.843000
0.016488 -0.001016 0.857000
-0.034926 0.015217 0.838000
-0.017213 0.017514 0.849000
-0.006448 0.042419 0.858000
0.045061 -0.009481 0.857000
-0.000091 0.017387 0.860000
0.011861 0.029216 0.854000
0.036296 -0.028645 0.850000
-0.025690 0.028095 0.852000
-0.028372 0.010389 0.838000
-0.017253 0.025260 0.851000
0.013921 -0.001709 0.851000
0.024085 -0.035181 0.839000
0.029998 0.017184 0.850000
-0.020415 -0.007538 0.837000
0.017506 0.021860 0.855000
-0.019726 0.001764 0.837000
0.001981 -0.010651 0.838000
-0.011430 -0.010956 0.835000
-0.010026 0.038359 0.862000
-0.029354 -0.006737 0.867000
0.004718 -0.024673 0.834000
-0.028649 -0.005120 0.836000
-0.000432 -0.017830 0.835000
-0.006275 -0.013706 0.835000
-0.035832 0.007602 0.835000
-0.018390 0.026787 0.855000
0.039463 -0.004902 0.858000
0.018103 0.028379 0.850000
-0.019821 0.029284 0.856000
-0.036957 0.027517 0.845000
-0.036563 0.007267 0.836000
0.013523 -0.005891 0.848000
0.027809 0.006046 0.858000
0.026755 -0.022618 0.847000
0.023701 0.022782 0.850000
-0.006030 0.012971 0.849000
-0.003864 -0.018838 0.834000
0.006120 -0.018928 0.838000
0.006083 -0.027044 0.833000
-0.013589 0.040535 0.863000
0.000618 0.020265 0.862000
-0.020598 0.033983 0.859000
0.014467 -0.020752 0.842000
0.005560 0.029353 0.858000
0.028260 -0.005982 0.861000
0.018192 -0.028241 0.838000
-0.009723 -0.003744 0.836000
-0.016605 -0.003744 0.836000
-0.025720 0.030235 0.853000
0.011736 -0.007957 0.845000
-0.004354 0.026682 0.863000
-0.032896 -0.004448 0.839000
-0.014451 0.016504 0.851000
-0.034884 0.002453 0.837000
-0.006698 0.008041 0.845000
0.002040 0.020999 0.863000
-0.008194 0.046548 0.856000
0.003357 -0.016494 0.837000
0.004157 0.026943 0.860000
0.003790 0.033199 0.857000
-0.041130 0.027865 0.845000
-0.014885 -0.012002 0.836000
-0.012140 0.029455 0.861000
0.025809 0.000397 0.862000
-0.026423 0.030937 0.853000
0.027834 -0.024390 0.848000
-0.026521 0.003474 0.834000
-0.032128 0.011754 0.837000
0.045553 -0.003820 0.853000
-0.038604 -0.003775 0.843000
0.027768 -0.027118 0.846000
0.020214 -0.036431 0.836000
0.023136 0.015174 0.855000
0.008022 0.027908 0.857000
0.022891 0.010295 0.859000
0.018471 -0.040168 0.835000
0.028227 0.002874 0.860000
0.009180 -0.028793 0.834000
-0.002838 -0.011300 0.835000
-0.018390 0.027139 0.855000
-0.010026 0.028780 0.862000
-0.060091 0.040532 1.214000
0.024954 -0.009129 0.857000
-0.010116 0.003845 0.840000
-0.022235 0.028513 0.854000
-0.033249 0.029709 0.848000
-0.011800 0.030554 0.862000
0.012284 -0.029171 0.835000
-0.012836 0.000386 0.837000
-0.003643 0.030589 0.863000
0.043293 0.002491 0.850000
-0.008816 0.012607 0.848000
0.040923 -0.020110 0.859000
0.003106 0.019934 0.863000
-0.028580 0.001414 0.834000
0.027582 0.017555 0.851000
0.024544 -0.010515 0.855000
0.000256 -0.008581 0.838000
-0.011103 0.037693 0.863000
0.015007 -0.002415 0.853000
0.039110 -0.019733 0.858000
0.048361 -0.006277 0.853000
0.004374 -0.035314 0.834000
0.024079 0.020707 0.851000
0.003785 0.033512 0.856000
-0.022963 0.014250 0.842000
0.023653 0.005004 0.861000
-0.000440 0.011250 0.851000
0.018958 -0.003485 0.857000
0.013314 0.002511 0.857000
0.047659 -0.006277 0.853000
-0.035145 0.010351 0.835000
-0.002494 -0.010956 0.835000
-0.002848 -0.027896 0.838000
-0.006102 0.038933 0.859000
-0.031898 -0.007219 0.840000
0.011496 0.030235 0.853000
-0.037430 0.000733 0.840000
0.031673 -0.032766 0.848000
0.020214 -0.039184 0.836000
0.020721 -0.004543 0.857000
0.029323 -0.003501 0.861000
0.026843 -0.003856 0.861000
0.014101 0.011041 0.862000
-0.029828 0.029429 0.850000
0.013507 -0.008673 0.847000
-0.019891 0.033276 0.859000
0.031304 0.004980 0.857000
-0.037128 0.022887 0.841000
0.008565 -0.016227 0.841000
-0.001465 -0.029206 0.836000
-0.018960 0.024153 0.849000
-0.015152 0.018606 0.851000
0.034398 -0.036908 0.855000
-0.000790 0.009488 0.850000
0.026660 -0.029485 0.844000
0.034639 -0.008108 0.861000
-0.037820 -0.000651 0.841000
0.040333 -0.026671 0.854000
-0.000794 0.040863 0.855000
-0.002197 0.044980 0.853000
-0.018003 -0.008227 0.837000
-0.033932 0.016962 0.839000
0.034979 -0.024505 0.852000
0.016448 -0.030963 0.837000
-0.007393 0.008041 0.845000
0.036766 -0.012360 0.861000
-0.034581 -0.000648 0.838000
-0.009402 0.000386 0.838000
0.017362 -0.014617 0.848000
0.041935 -0.030327 0.858000
0.029126 -0.033346 0.845000
0.000256 -0.016475 0.836000
0.024573 -0.009823 0.856000
-0.008691 -0.005120 0.836000
-0.025449 0.020537 0.844000
0.002387 0.015971 0.860000
0.011158 0.029216 0.854000
-0.015338 0.007319 0.842000
0.034285 -0.010943 0.861000
0.005085 -0.017894 0.838000
-0.029444 0.026948 0.849000
-0.002933 0.025617 0.863000
-0.000088 -0.026701 0.833000
-0.015152 0.017205 0.851000
-0.019726 0.001075 0.837000
0.032562 -0.021023 0.853000
0.047785 -0.000657 0.849000
-0.031540 0.029394 0.849000
0.028548 -0.008443 0.859000
0.023757 0.020381 0.852000
0.026593 -0.015405 0.853000
0.016023 0.029464 0.851000
-0.027186 0.020189 0.844000
0.010718 -0.004141 0.847000
0.030741 -0.006691 0.861000
0.008395 0.024084 0.859000
0.016468 -0.023757 0.838000
0.003812 0.025587 0.862000
0.039601 -0.011652 0.861000
0.026519 0.000752 0.862000
0.018409 -0.016013 0.848000
0.005404 -0.025703 0.834000
-0.020046 -0.005464 0.836000
0.030387 -0.005627 0.861000
0.017134 0.023241 0.854000
-0.011774 -0.010613 0.835000
-0.016625 -0.001337 0.837000
-0.028178 0.032341 0.853000
0.016389 -0.039777 0.834000
0.019040 -0.018739 0.845000
0.036424 -0.023831 0.853000
-0.003864 -0.023644 0.834000
0.021277 0.026311 0.851000
-0.017293 -0.008217 0.836000
0.026976 0.013047 0.854000
0.000256 -0.016131 0.836000
-0.032856 -0.003063 0.838000
-0.028395 0.026249 0.849000
-0.002148 -0.022957 0.834000
0.035722 -0.023831 0.853000
0.026718 -0.010187 0.857000
0.008060 0.021659 0.861000
-0.037385 0.001768 0.839000
0.025189 0.017245 0.853000
-0.014767 0.014369 0.849000
0.030316 -0.040616 0.859000
0.018209 -0.004884 0.855000
-0.019891 0.011505 0.844000
0.022678 0.022458 0.851000
0.034358 -0.021399 0.854000
0.046146 -0.001009 0.851000
0.015816 -0.022777 0.840000
0.010296 -0.018650 0.841000
0.031361 -0.026166 0.849000
-0.039112 0.020070 0.839000
0.014757 0.043929 7.559000
0.022491 -0.019411 0.844000
0.017628 0.003232 0.861000
-0.019358 -0.006496 0.836000
0.022261 0.001816 0.862000
0.021986 -0.038933 0.838000
0.037120 -0.009526 0.861000
-0.005357 0.048842 0.853000
0.015113 0.017720 0.859000
-0.009262 0.021911 0.857000
-0.019094 0.027139 0.855000
0.018869 0.023213 0.853000
-0.003952 0.047087 0.853000
-0.041924 0.016636 0.840000
-0.005761 0.024494 0.861000
0.032437 -0.000311 0.859000
-0.034147 0.035150 0.853000
-0.038604 -0.003081 0.843000
-0.011100 -0.003744 0.836000
-0.041082 0.011505 0.844000
-0.025865 0.003478 0.835000
0.020576 -0.013968 0.851000
-0.003182 -0.011987 0.835000
0.009102 0.024084 0.859000
0.003692 -0.022297 0.835000
0.021703 0.019726 0.854000
-0.031860 0.015581 0.839000
0.028183 -0.025088 0.848000
0.039233 -0.026640 0.853000
0.022864 0.011696 0.858000
0.039955 -0.015550 0.861000
-0.022643 0.019125 0.843000
0.002312 -0.028415 0.833000
-0.003975 0.017699 0.858000
0.011912 -0.032187 0.833000
0.035702 -0.012360 0.861000
-0.014300 0.041600 0.863000
-0.026711 0.014562 0.840000
-0.024666 0.017002 0.841000
0.023104 -0.030419 0.841000
-0.021255 0.012532 0.843000
-0.022322 0.019147 0.844000
-0.027860 0.033082 0.854000
-0.038000 -0.009001 0.845000
-0.010748 0.038048 0.863000
-0.007179 0.024849 0.861000
0.035638 0.009499 0.851000
0.019941 -0.029656 0.839000
0.018781 -0.015333 0.849000
0.024220 -0.009823 0.856000
0.017649 0.007138 0.862000
0.049999 -0.005912 0.851000
0.007863 -0.012750 0.840000
0.026975 -0.034308 0.843000
0.000264 0.025261 0.863000
-0.013526 0.028680 0.859000
0.028282 -0.017821 0.851000
0.011210 0.005339 0.858000
-0.043064 0.016330 0.842000
0.047436 0.001090 0.849000
0.000974 0.022065 0.863000
-0.020634 0.020585 0.846000
0.024228 -0.024622 0.844000
0.017440 -0.033982 0.835000
0.016211 0.005712 0.861000
-0.012169 0.039469 0.863000
0.019046 0.002523 0.861000
-0.004208 -0.018495 0.834000
-0.039551 0.001080 0.841000
0.031860 0.010223 0.853000
0.019411 -0.018065 0.846000
-0.027403 0.012833 0.840000
0.035889 -0.017947 0.857000
0.006273 0.027266 0.859000
-0.025834 -0.003048 0.834000
-0.032700 0.005190 0.834000
-0.019287 0.023077 0.848000
-0.026177 -0.003048 0.834000
0.030140 0.009532 0.854000
-0.006610 -0.017122 0.834000
0.015359 -0.041150 0.834000
-0.032320 -0.008622 0.842000
0.016712 -0.037329 0.833000
-0.016261 -0.004432 0.836000
0.012795 -0.009360 0.846000
-0.035786 -0.006196 0.842000
0.038006 -0.003132 0.857000
-0.012879 0.035562 0.863000
-0.021741 -0.004083 0.835000
-0.038674 0.007965 0.837000
-0.031627 0.019795 0.842000
-0.040435 0.027865 0.845000
0.001330 0.021710 0.863000
0.016079 0.024295 0.854000
-0.011971 0.013320 0.849000
0.004836 0.034177 0.855000
-0.028743 0.037157 0.980000
0.005741 -0.028072 0.833000
0.001288 -0.018539 0.836000
-0.033201 0.015217 0.838000
0.001326 0.029455 0.861000
-0.033706 -0.008969 0.842000
0.022785 -0.025257 0.842000
-0.010332 0.045950 0.858000
-0.006970 -0.009249 0.836000
0.039601 -0.010234 0.861000
0.014035 0.020524 0.858000
-0.028563 0.033434 0.854000
0.022065 -0.024534 0.841000
0.023796 -0.030765 0.841000
-0.004551 -0.020898 0.834000
-0.018068 0.005227 0.840000
-0.041478 0.027517 0.845000
0.015520 0.007138 0.862000
-0.006485 0.033786 0.863000
0.010198 0.018137 0.862000
0.030879 0.008488 0.855000
-0.000090 0.012330 0.853000
0.033655 -0.020344 0.854000
-0.012912 0.008012 0.842000
0.003409 0.004240 0.850000
-0.012894 0.037737 0.864000
0.009756 0.113945 2.711000
-0.004900 -0.023328 0.835000
0.023626 0.007476 0.860000
-0.033093 0.035852 0.853000
0.011926 -0.030852 0.834000
0.032720 -0.033115 0.848000
-0.036175 0.023982 0.843000
0.006956 0.030694 0.856000
0.010198 -0.030129 0.833000
-0.042622 -0.004839 0.847000
0.014389 0.020877 0.858000
-0.013718 0.013670 0.849000
0.027327 -0.014720 0.854000
-0.009968 0.021559 0.857000
-0.013385 0.014386 0.850000
0.035348 -0.007399 0.861000
-0.058723 0.035216 1.139000
0.011958 0.008547 0.861000
-0.010698 0.025498 0.859000
0.006281 0.011723 0.860000
-0.034318 -0.004453 0.840000
-0.002885 0.009127 0.849000
-0.024349 0.018409 0.842000
-0.031477 -0.004442 0.838000
0.021652 0.022835 0.852000
0.042140 -0.004181 0.855000
0.020189 -0.038106 0.835000
-0.033013 0.020835 0.842000
-0.033932 -0.002376 0.839000
-0.021819 0.004870 0.838000
0.018295 0.000042 0.859000
0.017996 -0.019087 0.845000
-0.015702 0.035166 0.862000
0.020770 0.012063 0.859000
0.021616 -0.034408 0.837000
0.010655 -0.016939 0.842000
0.023272 0.008538 0.860000
-0.004349 0.033392 0.862000
0.027998 0.013734 0.853000
-0.017010 0.002113 0.839000
-0.024804 -0.003391 0.834000
-0.018326 -0.005120 0.836000
-0.011718 0.022238 0.856000
0.009961 -0.014860 0.842000
0.005547 0.032807 0.856000
0.034317 -0.023129 0.853000
-0.020197 0.030377 0.857000
-0.006478 0.035166 0.862000
0.012885 0.030901 0.852000
0.021427 -0.005249 0.857000
-0.009712 -0.015424 0.835000
0.032759 -0.034202 0.849000
-0.038045 0.029639 0.846000
-0.015936 -0.011671 0.837000
0.005391 -0.030436 0.832000
-0.002548 0.046033 0.853000
0.026843 0.001106 0.861000
-0.022589 0.010426 0.841000
-0.012146 0.000730 0.837000
-0.040291 0.000735 0.842000
0.010186 -0.038312 0.832000
-0.028677 0.024096 0.847000
-0.026617 0.023426 0.848000
-0.005244 -0.024016 0.835000
-0.010320 0.022969 0.857000
-0.005959 -0.002376 0.839000
-0.001865 0.030199 0.862000
-0.042572 -0.004137 0.846000
0.018252 -0.002074 0.857000
0.029643 -0.041017 0.860000
-0.012836 -0.000303 0.837000
-0.014558 -0.002370 0.837000
0.021398 -0.022138 0.842000
-0.003239 0.011587 0.850000
-0.001121 -0.012002 0.836000
0.019572 -0.028241 0.838000
0.026944 0.015841 0.853000
-0.005413 0.025232 0.862000
0.013037 0.014943 0.862000
0.020086 0.000750 0.860000
0.034639 -0.006336 0.861000
0.021002 -0.024851 0.840000
0.032362 0.002511 0.857000
-0.033466 0.000729 0.836000
0.034639 -0.007399 0.861000
-0.032050 0.022621 0.844000
-0.036132 -0.004810 0.842000
-0.018589 0.023077 0.848000
0.022106 0.015192 0.856000
-0.012524 0.033431 0.863000
-0.033851 0.000730 0.837000
-0.005581 -0.021584 0.834000
0.007146 -0.022351 0.837000
-0.015573 -0.009249 0.836000
0.026457 -0.005267 0.860000
-0.008586 0.041456 0.860000
-0.022587 0.028161 0.854000
-0.017982 -0.005120 0.836000
-0.013525 -0.002026 0.837000
-0.010810 -0.020678 0.868000
0.000944 -0.011658 0.836000
0.032173 -0.022751 0.852000
-0.005587 -0.012331 0.835000
0.019595 -0.024821 0.839000
0.031450 -0.002438 0.861000
0.000600 -0.031614 0.836000
0.006761 -0.030436 0.832000
0.022305 -0.036819 0.837000
-0.008785 0.009084 0.845000
0.026531 0.018255 0.851000
0.012327 0.014234 0.862000
0.027165 -0.005975 0.860000
0.025396 0.006060 0.860000
0.045148 -0.002763 0.852000
-0.026864 -0.003391 0.834000
-0.016605 -0.005464 0.836000
-0.007179 0.025912 0.861000
0.042239 -0.007012 0.857000
0.040780 -0.024267 0.856000
0.014622 0.031915 0.851000
0.005899 0.031751 0.856000
-0.037305 -0.009001 0.845000
-0.022799 -0.005808 0.836000
-0.036132 0.023261 0.842000
-0.013385 0.014735 0.850000
-0.011512 0.006272 0.841000
0.023853 -0.024593 0.843000
0.002655 -0.027044 0.833000
-0.032315 0.032616 0.851000
-0.033083 0.004509 0.835000
0.032249 0.008126 0.854000
-0.018370 0.001766 0.838000
0.032173 -0.022401 0.852000
0.014036 -0.027863 0.837000
-0.015917 -0.004432 0.836000
-0.035608 0.028594 0.846000
0.022864 0.011343 0.858000
0.019572 -0.026171 0.838000
-0.009379 -0.004776 0.836000
0.033536 0.014753 0.851000
0.017076 -0.034971 0.834000
0.006120 -0.014445 0.838000
0.018537 -0.025482 0.838000
0.038045 0.010187 0.850000
0.042641 -0.009139 0.858000
0.007670 0.028260 0.857000
-0.000432 -0.013706 0.835000
0.020976 -0.010490 0.853000
0.006091 -0.026046 0.834000
0.002664 -0.018883 0.836000
-0.022270 0.010438 0.842000
0.039555 -0.016948 0.860000
0.035537 -0.017241 0.857000
0.018124 0.027712 0.851000
0.031340 0.003574 0.858000
-0.008261 0.031300 0.863000
0.004506 0.042822 0.859000
0.021642 -0.039968 0.838000
0.024688 0.006060 0.860000
0.010139 0.025791 0.857000
-0.006817 0.038270 0.860000
-0.002838 -0.012675 0.835000
0.025540 -0.014352 0.853000
-0.017583 0.023831 0.850000
0.036766 -0.009171 0.861000
-0.007297 -0.015405 0.834000
0.031158 0.010926 0.853000
-0.033083 0.008633 0.835000
-0.012974 0.010488 0.846000
-0.003288 0.027037 0.863000
-0.039065 0.013838 0.838000
0.019220 0.022862 0.853000
-0.016625 -0.002026 0.837000
-0.034195 0.000730 0.837000
0.039141 0.006347 0.851000
-0.022772 0.001760 0.835000
0.040569 -0.007382 0.859000
-0.035832 0.007258 0.835000
0.033225 0.010211 0.852000
0.000618 0.018115 0.861000
0.032121 -0.000311 0.860000
-0.036004 0.000387 0.839000
0.040075 -0.023210 0.856000
0.021452 0.013462 0.858000
-0.034604 0.028628 0.847000
0.027711 0.010599 0.855000
0.003417 0.008458 0.852000
0.010769 0.034017 0.851000
-0.003534 -0.007538 0.837000
0.026975 -0.033267 0.843000
0.021729 -0.008755 0.855000
0.011249 0.018470 0.861000
0.028748 -0.041255 0.865000
-0.034801 0.005196 0.835000
0.006769 -0.036986 0.833000
0.013236 -0.000309 0.852000
-0.016553 0.023859 0.851000
0.003341 -0.031158 0.833000
-0.003182 -0.014737 0.835000
0.007104 -0.035230 0.832000
-0.038905 0.025686 0.842000
-0.005237 -0.017122 0.834000
0.005231 0.017072 0.862000
0.041018 -0.015195 0.861000
0.016023 0.029814 0.851000
0.023739 -0.033800 0.839000
0.007163 -0.017570 0.839000
0.011469 0.035418 0.851000
0.014439 0.015989 0.861000
-0.035355 -0.002379 0.840000
0.026375 -0.025725 0.846000
-0.029548 0.031953 0.852000
-0.036175 0.024329 0.843000
0.038220 0.001220 0.950000
-0.032619 0.037872 0.859000
-0.007315 -0.006152 0.836000
0.043941 0.003886 0.849000
0.036381 -0.026258 0.852000
0.016230 0.008557 0.862000
-0.001463 -0.018173 0.835000
0.010895 0.010319 0.861000
0.020226 -0.013268 0.851000
0.029962 -0.039909 0.859000
0.033067 0.002511 0.857000
0.042644 0.001793 0.851000
-0.027617 0.006579 0.836000
0.008667 0.002494 0.851000
-0.016001 0.030801 0.859000
-0.005017 0.045438 0.855000
0.013220 0.032966 0.851000
0.017983 0.012091 0.861000
0.017194 0.018737 0.857000
-0.003281 0.033708 0.861000
0.025690 -0.008080 0.858000
-0.004676 0.042017 0.857000
-0.022643 0.018084 0.843000
-0.005581 -0.017465 0.834000
-0.032628 0.018041 0.841000
-0.006433 0.045138 0.856000
0.029402 -0.017512 0.853000
-0.041924 0.017328 0.840000
0.023739 -0.035181 0.839000
-0.003178 -0.020898 0.834000
-0.025644 0.010056 0.839000
-0.016804 0.012577 0.846000
-0.003288 0.028103 0.863000
-0.002215 0.033669 0.860000
0.021719 -0.028688 0.841000
-0.018326 -0.000647 0.836000
-0.033716 0.033667 0.851000
-0.039692 0.027137 0.844000
0.042591 -0.006307 0.857000
-0.001496 0.043276 0.854000
0.017073 0.029814 0.851000
0.026134 -0.002792 0.861000
0.032829 -0.002081 0.860000
0.039201 -0.016240 0.860000
-0.028580 0.004504 0.834000
0.026375 -0.025028 0.846000
-0.035531 0.013116 0.836000
0.017567 -0.000311 0.858000
0.032720 -0.028927 0.848000
0.010198 -0.030815 0.833000
-0.034619 0.037035 0.856000
0.033930 -0.007399 0.861000
0.007360 0.015298 0.862000
0.034872 -0.000664 0.858000
-0.018081 0.028966 0.857000
-0.033546 -0.001683 0.838000
-0.016261 -0.007873 0.836000
0.021074 -0.005601 0.857000
-0.005714 0.046439 0.854000
0.014811 0.008912 0.862000
0.049241 -0.002757 0.850000
0.012027 -0.021073 0.841000
-0.017785 -0.011408 0.843000
0.010320 -0.010020 0.843000
-0.038766 0.019725 0.839000
0.004157 0.027297 0.860000
-0.031822 0.014183 0.838000
-0.004676 0.017679 0.857000
-0.039457 0.015581 0.839000
0.006932 0.035150 0.853000
-0.034187 0.036246 0.854000
0.007616 0.038570 0.851000
0.025679 -0.022591 0.846000
0.032098 -0.025147 0.850000
-0.031411 0.036992 0.855000
0.009695 -0.002055 0.849000
0.021177 -0.017040 0.847000
-0.038030 0.005215 0.838000
-0.038375 0.014183 0.838000
-0.008261 0.033786 0.863000
0.008141 -0.038701 0.833000
-0.007146 0.044133 0.857000
0.008473 -0.033860 0.832000
-0.038329 0.013132 0.837000
-0.015393 0.009432 0.845000
0.010629 -0.021394 0.840000
-0.018392 0.002804 0.839000
0.045850 -0.003114 0.852000
0.004848 0.031788 0.857000
0.030387 -0.006336 0.861000
0.007455 -0.038358 0.833000
0.013391 0.009267 0.862000
0.010857 0.005693 0.858000
0.032990 0.005321 0.855000
-0.000433 -0.012002 0.836000
0.044200 -0.003824 0.854000
0.032475 -0.000665 0.860000
0.017096 -0.034326 0.835000
0.026488 0.001814 0.861000
-0.010723 0.029101 0.861000
-0.000431 -0.025672 0.833000
-0.025888 0.022701 0.847000
0.042042 -0.000309 0.853000
0.023824 -0.029069 0.842000
-0.005035 0.019818 0.858000
0.043701 -0.022912 0.858000
-0.024637 0.015945 0.840000
-0.008175 0.049251 0.854000
0.025779 -0.001729 0.861000
0.032098 -0.025497 0.850000
-0.039945 0.000735 0.842000
0.046957 -0.005224 0.853000
-0.014366 0.010488 0.846000
0.009202 -0.025077 0.836000
0.032009 0.004275 0.857000
0.005164 0.039971 0.851000
0.006127 -0.017224 0.839000
0.025679 -0.019806 0.846000
0.017565 -0.021765 0.841000
-0.001850 0.042270 0.855000
-0.003182 -0.012331 0.835000
0.028260 0.001460 0.861000
0.015394 -0.001717 0.855000
-0.025340 0.028446 0.852000
-0.021205 0.008349 0.841000
-0.040887 0.013525 0.840000
0.021951 0.024181 0.850000
0.022537 -0.003140 0.859000
-0.005420 0.030234 0.863000
-0.007542 0.036940 0.862000
0.003683 -0.028415 0.833000
-0.027157 0.032379 0.854000
0.002658 -0.023300 0.834000
-0.026807 0.019819 0.843000
-0.010735 0.040133 0.862000
-0.000088 -0.026358 0.833000
0.011805 -0.042639 0.850000
-0.039410 0.006939 0.838000
0.008911 -0.011727 0.841000
0.022616 0.004655 0.862000
0.015562 -0.017348 0.845000
-0.002150 -0.011300 0.835000
0.025012 0.007467 0.859000
0.049941 -0.001357 0.850000
0.004026 -0.031844 0.833000
0.025690 -0.007727 0.858000
0.000255 -0.027730 0.833000
0.023245 -0.003493 0.859000
0.020286 -0.027239 0.839000
0.028349 0.014436 0.853000
0.028881 -0.025786 0.848000
-0.017042 0.029706 0.858000
0.043752 -0.011271 0.859000
0.016117 0.021181 0.856000
0.016793 -0.027863 0.837000
-0.008447 0.010140 0.846000
0.048191 -0.001707 0.850000
0.034639 -0.005273 0.861000
-0.007993 -0.015080 0.835000
-0.024637 0.009376 0.840000
0.046847 -0.002410 0.851000
0.017899 0.018737 0.857000
0.018060 -0.014966 0.848000
0.004162 0.026266 0.861000
-0.003929 0.010163 0.848000
0.036996 0.009138 0.850000
0.008657 -0.000658 0.850000
0.005734 -0.029751 0.832000
-0.003980 0.037165 0.859000
0.036496 -0.036187 0.863000
0.032046 0.002161 0.858000
0.016546 0.002874 0.860000
0.023488 0.015526 0.855000
0.028050 -0.033306 0.844000
0.013006 0.018448 0.860000
-0.015917 -0.008217 0.836000
0.005741 -0.035958 0.833000
-0.002494 -0.015080 0.835000
-0.018240 0.016795 0.848000
-0.017562 0.021357 0.849000
0.031398 0.015435 0.850000
0.015025 0.026404 0.854000
0.022532 0.000130 2.639000
0.008484 -0.028758 0.833000
-0.007732 0.007684 0.844000
0.017784 -0.040168 0.835000
-0.013589 0.041245 0.863000
-0.010449 0.002113 0.839000
-0.021833 0.026693 0.852000
0.016104 -0.027863 0.837000
0.024834 -0.032496 0.841000
-0.038257 -0.005163 0.843000
0.048010 -0.006628 0.853000
0.042994 0.001093 0.851000
-0.018261 0.023104 0.849000
-0.027240 -0.003739 0.835000
0.018882 -0.024792 0.838000
0.001288 -0.018195 0.836000
-0.000791 0.011250 0.851000
0.022811 0.015192 0.856000
0.029119 -0.015090 0.855000
-0.039598 0.024647 0.842000
0.041132 -0.003833 0.856000
-0.014541 -0.009593 0.836000
0.002741 0.028713 0.860000
0.016431 -0.004176 0.854000
-0.035093 -0.006889 0.842000
-0.012461 -0.010956 0.835000
0.019158 -0.038794 0.835000
0.017482 -0.028207 0.837000
0.027906 0.000397 0.861000
-0.020958 0.020213 0.845000
-0.039504 0.002807 0.840000
0.030241 -0.033076 0.847000
-0.020174 0.029284 0.856000
-0.007498 0.020148 0.857000
0.002664 -0.014410 0.836000
-0.027283 0.023399 0.847000
0.013730 0.015989 0.861000
0.035371 -0.024182 0.853000
-0.030442 0.012458 0.838000
-0.017749 0.029706 0.858000
0.025366 -0.005614 0.859000
0.005521 0.038265 0.852000
0.041837 -0.004890 0.856000
0.003012 -0.018561 0.837000
-0.015852 0.022458 0.851000
0.027484 -0.018805 0.848000
-0.043217 -0.000306 0.845000
0.000942 -0.029479 0.834000
-0.023317 0.031010 0.855000
-0.008347 -0.010625 0.836000
0.016527 -0.021765 0.841000
-0.041628 0.023233 0.841000
-0.005601 -0.005126 0.837000
0.027199 0.019983 0.850000
-0.037172 0.023607 0.842000
-0.012461 -0.011644 0.835000
-0.034884 0.001075 0.837000
-0.001461 -0.021584 0.834000
-0.004556 -0.013018 0.835000
0.036991 -0.001723 0.858000
-0.011540 0.008369 0.843000
-0.007851 0.020500 0.857000
0.036296 -0.032843 0.850000
0.019941 -0.028275 0.839000
0.016161 -0.022085 0.840000
-0.017142 0.038759 0.863000
-0.010061 -0.021318 0.865000
-0.023126 0.023426 0.848000
-0.012321 0.013320 0.849000
0.017983 0.011382 0.861000
0.041727 -0.015550 0.861000
-0.036218 0.026442 0.844000
0.005049 -0.030436 0.832000
0.018882 -0.027206 0.838000
0.024362 -0.001729 0.861000
0.004735 -0.014772 0.837000
-0.020197 0.031082 0.857000
-0.013164 -0.005120 0.836000
0.020927 -0.034753 0.837000
0.003102 0.024523 0.862000
-0.028046 0.025551 0.849000
-0.017010 0.003149 0.839000
0.017321 -0.017716 0.846000
0.017482 -0.030963 0.837000
0.015095 0.019112 0.858000
0.001661 0.044174 0.851000
-0.000433 -0.011313 0.836000
-0.006080 0.016601 0.856000
0.014811 0.008203 0.862000
0.009695 -0.001356 0.849000
0.024192 -0.010867 0.855000
0.042944 -0.026412 0.857000
-0.023431 -0.003391 0.834000
0.013571 0.031215 0.851000
0.021327 0.020405 0.853000
0.039584 -0.029449 0.853000
-0.028786 0.014216 0.840000
0.031413 -0.001019 0.860000
0.007343 0.023758 0.860000
0.009444 0.025821 0.858000
0.021502 -0.001727 0.860000
0.007706 0.012800 0.861000
0.032022 -0.028927 0.848000
0.012343 -0.023095 0.839000
0.027965 0.015822 0.852000
0.033926 0.009510 0.852000
0.045466 -0.010905 0.858000
0.018540 -0.006988 0.854000
0.022184 0.010295 0.859000
-0.022616 0.014250 0.842000
0.030879 -0.037963 0.855000
0.033108 -0.034202 0.849000
0.048191 -0.002407 0.850000
-0.034538 0.036246 0.854000
-0.002902 0.043627 0.854000
0.018366 -0.017716 0.846000
-0.030787 -0.005822 0.838000
0.026427 -0.006321 0.859000
0.021025 -0.007348 0.855000
0.007163 -0.015498 0.839000
0.022210 0.009599 0.860000
0.005213 0.011710 0.859000
-0.035918 0.003142 0.837000
-0.039739 0.028560 0.845000
0.006266 0.009930 0.858000
0.024953 -0.025694 0.845000
-0.033399 0.021900 0.843000
-0.020958 0.020561 0.845000
0.037477 -0.025236 0.853000
-0.040148 0.016271 0.839000
-0.024059 0.020537 0.844000
-0.018326 -0.002711 0.836000
0.015077 0.020500 0.857000
0.013018 -0.024447 0.838000
0.005775 -0.017894 0.838000
-0.022745 -0.002018 0.834000
0.025679 -0.020850 0.846000
0.042944 -0.028176 0.857000
0.018847 0.025641 0.852000
0.028935 -0.007037 0.860000
-0.014197 -0.007529 0.836000
-0.016050 0.008022 0.843000
0.000946 -0.009616 0.838000
0.024200 -0.027715 0.843000
0.010794 0.031990 0.853000
-0.014197 -0.013034 0.836000
-0.033083 0.010008 0.835000
0.021616 -0.037164 0.837000
-0.025012 0.012849 0.841000
0.019572 -0.031000 0.838000
0.039982 -0.029835 0.854000
-0.005041 0.038226 0.859000
-0.023853 0.023803 0.849000
0.015488 -0.022111 0.841000
0.031450 -0.003501 0.861000
-0.019385 -0.011032 0.868000
-0.021845 0.005912 0.839000
-0.019844 0.031082 0.857000
-0.008204 0.020853 0.857000
0.006658 0.017802 0.863000
0.028515 0.005693 0.858000
0.006557 0.002841 0.850000
-0.003635 0.022722 0.861000
-0.018670 -0.007184 0.836000
0.018359 0.007493 0.862000
0.028949 -0.022348 0.850000
-0.011445 0.040133 0.862000
0.005073 -0.022324 0.836000
0.025181 -0.032149 0.841000
-0.008722 0.000387 0.839000
0.027391 0.010259 0.856000
0.006142 -0.009650 0.841000
0.027899 -0.017450 0.850000
0.015985 -0.012538 0.849000
0.006076 -0.031805 0.832000
-0.000445 0.030873 0.861000
0.014101 0.007848 0.862000
-0.035355 0.019748 0.840000
0.018252 -0.002427 0.857000
0.014954 -0.005206 0.850000
0.009741 0.033044 0.853000
-0.037730 0.002113 0.839000
0.013888 -0.005200 0.849000
0.003357 -0.017872 0.837000
-0.023199 0.005905 0.838000
0.008779 0.017782 0.862000
0.013143 -0.008663 0.846000
-0.032395 0.007602 0.835000
0.005878 0.036203 0.853000
0.005878 0.007415 0.853000
-0.001510 0.029844 0.862000
-0.033171 0.036992 0.855000
0.027008 0.012359 0.855000
-0.007306 -0.014393 0.835000
0.027355 -0.035391 0.844000
-0.033249 0.028662 0.848000
-0.001805 -0.020554 0.834000
-0.031552 0.015599 0.840000
-0.041410 0.004633 0.858000
-0.029197 0.032303 0.852000
0.005237 0.018513 0.863000
0.024429 -0.014669 0.851000
0.021049 0.016601 0.856000
-0.037084 0.000041 0.840000
-0.036566 0.026442 0.844000
-0.000432 -0.014049 0.835000
0.025750 0.005352 0.860000
0.032952 0.007775 0.854000
-0.015983 0.029353 0.858000
0.004842 0.032455 0.856000
-0.010424 -0.000303 0.837000
0.030975 -0.033464 0.848000
-0.006840 0.028813 0.863000
0.018758 -0.015664 0.848000
0.025130 -0.015019 0.851000
0.017134 -0.005582 0.854000
0.002668 -0.016839 0.837000
0.003012 -0.014427 0.837000
-0.010768 -0.002026 0.837000
-0.024983 0.010068 0.840000
-0.002916 0.016640 0.858000
0.032409 -0.034202 0.849000
0.031934 0.007432 0.855000
-0.022027 0.021630 0.846000
-0.027927 0.006227 0.835000
-0.002899 0.044980 0.853000
0.017178 -0.023095 0.839000
0.016369 -0.039043 0.833000
0.019829 -0.016032 0.849000
0.013555 -0.003107 0.850000
0.003409 0.006339 0.850000
-0.015170 0.021783 0.852000
-0.003593 0.013001 0.851000
0.028083 -0.029172 0.845000
-0.017624 0.025641 0.852000
0.006473 -0.018606 0.839000
-0.014283 0.033747 0.862000
-0.001493 0.047382 0.852000
0.031435 -0.022725 0.851000
0.029678 -0.002084 0.861000
-0.034347 -0.010199 0.858000
0.030741 -0.004919 0.861000
0.004311 -0.011589 0.975000
-0.026584 0.006235 0.836000
0.011388 -0.008305 0.845000
-0.005338 0.012986 0.850000
-0.034215 -0.010056 0.846000
0.022616 0.003236 0.862000
0.027455 0.006752 0.858000
0.010617 -0.022404 0.839000
-0.005394 0.021255 0.859000
-0.007677 -0.002028 0.838000
-0.007472 0.048196 0.854000
0.033537 -0.002435 0.860000
-0.012851 0.002456 0.838000
-0.008252 0.028070 0.862000
-0.033360 0.021181 0.842000
-0.006626 -0.023012 0.836000
0.009798 0.006046 0.858000
0.007189 -0.008969 0.842000
0.018882 -0.025482 0.838000
-0.001153 0.018802 0.860000
0.026164 0.001107 0.862000
-0.016533 0.021732 0.850000
0.028431 -0.030216 0.845000
0.020155 -0.016711 0.848000
0.009775 0.028227 0.856000
0.019899 0.023186 0.852000
-0.010091 0.000731 0.838000
-0.029097 0.012473 0.839000
-0.012640 0.011197 0.847000
-0.003521 -0.019181 0.834000
-0.005332 0.011923 0.849000
0.024716 -0.002792 0.861000
0.019163 0.036533 0.996000
0.046011 -0.006996 0.855000
0.024035 0.001462 0.862000
0.043297 -0.027118 0.857000
0.010908 0.012105 0.862000
0.007446 -0.031805 0.832000
0.007723 0.016737 0.863000
-0.000089 -0.008581 0.838000
-0.011690 0.019726 0.854000
0.015088 -0.024102 0.838000
-0.015294 0.029387 0.859000
-0.034093 0.022594 0.843000
-0.016514 0.016465 0.849000
-0.021104 -0.006849 0.837000
0.024688 0.007122 0.860000
0.030420 0.013718 0.852000
0.015721 -0.031920 0.835000
0.001634 -0.011327 0.837000
-0.037474 -0.001689 0.841000
-0.000091 0.025617 0.863000
0.029648 0.017884 0.850000
0.021074 -0.004896 0.857000
-0.022053 0.023050 0.847000
-0.024608 -0.006865 0.839000
0.019571 0.022862 0.853000
-0.030824 0.013509 0.839000
-0.002217 0.021659 0.861000
-0.033466 0.001418 0.836000
0.012870 -0.001359 0.851000
0.025130 0.020007 0.851000
0.012991 0.020902 0.859000
0.013610 -0.034887 0.832000
0.030698 -0.024097 0.850000
0.001310 0.007389 0.850000
0.026406 -0.024709 0.847000
-0.033201 -0.002028 0.838000
0.041373 -0.031497 0.861000
-0.007297 -0.017122 0.834000
-0.022965 0.030306 0.855000
-0.001502 0.014857 0.857000
0.033576 -0.006336 0.861000
0.021719 -0.023150 0.841000
0.028902 -0.008443 0.859000
-0.038166 0.023233 0.841000
0.021352 -0.009800 0.854000
-0.036126 -0.010803 0.850000
-0.035145 0.010008 0.835000
0.019227 -0.041692 0.838000
0.015130 0.016325 0.860000
-0.008722 -0.021368 0.839000
0.022705 0.020381 0.852000
-0.006038 0.013336 0.850000
-0.030528 0.029779 0.850000
-0.007668 -0.002715 0.837000
-0.031326 0.005533 0.834000
0.010541 -0.031844 0.833000
-0.006448 0.019818 0.858000
0.015077 0.000748 0.857000
-0.032051 0.001072 0.835000
0.024634 -0.019109 0.846000
-0.001512 0.024906 0.863000
-0.012169 0.033076 0.863000
0.046146 -0.001709 0.851000
-0.011113 0.000041 0.837000
0.003341 -0.030815 0.833000
0.010345 -0.006914 0.845000
0.018017 0.058528 1.379000
-0.009671 0.038004 0.862000
0.020721 -0.005249 0.857000
0.036991 -0.018321 0.858000
-0.014214 -0.002026 0.837000
0.043196 -0.005236 0.855000
0.012598 -0.033215 0.833000
-0.029478 0.029429 0.850000
-0.013219 0.042617 0.862000
0.016369 -0.036301 0.833000
0.006550 0.002139 0.849000
-0.000791 0.010550 0.851000
-0.009956 0.021181 0.856000
-0.028372 0.010044 0.838000
-0.002220 0.031618 0.862000
0.033576 -0.023803 0.852000
-0.033786 0.024358 0.844000
-0.031280 0.019448 0.842000
-0.001854 0.014857 0.857000
0.026874 -0.001022 0.862000
-0.018240 0.021681 0.848000
0.028847 -0.026104 0.847000
-0.023684 0.019472 0.843000
-0.013400 0.016154 0.851000
0.001330 0.024196 0.863000
-0.031746 -0.001335 0.836000
-0.004334 0.020548 0.859000
0.018127 -0.040512 0.835000
0.105024 0.013030 2.413000
0.033222 -0.005273 0.861000
0.004364 -0.028724 0.832000
-0.038030 0.016252 0.838000
0.030032 -0.006691 0.861000
-0.041527 -0.004485 0.846000
0.027809 0.006399 0.858000
-0.013066 0.016874 0.852000
-0.036607 0.013821 0.837000
-0.007171 0.023758 0.860000
0.026242 0.016543 0.853000
0.047841 -0.001357 0.850000
0.022132 0.014151 0.857000
-0.040387 -0.002390 0.844000
0.022678 0.022108 0.851000
0.041630 -0.008443 0.859000
-0.035875 0.005547 0.836000
-0.015917 -0.007529 0.836000
-0.005594 -0.008217 0.836000
-0.043013 0.017695 0.841000
-0.011690 0.018671 0.854000
-0.020262 0.018127 0.845000
0.006442 -0.024703 0.835000
0.026811 -0.005975 0.860000
0.012749 -0.019041 0.843000
0.020133 0.007138 0.862000
0.019876 0.025961 0.851000
-0.027476 0.031288 0.853000
0.017073 0.029113 0.851000
0.039325 -0.023535 0.855000
-0.030640 0.004847 0.834000
-0.012491 -0.001337 0.837000
0.024085 -0.035526 0.839000
-0.018670 -0.006152 0.836000
0.025770 -0.015683 0.849000
-0.009747 -0.019963 0.838000
-0.023774 -0.001675 0.834000
-0.036907 0.010364 0.836000
0.029540 -0.013009 0.857000
-0.005721 0.045790 0.855000
-0.031670 0.004504 0.834000
0.012689 -0.023440 0.839000
-0.005388 0.020171 0.858000
-0.016784 0.010128 0.845000
-0.009604 0.047605 0.856000
0.032159 -0.002792 0.861000
-0.005775 0.031300 0.863000
-0.005768 0.034457 0.862000
0.021002 -0.024505 0.840000
-0.002838 -0.012331 0.835000
0.029051 0.013734 0.853000
0.005424 -0.020284 0.837000
0.020262 -0.032035 0.838000
-0.031154 0.027266 0.848000
0.017826 -0.027518 0.837000
0.011080 -0.003797 0.848000
-0.006130 0.032365 0.863000
-0.034318 -0.004107 0.840000
-0.006267 -0.016779 0.834000
0.018882 -0.024447 0.838000
0.018648 -0.000311 0.859000
0.043297 -0.008070 0.857000
-0.035200 0.035150 0.853000
-0.039786 0.029290 0.846000
-0.024088 0.021604 0.845000
0.020625 0.022160 0.853000
0.019846 -0.037419 0.835000
0.005775 -0.018584 0.838000
0.007535 -0.008622 0.842000
-0.006832 0.027006 0.862000
-0.008185 0.016934 0.855000
0.041194 0.004590 0.850000
-0.012146 -0.016494 0.837000
0.010923 -0.027485 0.836000
-0.003182 -0.026078 0.835000
-0.008878 0.016914 0.854000
-0.041625 -0.006939 0.848000
-0.013767 -0.016439 0.852000
0.040569 -0.019756 0.859000
-0.037775 0.000387 0.840000
-0.004228 -0.005132 0.838000
-0.031708 0.009320 0.835000
-0.031514 0.015235 0.839000
-0.004671 0.015896 0.856000
-0.001461 -0.020898 0.834000
0.047785 -0.000308 0.849000
0.047363 -0.008042 0.854000
0.027549 -0.016751 0.850000
0.020631 -0.028275 0.839000
0.004133 0.035584 0.855000
-0.007649 -0.011987 0.835000
0.024953 -0.021869 0.845000
0.023218 -0.005608 0.858000
0.015691 0.028446 0.852000
0.008141 -0.029787 0.833000
-0.022084 -0.004426 0.835000
0.009843 0.014589 0.862000
-0.000802 0.027748 0.863000
0.048191 0.000742 0.850000
0.001322 0.014168 0.858000
-0.042313 0.012460 0.862000
0.002317 -0.021266 0.835000
-0.038348 -0.007610 0.845000
-0.004213 -0.014737 0.835000
-0.040686 -0.000305 0.843000
0.022676 -0.034104 0.838000
0.007446 -0.033518 0.832000
0.025300 -0.021521 0.845000
0.039201 -0.016948 0.860000
0.013762 -0.044002 0.863000
0.031450 -0.008108 0.861000
0.021049 -0.005947 0.856000
-0.015741 0.010475 0.845000
-0.031898 -0.007910 0.840000
0.032159 -0.007045 0.861000
-0.027894 0.001071 0.834000
0.002722 0.038355 0.854000
-0.004228 -0.004442 0.838000
-0.004308 -0.003473 0.854000
-0.041478 -0.003784 0.845000
-0.015028 0.039871 0.864000
-0.037985 0.013477 0.837000
-0.035397 0.021502 0.841000
0.033847 0.014036 0.850000
-0.022428 -0.004770 0.835000
-0.012912 0.007666 0.842000
-0.001805 -0.025703 0.834000
0.002035 0.016698 0.861000
0.006222 0.037564 0.852000
-0.021500 0.006257 0.839000
0.025181 -0.034572 0.841000
0.002381 0.033237 0.858000
0.032524 -0.023102 0.852000
0.012227 0.026435 0.855000
-0.006801 0.042419 0.858000
-0.009327 0.033431 0.863000
-0.037340 0.002801 0.838000
-0.023881 0.024531 0.850000
0.006434 -0.025703 0.834000
-0.011957 0.012258 0.848000
-0.001460 -0.022587 0.833000
0.016664 -0.014966 0.848000
-0.009637 0.024791 0.859000
0.029402 0.013032 0.853000
-0.005735 0.042369 0.857000
-0.013212 0.003149 0.839000
0.015095 0.018759 0.858000
0.038791 0.005996 0.851000
0.017567 -0.001017 0.858000
0.033222 -0.007399 0.861000
-0.039945 -0.000652 0.842000
-0.033466 0.002106 0.836000
0.002379 0.012035 0.857000
0.016389 -0.040463 0.834000
0.025648 -0.026390 0.845000
-0.018702 0.022888 2.633000
0.029643 -0.008807 0.860000
0.035205 -0.029660 0.849000
-0.024204 -0.006849 0.837000
-0.033426 0.008633 0.835000
-0.017811 0.034417 0.861000
0.044708 -0.008776 0.857000
-0.041233 0.018019 0.840000
0.002367 0.040065 0.853000
0.023506 -0.023899 0.843000
-0.033987 0.031491 0.849000
-0.014587 0.029033 0.859000
0.025300 -0.023608 0.845000
-0.024864 -0.005808 0.836000
0.025779 -0.003856 0.861000
0.015165 0.007493 0.862000
-0.014084 0.015085 0.850000
-0.017172 0.013638 0.847000
0.023881 -0.025664 0.844000
0.010080 0.002497 0.852000
0.037917 -0.023183 0.855000
-0.027468 0.018755 0.842000
-0.038421 0.018343 0.839000
0.012027 -0.020035 0.841000
-0.001148 0.014135 0.856000
0.028116 -0.027814 0.846000
-0.009712 -0.014737 0.835000
0.000262 0.013799 0.857000
-0.042074 0.001429 0.843000
-0.017416 0.031508 0.859000
-0.026896 0.004853 0.835000
0.013839 -0.015279 0.846000
0.004819 0.007757 0.852000
0.024113 -0.037297 0.840000
-0.010152 0.008022 0.843000
0.025425 0.004649 0.861000
-0.017132 0.011519 0.845000
-0.012393 0.019374 0.854000
0.019378 0.011723 0.860000
-0.003258 0.042622 0.855000
0.037740 -0.029029 0.851000
0.012682 0.013879 0.862000
0.028848 0.001636 3.550000
0.018431 -0.013935 0.849000
0.040844 0.007039 0.850000
0.018471 -0.040512 0.835000
-0.015330 0.032645 0.861000
0.005940 0.022039 0.862000
-0.001156 0.020975 0.862000
0.017920 -0.000311 0.858000
-0.002223 0.025261 0.863000
-0.004344 0.034417 0.861000
0.024953 -0.020478 0.845000
-0.020070 -0.007193 0.837000
-0.038787 0.029674 0.847000
-0.035218 0.026126 0.845000
0.014501 -0.018022 0.844000
-0.004894 -0.021241 0.834000
-0.026051 0.017695 0.841000
0.031398 -0.035292 0.850000
0.016046 -0.040807 0.834000
0.027776 0.007802 0.857000
0.037170 -0.023859 0.854000
-0.025660 0.026661 0.851000
0.018231 0.019067 0.856000
0.027008 -0.014034 0.855000
0.041935 -0.021852 0.858000
0.003167 -0.010460 0.880000
-0.036651 0.001766 0.838000
-0.034114 0.005540 0.835000
0.013003 -0.027863 0.837000
0.022676 -0.034794 0.838000
-0.030878 0.030478 0.850000
-0.026839 0.020537 0.844000
0.013174 -0.005542 0.848000
-0.035654 -0.010981 0.864000
0.026597 -0.033920 0.842000
-0.018545 0.013622 0.846000
0.007788 -0.035572 0.832000
0.017890 -0.022085 0.840000
-0.019679 -0.002364 0.835000
0.030420 -0.020998 0.852000
0.005231 0.022039 0.862000
-0.003643 0.029879 0.863000
0.006635 0.025528 0.860000
-0.006066 0.047845 0.854000
-0.007860 0.043125 0.858000
0.014725 -0.025796 0.837000
0.018359 0.005010 0.862000
-0.016358 0.005580 0.841000
-0.028615 -0.003739 0.835000
-0.009851 0.011895 0.847000
0.025366 0.006760 0.859000
-0.005581 -0.018838 0.834000
0.023881 -0.026011 0.844000
0.019869 -0.039872 0.836000
0.016369 -0.035958 0.833000
0.001971 -0.021584 0.834000
0.013298 0.025057 0.856000
0.012579 0.001802 0.855000
-0.017293 -0.007184 0.836000
0.017847 -0.024102 0.838000
-0.008457 0.011895 0.847000
0.032715 -0.015478 0.857000
-0.042174 -0.001697 0.845000
0.024601 -0.008423 0.857000
0.034156 -0.027913 0.849000
0.035946 0.011587 0.850000
0.024334 0.007476 0.860000
-0.013525 -0.003404 0.837000
-0.020933 0.014284 0.844000
-0.012190 0.005573 0.840000
-0.028786 0.013871 0.840000
-0.000777 -0.015786 0.836000
-0.039065 0.013493 0.838000
0.007189 -0.008276 0.842000
0.011093 -0.002055 0.849000
0.013937 0.029849 0.852000
0.236132 0.019271 5.134000
-0.005407 0.024494 0.861000
0.003555 0.050678 1.281000
-0.007315 -0.006840 0.836000
-0.031318 0.020166 0.843000
0.039371 -0.022506 0.856000
-0.031777 0.024764 0.846000
-0.026271 0.006587 0.837000
-0.035573 0.015199 0.837000
-0.012506 0.002456 0.838000
0.008141 -0.028415 0.833000
-0.042274 -0.005536 0.847000
0.003706 -0.012375 0.838000
-0.008972 0.030589 0.863000
-0.004709 0.032365 0.863000
-0.011745 0.025468 0.858000
0.031619 -0.015460 0.856000
-0.013968 0.008369 0.843000
0.045713 -0.009118 0.856000
0.009017 0.002144 0.851000
-0.004633 0.011224 0.849000
0.007714 0.019556 0.862000
-0.008909 0.021206 0.857000
-0.011352 0.020804 0.855000
0.017419 -0.038404 0.834000
0.034165 0.000396 0.858000
-0.041974 0.021848 0.841000
-0.030420 0.024793 0.847000
0.007146 -0.021662 0.837000
0.025480 0.020357 0.851000
0.036723 -0.006329 0.860000
-0.010961 0.016173 0.852000
0.017294 0.006783 0.862000
-0.017562 0.017514 0.849000
0.046847 -0.002060 0.851000
0.032486 -0.036034 0.851000
0.013112 -0.016980 0.844000
0.019355 0.013831 0.859000
-0.014485 0.021107 0.853000
-0.005053 0.035125 0.861000
0.011639 -0.024102 0.838000
0.024192 -0.010515 0.855000
-0.021871 0.007648 0.840000
0.011555 -0.034545 0.832000
0.013283 0.026787 0.855000
0.023028 0.024560 0.851000
0.011833 0.031953 0.852000
-0.040196 0.021131 0.840000
-0.036306 0.015562 0.838000
0.013391 0.011396 0.862000
0.022433 0.016934 0.855000
0.003433 0.033864 0.856000
-0.034801 0.009664 0.835000
0.001027 0.042368 0.910000
-0.016806 0.039159 0.864000
-0.012495 0.042922 0.861000
0.004526 0.020289 0.863000
-0.026680 0.026630 0.850000
0.001976 -0.014410 0.836000
-0.009327 0.034497 0.863000
-0.042766 0.013556 0.864000
-0.000089 -0.031037 0.839000
-0.040541 0.021131 0.840000
-0.035051 0.020118 0.841000
0.020558 -0.035399 0.836000
-0.002545 0.047382 0.852000
0.030770 -0.021349 0.852000
0.020976 -0.011192 0.853000
-0.013541 0.002801 0.838000
0.027549 0.018584 0.850000
0.033415 -0.039521 0.866000
-0.002838 -0.015768 0.835000
-0.035313 -0.001340 0.839000
0.031822 -0.022050 0.852000
0.003794 0.031118 0.858000
-0.044104 0.019448 0.842000
0.034277 0.009159 0.852000
0.014655 -0.035615 0.833000
-0.041380 0.000042 0.843000
0.016743 -0.008374 0.852000
-0.031364 0.008977 0.835000
-0.013212 0.003495 0.839000
-0.011392 0.046303 0.858000
0.018004 0.009267 0.862000
0.006208 0.003890 0.850000
0.013081 -0.020058 0.842000
0.048135 -0.000308 0.849000
-0.008616 0.033431 0.863000
0.029126 -0.031955 0.845000
0.004706 -0.030436 0.832000
0.001328 0.028070 0.862000
0.000263 0.031191 0.860000
-0.016605 -0.008905 0.836000
0.042944 -0.007718 0.857000
-0.029270 0.020884 0.844000
-0.000091 0.026682 0.863000
0.015985 -0.012887 0.849000
-0.034911 0.027898 0.846000
-0.012422 0.022590 0.856000
0.017608 0.001812 0.860000
-0.029717 -0.005815 0.837000
0.033497 0.014386 0.850000
0.029368 0.014419 0.852000
0.008816 -0.034887 0.832000
-0.024666 0.013887 0.841000
0.010832 0.027170 0.856000
0.047419 -0.008403 0.855000
0.022703 -0.033800 0.839000
-0.039112 0.016962 0.839000
-0.040887 0.021822 0.840000
-0.036912 -0.010829 0.852000
-0.014184 0.024704 0.856000
0.023840 0.014470 0.855000
0.010655 -0.017979 0.842000
-0.039158 0.003153 0.840000
-0.038439 0.030371 0.847000
0.044407 -0.011258 0.858000
0.013627 -0.039386 0.833000
0.015415 -0.027863 0.837000
-0.027749 0.013525 0.840000
0.041727 -0.014487 0.861000
0.006557 0.001791 0.850000
-0.001802 -0.023958 0.833000
0.029402 0.012681 0.853000
0.009615 -0.011741 0.842000
0.039677 -0.024591 0.855000
-0.015223 0.024675 0.855000
0.009466 0.009953 0.860000
-0.020358 -0.009043 0.849000
0.040475 -0.022532 0.857000
-0.038813 0.001770 0.840000
-0.037340 0.017632 0.838000
0.019502 -0.014302 0.850000
0.009501 -0.032148 0.832000
-0.031280 0.018755 0.842000
0.035225 -0.016202 0.858000
0.007985 0.005659 0.853000
-0.021104 -0.007193 0.837000
-0.004556 -0.014393 0.835000
-0.040638 0.025686 0.842000
0.000261 -0.032219 0.852000
-0.036436 -0.003420 0.841000
0.010642 -0.019688 0.841000
0.016661 -0.044511 0.866000
0.010210 -0.040807 0.834000
0.015672 -0.005912 0.851000
0.017547 0.018737 0.857000
0.022678 0.022809 0.851000
0.026755 -0.023315 0.847000
-0.014655 0.041600 0.863000
0.018316 0.001812 0.860000
-0.004213 -0.016455 0.835000
-0.020933 0.012200 0.844000
-0.022616 0.011478 0.842000
0.012327 0.011750 0.862000
0.037039 -0.028329 0.851000
-0.043617 -0.001351 0.846000
0.018431 -0.014634 0.849000
0.035246 -0.033893 0.850000
-0.027894 -0.001332 0.834000
0.039769 -0.021474 0.857000
-0.009251 0.048309 0.856000
0.016507 -0.022085 0.840000
-0.035426 0.032927 0.850000
-0.027207 0.003131 0.834000
-0.038030 0.004870 0.838000
-0.001463 -0.014049 0.835000
0.049357 -0.006270 0.852000
-0.015573 -0.004088 0.836000
-0.021156 0.026724 0.853000
-0.012805 -0.009582 0.835000
-0.001807 -0.028827 0.835000
0.028227 -0.007037 0.860000
0.016813 -0.024447 0.838000
0.044045 0.000743 0.851000
0.007697 0.011369 0.860000
0.008131 -0.030436 0.832000
-0.017891 0.016097 0.848000
-0.032705 0.021900 0.843000
-0.034093 0.023288 0.843000
0.021502 -0.001019 0.860000
0.004369 -0.031844 0.833000
0.004113 0.042073 0.851000
0.028548 -0.008796 0.859000
0.043095 -0.012346 0.860000
-0.032050 0.022968 0.844000
-0.009581 0.017617 0.854000
-0.034457 0.005540 0.835000
-0.026423 0.030586 0.853000
0.012549 0.029884 0.853000
0.010871 -0.038654 0.832000
-0.030097 0.012113 0.838000
-0.037940 0.010364 0.836000
0.003012 -0.012360 0.837000
-0.037430 0.000387 0.840000
0.034547 0.012986 0.850000
-0.019358 -0.000303 0.836000
0.002379 0.012388 0.857000
0.022328 0.024910 0.851000
0.014638 -0.037284 0.832000
0.020286 -0.030346 0.839000
0.017033 -0.013586 0.849000
-0.018670 -0.001679 0.836000
0.028599 -0.018850 0.850000
0.035764 -0.035458 0.854000
0.029126 -0.032302 0.845000
-0.005924 -0.019525 0.834000
0.021525 -0.016691 0.847000
0.012313 0.008193 0.861000
-0.041233 0.021822 0.840000
0.014439 0.015635 0.861000
0.010743 -0.001705 0.849000
-0.012491 -0.016494 0.837000
-0.039018 0.009343 0.837000
-0.015265 0.001421 0.838000
-0.004218 -0.009937 0.836000
0.045713 -0.008766 0.856000
0.006135 -0.010330 0.840000
-0.032353 0.034758 0.852000
