-0.012567 -0.032392 0.866000
0.017567 -0.028209 0.858000
0.007419 0.019714 0.869000
0.011145 -0.028395 0.853000
-0.021306 0.012214 0.845000
-0.026330 0.038525 0.850000
0.011236 -0.013054 0.860000
0.022642 0.017802 0.863000
0.006980 -0.000311 0.859000
-0.006109 0.021988 0.860000
-0.017436 0.045349 0.860000
-0.027444 0.040369 0.852000
-0.029270 0.017758 0.844000
0.022494 -0.009278 0.871000
-0.021653 0.012562 0.845000
-0.000785 -0.034737 0.845000
-0.008909 0.030377 0.857000
0.027873 0.012785 0.860000
-0.004970 -0.016691 0.847000
-0.027533 0.020884 0.844000
0.021881 -0.038938 0.861000
-0.010524 -0.016304 0.845000
-0.021057 0.025201 0.849000
0.026967 0.003247 0.865000
0.012313 0.048237 0.861000
0.019626 0.002194 0.871000
-0.016456 0.002479 0.846000
0.019709 0.035397 0.859000
0.027355 -0.037026 0.866000
-0.017870 0.008408 0.847000
-0.012715 0.014069 0.852000
-0.014134 0.028480 0.853000
-0.029270 0.018105 0.844000
0.013485 0.027909 0.868000
0.003767 -0.016089 0.852000
0.029562 -0.012461 0.868000
0.030919 -0.008868 0.866000
0.007688 -0.003493 0.859000
0.002719 -0.019969 0.853000
0.030848 -0.004936 0.864000
-0.002950 0.038983 0.868000
0.009466 -0.002435 0.860000
-0.004273 -0.017040 0.847000
0.005285 0.037326 0.871000
0.023218 0.030059 0.858000
-0.020659 0.017124 0.847000
-0.009671 0.038004 0.862000
-0.007112 0.012681 0.853000
0.021148 -0.043495 0.860000
-0.003223 -0.025725 0.846000
0.007759 0.011462 0.867000
-0.015393 -0.010044 0.845000
0.006346 0.042247 0.869000
0.022135 -0.004617 0.871000
0.024975 -0.005686 0.870000
0.029432 0.053206 1.467000
-0.018720 0.034488 0.854000
0.002738 0.009942 0.859000
0.012652 -0.021549 0.860000
-0.027881 0.010463 0.844000
0.041325 -0.020487 0.860000
0.022800 -0.018198 0.869000
-0.005641 -0.030838 0.843000
0.009946 0.028364 0.871000
-0.019050 0.031990 0.853000
-0.030384 0.026505 0.846000
-0.012393 0.021835 0.854000
-0.024465 0.022675 0.846000
0.006557 -0.038791 0.850000
0.010516 -0.007736 0.859000
0.029609 0.011710 0.859000
-0.010858 -0.022538 0.844000
0.024745 0.014943 0.862000
0.032026 -0.013160 0.867000
0.041679 -0.019425 0.860000
0.003048 -0.040048 0.847000
0.026457 0.016679 0.860000
0.030670 0.008528 0.859000
0.010479 -0.024267 0.856000
-0.027411 0.039971 0.851000
0.006550 -0.039095 0.849000
0.021577 0.020289 0.863000
0.029988 -0.022874 0.870000
0.018778 0.023184 0.865000
-0.009851 0.002482 0.847000
0.013407 0.040180 0.863000
-0.023420 0.018496 0.846000
0.007070 0.022244 0.870000
0.004921 0.027973 0.870000
-0.005006 0.009170 0.853000
0.029885 -0.009949 0.867000
0.028556 -0.022516 0.870000
0.026611 0.003959 0.865000
0.023708 -0.043291 0.863000
-0.019264 -0.004490 0.847000
-0.005053 0.022368 0.861000
-0.024638 0.040018 0.852000
0.022826 -0.001031 0.870000
0.024063 -0.038318 0.863000
-0.016317 0.035668 0.857000
-0.002875 -0.028510 0.846000
0.041582 -0.015849 0.858000
0.002033 0.013493 0.860000
-0.018611 -0.011140 0.849000
0.019355 -0.043091 0.859000
-0.011759 0.033983 0.859000
0.023078 -0.045224 0.866000
0.006237 -0.011557 0.854000
-0.019310 0.023454 0.849000
0.018444 0.021072 0.866000
-0.004959 -0.024651 0.845000
0.016206 -0.048852 0.880000
0.013531 0.013666 0.871000
-0.002875 -0.029207 0.846000
0.029596 -0.015337 0.869000
-0.008457 0.000739 0.847000
0.021452 0.035003 0.858000
-0.035200 0.004957 0.853000
0.024802 0.011778 0.864000
0.022998 -0.035122 0.863000
0.000624 0.036209 0.870000
0.018757 -0.021649 0.864000
0.009187 0.042507 0.867000
-0.025796 0.006642 0.844000
-0.017500 -0.011101 0.846000
0.011210 -0.022558 0.858000
-0.001161 0.029270 0.866000
0.013021 -0.019802 0.861000
-0.015759 -0.002396 0.846000
-0.032277 0.029429 0.850000
-0.029060 0.034246 0.848000
0.015682 0.009005 0.871000
0.018129 -0.009603 0.868000
0.011496 -0.032257 0.853000
0.015484 0.042872 0.860000
0.009378 -0.036778 0.852000
0.034961 -0.029286 0.869000
0.003798 0.007467 0.859000
0.021477 0.032569 0.859000
0.013516 0.023676 0.870000
-0.031965 0.036819 0.851000
0.022416 -0.020321 0.868000
-0.002235 0.038626 0.868000
0.010293 0.031554 0.870000
-0.033016 0.032266 0.851000
0.005290 0.069010 1.319000
0.017214 0.044185 0.858000
-0.002530 -0.026452 0.847000
0.020794 -0.040663 0.860000
0.020794 -0.042787 0.860000
0.026811 0.015263 0.860000
-0.012595 -0.021148 0.844000
0.026049 -0.017861 0.870000
0.015430 -0.025354 0.857000
0.039862 -0.014100 0.859000
0.016738 0.016156 0.870000
-0.002578 0.024196 0.863000
-0.002947 0.037511 0.867000
0.016508 -0.030681 0.858000
0.039463 -0.010905 0.858000
-0.011312 -0.034674 0.852000
-0.014118 0.022485 0.852000
-0.011325 0.025671 0.853000
0.018692 -0.030788 0.861000
0.019068 -0.026921 0.862000
-0.026175 0.022996 0.845000
-0.004258 -0.041991 0.844000
-0.017152 -0.001003 0.846000
-0.002930 0.022394 0.862000
0.021552 -0.035791 0.862000
-0.008836 0.009488 0.850000
0.020319 -0.006402 0.870000
0.012083 0.024750 0.870000
-0.002238 0.040101 0.869000
-0.005313 -0.009360 0.846000
0.012564 -0.029483 0.854000
0.010663 0.016892 0.871000
-0.035551 0.007766 0.853000
0.023569 -0.007844 0.871000
-0.009469 -0.026706 0.844000
0.023736 0.013556 0.864000
-0.022481 0.000042 0.850000
0.036057 -0.009526 0.861000
0.016841 -0.028176 0.857000
-0.016107 0.003524 0.846000
0.013890 0.011873 0.871000
0.027102 0.021584 0.858000
0.010984 0.035411 0.868000
0.003052 -0.028927 0.848000
-0.021432 0.027330 0.850000
-0.020150 0.040159 0.855000
-0.010176 -0.010044 0.845000
-0.021684 0.045703 0.860000
0.012682 0.045455 0.862000
-0.016611 0.029919 0.854000
-0.018240 0.015399 0.848000
0.008840 0.040412 0.868000
0.006244 -0.020016 0.855000
-0.034457 0.006003 0.852000
0.004797 -0.031719 0.848000
-0.001826 -0.036085 0.844000
-0.014906 0.032493 0.857000
0.025003 -0.010712 0.871000
-0.003957 0.010938 0.854000
0.011184 -0.043645 0.856000
0.032121 0.002520 0.860000
-0.005082 0.038181 0.866000
-0.007054 -0.042787 0.846000
-0.032861 0.020610 0.847000
-0.015741 -0.003436 0.845000
0.013986 -0.039723 0.855000
-0.008417 -0.028409 0.843000
0.017214 -0.037390 0.858000
0.005878 -0.045247 0.853000
0.000262 0.010977 0.857000
-0.037614 0.017575 0.852000
0.034205 0.000750 0.859000
0.010882 -0.016240 0.860000
-0.016670 0.037784 0.857000
-0.031852 0.027964 0.848000
0.027323 0.000755 0.865000
0.016362 0.018284 0.869000
-0.016863 0.012622 0.849000
0.011671 0.037468 0.866000
0.020987 -0.015676 0.868000
-0.005995 -0.029138 0.844000
0.014845 -0.014182 0.864000
0.020364 0.038572 0.975000
-0.008165 0.013383 0.853000
0.015324 0.014741 0.871000
0.010528 -0.005267 0.860000
-0.019264 0.012243 0.847000
-0.014854 -0.023859 0.854000
0.004210 0.036250 0.871000
0.011944 -0.019779 0.860000
0.019709 0.037519 0.859000
-0.028991 0.008399 0.846000
-0.011915 -0.011783 0.845000
-0.001874 0.031765 0.866000
0.019847 0.021048 0.865000
-0.004660 0.011641 0.854000
0.019961 0.007204 0.870000
0.030705 0.007122 0.860000
-0.014451 0.026661 0.851000
0.000621 0.023924 0.866000
-0.022053 0.000739 0.847000
-0.010188 -0.001003 0.846000
0.020156 -0.030504 0.863000
0.019223 -0.009972 0.869000
0.030955 -0.012090 0.867000
0.023900 -0.013564 0.870000
0.006719 0.035533 0.871000
0.029272 -0.016070 0.870000
-0.012804 0.032178 0.858000
0.005495 -0.032068 0.848000
0.028165 -0.043592 0.869000
-0.005661 -0.013538 0.846000
0.020866 -0.032280 0.863000
-0.019264 -0.006930 0.847000
0.020654 0.008269 0.869000
0.015430 -0.026059 0.857000
0.030991 -0.037469 0.868000
-0.027533 0.013242 0.844000
0.039647 -0.020180 0.862000
0.008365 -0.011584 0.856000
0.018087 -0.015284 0.866000
-0.002205 0.011669 0.856000
0.038272 -0.018783 0.863000
0.036284 -0.000664 0.858000
0.013173 0.015816 0.871000
-0.015741 -0.006218 0.845000
0.022826 -0.012848 0.870000
-0.010284 0.026404 0.854000
-0.022375 0.017452 0.846000
0.008375 -0.019005 0.857000
0.017057 -0.005673 0.868000
0.026049 -0.017145 0.870000
-0.010284 0.026052 0.854000
0.033106 0.005693 0.858000
0.020319 0.003266 0.870000
0.018046 -0.022361 0.864000
-0.012974 -0.028162 0.846000
-0.028295 0.006658 0.846000
-0.009240 0.015174 0.855000
0.007598 -0.031756 0.849000
-0.027218 0.006997 0.845000
-0.013526 0.035397 0.859000
0.002384 0.011710 0.859000
0.025720 0.020902 0.859000
-0.011246 0.006665 0.847000
-0.007096 0.010550 0.851000
0.065472 -0.025386 8.965000
0.003397 -0.040397 0.847000
0.001661 -0.022024 0.851000
-0.030384 0.012925 0.846000
-0.013670 -0.002396 0.846000
0.010882 -0.005621 0.860000
0.025158 -0.036229 0.864000
-0.012958 -0.007262 0.845000
0.013810 -0.048075 0.866000
0.018171 -0.001747 0.870000
-0.030456 0.006673 0.848000
0.026967 -0.040543 0.865000
0.086222 -0.029255 1.981000
-0.040209 0.015878 0.855000
0.013037 -0.015923 0.862000
0.030311 -0.017125 0.869000
0.029357 0.003945 0.862000
0.001334 0.024280 0.866000
0.015764 -0.027791 0.856000
0.032753 0.007458 0.858000
0.040923 -0.015867 0.859000
0.030281 0.012755 0.858000
-0.018896 0.046874 0.862000
-0.014941 0.038933 0.859000
0.012427 -0.048242 0.869000
-0.001837 -0.019876 0.849000
0.011631 0.045152 0.863000
0.018465 0.018955 0.867000
0.014948 0.019379 0.870000
-0.005041 0.018073 0.859000
0.027323 -0.038763 0.865000
-0.022322 0.012200 0.844000
0.030991 -0.039612 0.868000
0.022365 -0.025264 0.866000
0.006665 0.010355 0.864000
-0.014697 -0.018391 0.845000
0.000957 -0.030672 0.848000
0.002404 0.020716 0.866000
-0.003643 0.027748 0.863000
0.012652 -0.019779 0.860000
-0.004268 -0.015279 0.846000
-0.024059 0.011852 0.844000
0.020133 -0.032597 0.862000
-0.001484 -0.045626 0.847000
0.016286 -0.015266 0.865000
0.005920 0.003931 0.859000
-0.019590 0.001435 0.846000
0.003750 -0.029625 0.848000
0.006237 -0.023859 0.854000
0.021036 0.002550 0.870000
-0.003567 -0.027781 0.845000
0.026704 -0.004959 0.868000
0.032753 0.008518 0.858000
-0.016039 0.046111 0.861000
-0.034027 0.012986 0.850000
0.022084 -0.016410 0.869000
-0.009991 0.032215 0.859000
0.009091 -0.017614 0.858000
0.011223 -0.009503 0.859000
0.006899 -0.033853 0.849000
0.015610 0.025735 0.867000
0.014556 0.000400 0.868000
-0.008427 -0.037127 0.844000
-0.020878 0.043025 0.856000
0.018757 -0.023427 0.864000
-0.017891 0.012258 0.848000
-0.015045 -0.012479 0.845000
0.032063 -0.018534 0.868000
-0.019310 0.018212 0.849000
-0.001165 0.037598 0.869000
0.024258 -0.018577 0.870000
0.014199 0.025408 0.868000
0.005527 -0.013650 0.853000
0.007411 0.043985 0.868000
0.013283 -0.039019 0.855000
-0.033817 0.038842 0.881000
-0.015429 0.007014 0.847000
-0.024202 0.030093 0.849000
-0.030348 0.018474 0.845000
-0.011567 -0.027781 0.845000
0.175017 -0.051499 4.488000
0.024091 -0.033740 0.864000
-0.016436 -0.007957 0.845000
0.010245 0.041389 0.866000
-0.021156 0.036554 0.853000
0.028556 -0.021442 0.870000
-0.013416 0.014419 0.852000
-0.006721 0.000042 0.848000
-0.024930 0.034677 0.850000
-0.016631 0.031362 0.855000
-0.008427 -0.036780 0.844000
0.008125 0.015405 0.868000
0.025333 -0.021084 0.870000
0.016861 -0.025030 0.858000
0.005618 0.018242 0.867000
0.004568 0.030873 0.871000
-0.042086 0.015835 0.872000
-0.012379 0.026022 0.853000
0.010882 -0.004913 0.860000
0.016585 -0.046434 0.862000
0.020464 0.028038 0.861000
0.024475 0.007519 0.865000
-0.001876 0.033229 0.867000
-0.022349 0.013953 0.845000
0.037336 -0.024907 0.866000
-0.010176 -0.016652 0.845000
0.012456 0.012590 0.871000
0.023380 -0.034807 0.864000
-0.004959 -0.025347 0.845000
0.020701 0.001118 0.871000
0.036284 -0.000311 0.858000
0.027971 0.006791 0.863000
-0.024031 0.009063 0.843000
-0.006455 0.019488 0.859000
-0.006448 0.028293 0.858000
0.015430 -0.037699 0.857000
0.027871 -0.019315 0.871000
0.018735 -0.024111 0.863000
-0.002584 0.030660 0.865000
-0.009262 0.023322 0.857000
0.012755 0.001470 0.867000
-0.003563 -0.043033 0.844000
0.025839 0.011764 0.863000
-0.030001 0.018127 0.845000
0.022998 -0.035832 0.863000
-0.007560 0.037026 0.864000
-0.010897 0.004225 0.847000
0.018401 -0.021649 0.864000
-0.009491 -0.002396 0.846000
-0.009979 0.031472 0.858000
0.021418 -0.002825 0.871000
-0.008447 -0.002396 0.846000
-0.033753 0.029763 0.870000
0.011496 -0.029097 0.853000
0.019778 -0.045724 0.862000
-0.019613 -0.002398 0.847000
0.015288 0.021145 0.869000
0.035307 -0.004559 0.860000
-0.003227 -0.023315 0.847000
0.021320 -0.018870 0.867000
0.030634 0.012402 0.858000
-0.012028 0.015490 0.853000
0.021932 0.019578 0.863000
0.019024 0.035792 0.860000
-0.004660 0.012344 0.854000
-0.013306 -0.007262 0.845000
0.002351 -0.038305 0.847000
-0.003999 0.028458 0.863000
0.027455 0.019465 0.858000
0.020866 0.022775 0.863000
-0.001870 0.023868 0.864000
-0.036956 0.010575 0.853000
-0.000089 -0.042388 0.845000
0.019090 0.027393 0.863000
-0.019401 0.030937 0.853000
0.013986 -0.028462 0.855000
0.033459 0.006046 0.858000
-0.020310 -0.003444 0.847000
-0.017912 0.015766 0.849000
-0.033558 0.022004 0.847000
0.011341 0.032196 0.868000
0.026673 -0.031002 0.867000
-0.028362 0.034944 0.848000
0.009577 0.017589 0.870000
0.005279 0.042654 0.870000
-0.018347 0.030586 0.853000
0.014742 -0.042687 0.858000
0.023353 -0.037963 0.863000
0.025245 0.001827 0.867000
-0.023712 0.005252 0.844000
0.032383 -0.014945 0.867000
-0.010636 0.026052 0.854000
-0.003303 0.038225 0.867000
0.003116 0.018577 0.866000
-0.027218 0.022300 0.845000
-0.008537 0.015526 0.855000
0.010971 0.037154 0.867000
-0.026071 0.041469 0.853000
0.020464 -0.035040 0.861000
0.024305 0.029033 0.859000
0.017354 0.025320 0.865000
0.008840 0.013618 0.868000
0.027292 0.005732 0.864000
-0.009604 0.019067 0.856000
0.040002 -0.020535 0.862000
0.000260 -0.014984 0.849000
0.015875 -0.021244 0.862000
-0.013416 0.023537 0.852000
0.022391 -0.020654 0.867000
-0.011676 0.024969 0.853000
0.020487 0.027006 0.862000
0.027647 0.004310 0.864000
-0.017213 0.024502 0.849000
0.018380 0.029879 0.863000
0.012564 -0.030186 0.854000
-0.024551 0.030093 0.849000
0.001302 -0.040649 0.845000
0.032867 -0.002084 0.861000
0.017254 0.040748 0.860000
-0.021330 -0.004205 0.860000
0.011604 -0.003856 0.861000
0.004859 0.004639 0.859000
-0.004268 -0.025377 0.846000
0.000625 0.039835 0.871000
-0.033598 0.020634 0.848000
0.041935 -0.013024 0.858000
0.002390 0.014217 0.861000
-0.010188 -0.002744 0.846000
-0.017355 0.035978 0.856000
-0.010296 0.023620 0.855000
0.033812 0.002867 0.858000
0.022184 0.029033 0.859000
-0.014167 0.030306 0.855000
0.000260 -0.012538 0.849000
-0.002230 0.031052 0.866000
-0.013416 0.014069 0.852000
0.024975 -0.008909 0.870000
-0.016107 0.002827 0.846000
0.007795 0.028722 0.871000
-0.011567 -0.011435 0.845000
0.000611 -0.020273 0.851000
-0.015152 0.017205 0.851000
0.010663 0.023703 0.871000
-0.030733 0.024416 0.846000
0.021527 -0.038584 0.861000
0.029816 -0.004942 0.865000
0.001663 -0.020297 0.852000
-0.013337 0.007014 0.847000
0.018337 -0.046026 0.861000
0.021036 0.001833 0.870000
-0.006350 -0.021869 0.845000
-0.018017 0.032028 0.854000
-0.023017 0.011158 0.844000
0.004118 -0.015387 0.852000
-0.034027 0.013336 0.850000
-0.005325 -0.003099 0.848000
-0.000450 0.039789 0.870000
-0.031118 0.013638 0.847000
0.015324 0.006496 0.871000
-0.028609 0.024735 0.845000
0.016022 0.002908 0.870000
-0.003920 -0.014931 0.846000
0.009112 -0.002081 0.860000
-0.002533 -0.017060 0.848000
-0.004687 0.017720 0.859000
-0.019246 -0.012966 0.878000
-0.004273 -0.022269 0.847000
-0.029548 0.039668 0.852000
-0.014466 -0.027264 0.873000
-0.003303 0.037154 0.867000
0.016267 -0.018093 0.864000
0.013345 -0.022938 0.859000
-0.016450 0.048405 0.864000
-0.027186 0.009768 0.844000
-0.006335 -0.037777 0.843000
0.003413 -0.025877 0.851000
0.025632 -0.000672 0.868000
-0.021910 0.041919 0.855000
0.019961 0.004340 0.870000
0.010882 -0.014824 0.860000
0.023653 0.022014 0.861000
0.031693 0.008871 0.858000
0.016681 -0.008878 0.867000
0.020678 -0.006402 0.870000
0.015253 -0.004596 0.867000
0.011958 -0.013778 0.861000
0.035619 -0.002786 0.859000
0.009522 0.044901 0.865000
0.004899 0.016439 0.866000
0.024390 0.018137 0.862000
-0.025796 0.018800 0.844000
0.024617 -0.015712 0.870000
0.031023 0.008881 0.859000
0.034246 -0.024636 0.869000
-0.003911 -0.031222 0.844000
0.038403 -0.004902 0.858000
-0.028395 0.036732 0.849000
-0.009816 -0.024622 0.844000
-0.009327 0.038404 0.863000
0.017455 -0.002822 0.870000
0.032905 -0.004570 0.862000
0.006704 0.042963 0.869000
0.035868 -0.017758 0.865000
0.025691 -0.021800 0.870000
-0.003262 0.014135 0.856000
0.022721 0.009666 0.866000
0.014101 0.043326 0.862000
-0.009491 -0.003092 0.846000
0.014607 0.009364 0.871000
-0.002225 0.026713 0.864000
0.007966 -0.035684 0.851000
-0.018655 0.028413 0.851000
0.017314 -0.022690 0.863000
0.022944 0.023077 0.861000
0.017214 -0.039509 0.858000
0.024258 -0.013564 0.870000
0.497134 -0.192180 11.422000
-0.023017 0.006642 0.844000
0.014422 -0.022257 0.860000
-0.038756 0.014453 0.854000
0.009433 -0.014067 0.857000
0.007334 -0.002432 0.859000
0.028556 -0.013564 0.870000
0.032664 -0.010282 0.865000
0.015448 -0.034565 0.858000
0.020701 -0.002108 0.871000
-0.031503 0.009116 0.848000
-0.026648 0.034636 0.849000
-0.024989 0.040720 0.852000
-0.023181 0.031178 0.850000
0.007428 0.038715 0.870000
0.014540 -0.002812 0.867000
0.018066 0.023540 0.865000
0.028424 -0.002452 0.866000
-0.009469 -0.018369 0.844000
0.000615 0.010624 0.857000
0.040002 -0.020890 0.862000
0.005625 0.020406 0.868000
-0.011567 -0.009696 0.845000
0.010430 -0.027661 0.852000
0.010971 0.037868 0.867000
0.079842 -0.063626 1.888000
0.002033 0.014201 0.860000
-0.006137 0.035603 0.864000
0.020133 -0.033307 0.862000
0.013890 0.016533 0.871000
-0.032125 0.020237 0.846000
-0.000092 0.022472 0.865000
0.030670 0.008881 0.859000
-0.024494 0.024445 0.847000
-0.020358 0.023803 0.849000
0.018337 0.034062 0.861000
0.033004 -0.030533 0.874000
-0.006016 -0.005885 0.847000
0.019626 0.003269 0.871000
0.038405 -0.027759 0.866000
0.038361 -0.024167 0.865000
0.023952 0.026912 0.859000
-0.011219 -0.032998 0.845000
-0.004278 -0.006240 0.848000
-0.035860 0.011965 0.852000
0.029747 0.000043 0.863000
-0.024436 0.018822 0.845000
0.033211 -0.029319 0.870000
-0.000438 -0.029939 0.847000
-0.024494 0.024096 0.847000
0.028100 -0.004596 0.867000
0.038448 -0.010210 0.859000
-0.020079 0.030901 0.852000
0.026734 -0.007826 0.869000
0.030346 -0.022516 0.870000
0.024617 -0.003896 0.870000
-0.010524 -0.035085 0.845000
-0.012958 -0.020478 0.845000
0.020794 0.030129 0.860000
-0.020262 0.005954 0.845000
-0.004682 0.016287 0.858000
0.014590 0.004340 0.870000
0.018670 0.036146 0.860000
0.012000 0.043071 0.864000
-0.028923 0.020884 0.844000
-0.039552 0.011316 0.856000
0.013762 -0.013100 0.863000
0.003062 -0.016070 0.851000
-0.025419 0.009757 0.843000
-0.016883 0.026630 0.850000
0.012799 0.008637 0.870000
0.019755 0.030873 0.861000
0.008769 0.001460 0.861000
0.021222 0.022065 0.863000
0.012069 0.027941 0.869000
0.024258 -0.007477 0.870000
-0.010636 0.026755 0.854000
0.013037 -0.016987 0.862000
-0.018960 0.017514 0.849000
0.027123 -0.012490 0.870000
0.017234 -0.033545 0.859000
0.064331 -0.031918 1.214000
-0.020310 -0.001353 0.847000
0.005885 -0.011557 0.854000
0.025750 0.018094 0.860000
-0.013096 0.028864 0.854000
-0.012350 0.011951 0.851000
-0.007162 0.020902 0.859000
0.027519 0.014555 0.860000
0.000970 0.014184 0.859000
0.011022 0.020477 0.871000
-0.021331 0.002479 0.846000
-0.014819 0.018627 0.852000
0.019400 0.030873 0.861000
-0.021082 0.026630 0.850000
0.016173 -0.023645 0.859000
0.002052 0.029338 0.868000
0.019002 0.038226 0.859000
0.021502 -0.042433 0.860000
0.028227 0.013847 0.860000
-0.012685 0.010887 0.850000
0.002031 0.012417 0.859000
0.011631 -0.001733 0.863000
-0.028991 0.027201 0.846000
0.005495 -0.039747 0.848000
-0.016495 0.008767 0.848000
-0.005661 -0.020850 0.846000
-0.008826 0.007031 0.849000
0.009588 0.022628 0.871000
-0.038450 0.011655 0.855000
0.024831 0.008231 0.865000
0.018800 -0.016353 0.866000
0.027450 -0.010329 0.869000
0.013682 -0.043040 0.858000
-0.002950 0.038269 0.868000
-0.015666 0.044287 0.860000
0.006596 -0.022831 0.855000
0.008860 0.017589 0.870000
0.024418 -0.042226 0.863000
-0.018611 0.016815 0.849000
0.012284 -0.021524 0.859000
-0.014051 0.007371 0.848000
0.024418 -0.042936 0.863000
0.020582 0.017151 0.866000
0.013112 -0.000314 0.867000
0.019468 -0.023783 0.864000
-0.012655 0.007720 0.848000
0.017374 -0.012789 0.866000
-0.000437 -0.043779 0.845000
0.015820 0.044943 0.859000
-0.022001 0.004563 0.845000
-0.025280 0.035726 0.850000
-0.016824 0.007711 0.847000
0.024659 0.024084 0.859000
-0.009581 0.014805 0.854000
-0.008427 -0.024622 0.844000
-0.008557 0.019089 0.857000
0.018401 0.025646 0.864000
-0.000807 0.036882 0.869000
0.029171 -0.037782 0.867000
-0.009671 0.035876 0.862000
0.000266 0.038715 0.870000
0.002047 0.021072 0.866000
0.016700 -0.006388 0.868000
-0.017355 0.036331 0.856000
-0.010561 0.007720 0.848000
-0.003971 -0.007012 0.857000
-0.008909 0.018737 0.857000
0.024147 0.006102 0.866000
-0.023796 0.024793 0.847000
-0.016436 -0.004132 0.845000
0.035307 -0.003497 0.860000
0.000265 0.026062 0.866000
0.004803 -0.043987 0.849000
-0.012595 -0.020106 0.844000
0.004961 -0.047242 0.877000
-0.007154 0.019465 0.858000
0.020606 -0.018156 0.867000
-0.000091 0.010977 0.857000
-0.018197 -0.001699 0.846000
0.004458 -0.027246 0.850000
0.036991 -0.003489 0.858000
0.002009 -0.014302 0.850000
-0.010661 0.021181 0.856000
0.037518 -0.016632 0.862000
-0.017152 -0.004137 0.846000
0.017077 -0.002461 0.869000
0.020553 -0.047404 0.880000
0.043701 -0.020793 0.858000
-0.015502 0.017905 0.851000
0.019961 0.007563 0.870000
0.017018 0.024636 0.866000
0.011725 0.026541 0.870000
-0.038802 0.010247 0.855000
-0.007741 -0.010740 0.845000
-0.032125 0.019193 0.846000
-0.018864 -0.014034 0.877000
0.034285 -0.004210 0.861000
-0.029437 0.005346 0.859000
0.010663 0.024420 0.871000
0.018422 0.023184 0.865000
0.030741 0.002877 0.861000
-0.018938 -0.010080 0.848000
-0.020829 0.036949 0.854000
0.019732 -0.036061 0.860000
0.014372 -0.025001 0.857000
-0.003220 -0.043432 0.845000
0.038582 -0.017697 0.862000
0.009466 -0.001727 0.860000
0.026407 -0.022158 0.870000
0.005612 0.014300 0.866000
-0.012943 -0.018369 0.844000
0.010163 -0.005614 0.859000
0.023845 -0.021392 0.868000
-0.021330 0.045703 0.860000
0.011712 0.029014 0.869000
0.027711 -0.000670 0.866000
0.023434 0.008597 0.866000
0.016362 -0.001745 0.869000
0.006324 0.012161 0.866000
-0.005995 -0.041296 0.844000
-0.000802 0.020644 0.863000
0.016738 0.001475 0.870000
-0.008774 -0.019759 0.844000
-0.011219 -0.030216 0.845000
0.016399 0.007930 0.871000
-0.000090 -0.020249 0.850000
0.007759 0.012175 0.867000
0.041018 -0.021574 0.861000
0.014232 0.021169 0.870000
-0.009122 -0.035738 0.844000
0.025989 -0.026394 0.868000
0.017234 -0.044505 0.859000
0.001661 -0.012567 0.851000
0.020319 -0.006044 0.870000
0.021957 0.017467 0.864000
0.006980 -0.001725 0.859000
0.002033 -0.047034 0.860000
0.032026 -0.014945 0.867000
-0.000796 0.011682 0.857000
-0.002533 -0.024041 0.848000
-0.018938 0.015050 0.848000
-0.033288 0.012971 0.849000
-0.023853 0.030792 0.849000
0.031276 -0.009581 0.866000
0.000979 0.027520 0.867000
0.032137 -0.028603 0.870000
-0.002879 -0.011811 0.847000
0.025691 -0.009267 0.870000
-0.025796 0.016021 0.844000
0.000956 -0.032727 0.847000
0.026019 -0.022848 0.869000
-0.028991 0.027549 0.846000
0.013453 -0.003878 0.866000
-0.011232 -0.004833 0.846000
0.005152 -0.028612 0.849000
0.009218 0.031554 0.870000
-0.018893 0.009791 0.846000
-0.012112 0.034337 0.859000
0.024917 -0.025322 0.868000
-0.038847 0.006384 0.856000
0.016508 -0.025383 0.858000
0.024119 -0.032711 0.865000
0.011617 0.047229 0.862000
-0.010897 0.005620 0.847000
0.008022 -0.020768 0.857000
0.014573 0.002547 0.869000
-0.015098 -0.022295 0.848000
0.020464 0.029101 0.861000
0.018046 0.027069 0.864000
0.023542 -0.001747 0.870000
0.024035 -0.041467 0.862000
-0.030384 0.025460 0.846000
-0.039200 0.007089 0.856000
-0.000438 -0.029241 0.847000
-0.010511 -0.023580 0.844000
-0.032899 0.015399 0.848000
-0.018589 -0.010778 0.848000
-0.004605 -0.031222 0.844000
0.022110 -0.011057 0.870000
0.012313 0.048591 0.861000
-0.002533 -0.023692 0.848000
-0.010884 -0.004485 0.846000
0.007411 0.041841 0.868000
0.019732 0.041102 0.860000
0.021932 -0.033346 0.863000
0.029562 -0.036754 0.868000
0.009028 -0.033973 0.852000
0.005982 0.019335 0.868000
-0.015241 0.032103 0.856000
0.007750 0.010023 0.866000
0.022339 0.013215 0.865000
0.007957 -0.032843 0.850000
0.003066 -0.017842 0.852000
-0.007402 -0.014931 0.846000
0.011739 0.021194 0.871000
0.010257 0.005039 0.867000
-0.010200 0.004225 0.847000
-0.013173 0.036458 0.859000
-0.007915 0.038448 0.864000
-0.015063 -0.001699 0.846000
-0.013066 0.024939 0.852000
0.007976 -0.026609 0.852000
0.004859 0.003578 0.859000
-0.013654 -0.013522 0.845000
0.005540 -0.017553 0.855000
0.041935 -0.016202 0.858000
0.008154 0.028005 0.871000
-0.005294 -0.035696 0.843000
-0.025310 0.037870 0.851000
-0.008417 -0.030491 0.843000
-0.016533 0.015785 0.850000
0.011958 -0.012360 0.861000
0.009081 -0.011598 0.857000
-0.031429 0.017452 0.846000
0.022494 -0.008919 0.871000
-0.017624 -0.014686 0.852000
0.005225 0.009965 0.861000
-0.007759 -0.002398 0.847000
0.008317 -0.034283 0.851000
-0.012140 0.040087 0.861000
0.011249 -0.044254 0.861000
0.012799 0.024392 0.870000
0.027165 0.015971 0.860000
0.010516 -0.014100 0.859000
-0.013204 0.042213 0.861000
0.020062 0.036458 0.859000
-0.004263 -0.028477 0.845000
0.011380 0.017609 0.871000
-0.020707 0.022406 0.849000
-0.018567 -0.007976 0.847000
-0.012306 0.007720 0.848000
0.037344 -0.005961 0.858000
0.030316 0.009942 0.859000
0.016642 -0.014910 0.865000
-0.022027 0.017452 0.846000
-0.006682 -0.032573 0.843000
-0.018742 0.035232 0.855000
0.029988 -0.042926 0.870000
-0.009816 -0.026359 0.844000
0.023353 -0.036898 0.863000
-0.014234 0.038579 0.859000
-0.028262 0.025082 0.845000
0.021552 -0.036855 0.862000
0.017077 0.017568 0.869000
0.007062 0.042605 0.869000
-0.021381 0.020983 0.848000
-0.030805 0.031454 0.848000
-0.004970 -0.018086 0.847000
-0.026144 0.018800 0.844000
0.017941 0.044236 0.859000
-0.034027 0.011237 0.850000
-0.008204 0.024733 0.857000
0.004128 -0.018938 0.854000
-0.011800 0.041907 0.862000
-0.019821 0.041968 0.856000
0.033260 -0.005989 0.862000
-0.034271 0.039561 0.865000
0.011972 0.046519 0.862000
-0.003639 0.022749 0.862000
-0.015411 -0.018413 0.846000
0.007402 0.012889 0.867000
0.015820 -0.023645 0.859000
-0.016393 0.046465 0.861000
0.018108 -0.011733 0.867000
-0.000091 0.009919 0.857000
0.012579 -0.041482 0.855000
0.014811 0.040488 0.862000
0.024390 0.017782 0.862000
0.023818 -0.024936 0.867000
-0.030696 0.021257 0.845000
-0.022587 0.041870 0.854000
-0.015593 0.032103 0.856000
-0.007029 -0.031185 0.843000
-0.033869 0.037411 0.873000
-0.011676 0.026022 0.853000
0.002057 0.033702 0.870000
0.019002 -0.040969 0.859000
-0.003220 -0.029868 0.845000
-0.018197 -0.005529 0.846000
0.013298 -0.035541 0.856000
-0.019961 -0.003444 0.847000
0.014232 0.005414 0.870000
-0.012056 0.019749 0.855000
0.032400 0.007105 0.858000
0.011158 -0.025968 0.854000
-0.023712 0.014979 0.844000
-0.014451 0.015453 0.851000
0.013298 -0.024972 0.856000
0.012413 0.003973 0.868000
0.023245 0.028326 0.859000
-0.013542 0.040394 0.860000
0.006704 0.018999 0.869000
0.004458 -0.045088 0.850000
0.017833 0.002552 0.871000
0.005285 0.032665 0.871000
0.018295 0.040701 0.859000
0.008463 0.008954 0.866000
0.039862 -0.012332 0.859000
0.018422 0.022828 0.865000
0.010794 -0.037172 0.853000
-0.007869 0.031862 0.859000
0.043044 -0.020463 0.859000
0.004797 -0.032766 0.848000
0.015949 0.027488 0.866000
0.037561 -0.017007 0.863000
-0.003559 -0.035696 0.843000
0.028198 -0.014280 0.870000
0.038050 -0.004548 0.858000
0.012785 0.005766 0.869000
0.029747 0.000398 0.863000
0.018757 0.024580 0.864000
-0.009968 0.020853 0.857000
0.027355 -0.042372 0.866000
0.029171 -0.038496 0.867000
0.013112 0.030731 0.867000
0.024532 -0.025650 0.867000
0.029988 -0.017503 0.870000
0.019824 -0.024494 0.864000
0.005152 -0.043637 0.849000
-0.001160 0.026744 0.865000
0.004118 -0.024505 0.852000
0.025362 -0.012504 0.871000
0.027481 -0.015354 0.870000
0.032626 -0.009203 0.864000
0.033927 -0.028245 0.870000
-0.032861 0.020958 0.847000
0.003493 0.044137 0.871000
-0.006745 0.007397 0.851000
-0.022001 0.014649 0.845000
-0.003929 -0.018456 0.848000
0.039816 -0.007727 0.858000
0.010857 -0.010552 0.858000
0.023184 -0.013564 0.870000
0.030137 -0.001380 0.864000
0.019179 0.017885 0.867000
-0.021833 0.035810 0.852000
-0.026144 0.008726 0.844000
-0.010536 -0.004137 0.846000
0.019223 0.012204 0.869000
0.025661 -0.024994 0.869000
-0.017152 -0.008315 0.846000
-0.011206 -0.024622 0.844000
0.007437 0.026571 0.871000
-0.020610 0.005259 0.845000
0.019245 0.009711 0.870000
-0.019310 0.023104 0.849000
-0.024754 0.007337 0.844000
0.033498 0.002871 0.859000
0.014948 0.005772 0.870000
0.011354 0.030802 0.869000
0.013516 0.008995 0.870000
-0.019423 0.036246 0.854000
-0.001835 -0.024041 0.848000
0.018004 0.031264 0.862000
0.009786 -0.012656 0.857000
0.000610 -0.018150 0.850000
0.016362 0.018641 0.869000
0.023928 -0.008919 0.871000
-0.023154 0.028695 0.849000
-0.025250 0.031840 0.849000
-0.014958 0.043226 0.860000
-0.009874 0.009826 0.849000
0.030351 0.008538 0.860000
-0.008070 -0.033961 0.843000
0.028457 -0.006380 0.867000
-0.006357 -0.011797 0.846000
-0.020683 0.018889 0.848000
-0.028228 0.021926 0.844000
0.008041 -0.000665 0.859000
-0.004709 0.030589 0.863000
0.029205 -0.035325 0.868000
0.022059 0.006116 0.868000
-0.003994 0.022749 0.862000
-0.012958 -0.024303 0.845000
-0.003648 0.029202 0.864000
0.008667 -0.038836 0.851000
-0.025980 0.036776 0.850000
0.022184 0.034337 0.859000
0.019112 -0.023783 0.864000
0.013127 0.002186 0.868000
0.005501 -0.035251 0.849000
-0.040790 0.006886 0.875000
0.013746 -0.018406 0.862000
0.032233 -0.003865 0.863000
0.017077 0.016853 0.869000
0.002031 0.008881 0.859000
0.014845 -0.047253 0.864000
0.029426 -0.001024 0.864000
0.027775 -0.007817 0.868000
0.009878 0.003603 0.865000
0.019491 -0.021318 0.865000
0.013142 0.006123 0.869000
-0.033954 0.027131 0.866000
0.000618 0.016008 0.862000
-0.027566 0.025082 0.845000
0.040971 -0.019779 0.860000
-0.036869 0.018606 0.851000
0.021727 0.005766 0.869000
-0.002174 -0.036780 0.844000
-0.022885 0.035810 0.852000
0.005618 0.017171 0.867000
0.043044 -0.020817 0.859000
0.032084 0.005699 0.859000
0.003481 0.026122 0.868000
0.007078 0.025496 0.871000
0.008144 0.021886 0.870000
-0.013219 0.043681 0.862000
-0.010910 0.007022 0.848000
-0.002220 0.019201 0.862000
-0.015045 -0.008653 0.845000
-0.002174 -0.041296 0.844000
0.010528 -0.016948 0.860000
0.025333 -0.008551 0.870000
-0.031503 0.010163 0.848000
0.021197 -0.033307 0.862000
-0.003576 -0.009719 0.847000
-0.000450 0.041580 0.870000
0.009433 -0.010892 0.857000
0.026316 -0.031716 0.867000
0.010186 -0.000312 0.861000
-0.008089 -0.019782 0.845000
0.027807 -0.009256 0.869000
-0.032899 0.016097 0.848000
0.026611 -0.036983 0.865000
-0.006094 0.016640 0.858000
0.000607 -0.034778 0.846000
0.019267 0.004703 0.871000
-0.010511 -0.029833 0.844000
0.018909 0.002911 0.871000
0.008125 0.040770 0.868000
0.006317 0.011435 0.865000
0.039862 -0.012685 0.859000
0.026704 -0.030324 0.868000
-0.008070 -0.029450 0.843000
0.019603 0.007563 0.870000
0.022971 0.020620 0.862000
0.019179 -0.014588 0.867000
0.030346 -0.030752 0.870000
0.019423 -0.030114 0.862000
0.019046 -0.030433 0.861000
0.040002 -0.021599 0.862000
-0.016572 0.028446 0.852000
0.013283 -0.027406 0.855000
-0.009469 -0.034001 0.844000
0.004547 0.020026 0.867000
0.027481 -0.025739 0.870000
-0.010524 -0.035432 0.845000
0.084646 -0.044617 10.972000
0.001337 0.030052 0.868000
-0.008774 -0.035391 0.844000
-0.007029 -0.039165 0.843000
-0.015630 0.037122 0.858000
-0.023235 0.038616 0.852000
-0.020659 0.000042 0.847000
-0.003925 -0.015646 0.847000
0.007759 0.013246 0.867000
0.025333 -0.007835 0.870000
0.011725 0.011859 0.870000
0.036284 -0.001723 0.858000
0.029391 0.001463 0.863000
0.020343 0.000402 0.871000
0.011315 0.039250 0.866000
-0.006002 -0.043084 0.845000
0.022971 -0.037919 0.862000
-0.026554 0.027201 0.846000
0.003493 0.038401 0.871000
-0.010176 -0.036128 0.845000
0.035619 -0.002079 0.859000
0.012000 0.040937 0.864000
0.018865 0.012561 0.869000
-0.016804 0.005613 0.846000
0.018192 0.001118 0.871000
0.017415 0.017548 0.868000
0.030346 -0.021084 0.870000
-0.015045 -0.005871 0.845000
0.010920 0.048349 0.863000
-0.023586 0.038265 0.852000
0.019732 0.034023 0.860000
-0.001486 -0.016711 0.848000
-0.032315 0.035068 0.851000
-0.014941 0.041054 0.859000
0.027513 -0.018957 0.871000
0.022466 0.037155 0.884000
0.013422 -0.008492 0.864000
-0.000439 -0.026833 0.848000
-0.040351 0.008518 0.858000
-0.007402 -0.013538 0.846000
0.005631 0.022933 0.869000
-0.020454 0.033044 0.853000
-0.014349 -0.018391 0.845000
0.009923 0.013992 0.869000
-0.030178 0.037475 0.850000
0.000621 0.023184 0.865000
-0.022561 0.038661 0.853000
-0.010176 -0.036824 0.845000
0.031276 -0.009937 0.866000
-0.007420 0.001787 0.848000
-0.011272 0.009477 0.849000
-0.035076 0.016485 0.850000
-0.032512 0.024096 0.847000
0.022339 0.012859 0.865000
0.033173 -0.022132 0.869000
0.012976 -0.023265 0.858000
-0.020430 0.030901 0.852000
0.027030 -0.003882 0.867000
-0.019613 0.015032 0.847000
0.036284 -0.003136 0.858000
-0.001850 0.009895 0.855000
0.012055 0.005044 0.868000
-0.024259 0.037169 0.851000
-0.019605 -0.009891 0.862000
0.017455 -0.002464 0.870000
-0.006402 0.009510 0.852000
-0.023365 0.007684 0.844000
0.021881 0.026266 0.861000
0.012770 0.029695 0.868000
0.010151 -0.010199 0.858000
-0.021975 0.010463 0.844000
-0.009327 0.039469 0.863000
-0.010188 -0.001351 0.846000
0.003772 -0.010841 0.853000
0.013485 0.002186 0.868000
-0.015312 0.044641 0.860000
0.032159 0.000397 0.861000
0.002699 -0.036911 0.847000
0.043398 -0.021170 0.859000
0.012711 0.039871 0.864000
-0.017062 0.043529 0.859000
-0.006840 0.034497 0.863000
0.007402 0.012532 0.867000
0.001333 0.020336 0.865000
-0.009132 -0.008305 0.845000
0.002059 0.040194 0.871000
0.000610 -0.024797 0.850000
0.004474 -0.011543 0.853000
0.007308 -0.016164 0.856000
-0.006009 -0.007619 0.846000
0.000621 0.021760 0.865000
0.004927 0.030873 0.871000
0.011022 0.021911 0.871000
0.000263 0.015263 0.860000
-0.002950 0.039341 0.868000
0.018316 0.037562 0.860000
-0.004253 -0.037430 0.843000
-0.002228 0.027812 0.865000
-0.017213 0.015068 0.849000
-0.012610 -0.008653 0.845000
0.022261 -0.038274 0.862000
0.009544 0.041080 0.867000
-0.038405 0.013750 0.854000
0.022918 0.024820 0.860000
0.008718 -0.011232 0.856000
0.013407 -0.012744 0.863000
-0.027533 0.019147 0.844000
0.009007 -0.030394 0.850000
0.025543 -0.036627 0.865000
0.018444 0.021429 0.866000
0.010825 0.019957 3.008000
-0.033598 0.017842 0.848000
0.004819 -0.025206 0.852000
0.023051 0.011791 0.865000
0.007266 -0.037435 0.851000
0.009123 0.000751 0.861000
-0.013654 -0.010044 0.845000
-0.019938 0.000042 0.846000
0.029919 -0.034968 0.868000
-0.038053 0.013399 0.854000
0.025304 -0.021417 0.869000
0.000606 -0.040649 0.845000
-0.004655 0.008819 0.853000
0.010528 -0.003497 0.860000
0.027839 -0.026455 0.870000
0.019732 -0.044557 0.860000
0.015520 -0.021954 0.862000
0.039337 -0.021979 0.863000
-0.008213 0.023349 0.858000
0.021172 0.027684 0.861000
0.030346 -0.027887 0.870000
0.016286 -0.014554 0.865000
0.022236 -0.042128 0.861000
-0.013864 0.033237 0.858000
0.026673 -0.031359 0.867000
0.012726 -0.045528 0.865000
-0.021457 0.029464 0.851000
0.019603 -0.007119 0.870000
-0.025102 0.016368 0.844000
0.001337 0.031124 0.868000
0.011380 0.019043 0.871000
0.014811 -0.019116 0.862000
-0.018545 0.001435 0.846000
-0.032201 0.011909 0.848000
0.030777 0.000397 0.862000
-0.035468 0.016154 0.851000
-0.013066 0.023186 0.852000
0.023353 0.016382 0.863000
0.016004 0.019714 0.869000
0.022971 0.019556 0.862000
-0.019798 0.040159 0.855000
0.035635 -0.025322 0.868000
0.019179 -0.016015 0.867000
0.006237 -0.023156 0.854000
0.023051 0.011079 0.865000
0.038937 -0.019116 0.862000
0.016362 0.019357 0.869000
0.005975 0.015387 0.867000
-0.018261 0.017863 0.849000
-0.000439 -0.024768 0.849000
-0.000440 -0.019549 0.850000
0.030955 -0.013160 0.867000
0.013714 -0.022611 0.860000
0.009477 0.001460 0.861000
0.026134 0.015281 0.861000
0.017455 0.001117 0.870000
0.013746 0.042971 0.862000
0.028914 -0.020367 0.870000
0.011590 -0.019071 0.860000
-0.015834 0.025231 0.850000
-0.023420 0.003176 0.846000
-0.010308 0.018715 0.856000
-0.004611 -0.026390 0.845000
0.021369 -0.012118 0.869000
-0.009122 -0.021496 0.844000
0.038627 -0.020203 0.863000
0.027711 -0.042016 0.866000
0.040758 -0.025887 0.863000
-0.031264 0.037870 0.851000
0.019024 0.035438 0.860000
0.015466 -0.023645 0.859000
-0.038405 0.015508 0.854000
0.018046 -0.020938 0.864000
0.026407 -0.012490 0.870000
0.001650 -0.042040 0.845000
0.014590 0.020095 0.870000
0.008317 -0.040938 0.851000
-0.010561 0.006324 0.848000
0.026780 0.019841 0.859000
0.023542 -0.000673 0.870000
-0.014697 -0.017348 0.845000
0.009533 0.044240 0.866000
-0.010260 0.013367 0.852000
0.028847 -0.009960 0.868000
-0.006832 0.032683 0.862000
0.021123 0.036811 0.859000
0.037249 -0.019160 0.864000
0.021011 -0.012833 0.869000
0.011354 0.031160 0.869000
0.004927 0.038043 0.871000
-0.017912 0.024852 0.849000
0.039816 -0.009845 0.858000
-0.017562 0.016465 0.849000
-0.023365 0.013937 0.844000
-0.018038 0.034177 0.855000
-0.025980 0.038175 0.850000
0.022008 -0.025620 0.866000
-0.007498 0.016268 0.857000
0.025245 -0.027791 0.867000
0.024203 0.002901 0.868000
-0.025479 0.019866 0.845000
0.042288 -0.016555 0.858000
0.013858 0.023649 0.869000
0.028133 -0.032467 0.868000
0.001302 -0.039954 0.845000
-0.023768 0.020237 0.846000
0.010455 -0.025968 0.854000
0.025573 -0.031323 0.866000
-0.024465 0.023023 0.846000
0.025691 -0.019293 0.870000
0.020464 0.028747 0.861000
-0.010200 0.001785 0.847000
-0.023853 0.030093 0.849000
0.033888 -0.026424 0.869000
-0.037702 0.012344 0.854000
0.008385 -0.004195 0.858000
-0.008457 0.000390 0.847000
-0.019798 0.039807 0.855000
0.011617 -0.002796 0.862000
0.011725 -0.047939 0.870000
0.004568 0.036609 0.871000
-0.007498 0.016973 0.857000
-0.017042 0.040300 0.858000
-0.025766 0.011838 0.843000
-0.015447 0.008418 0.848000
0.015646 -0.001745 0.869000
0.011590 -0.013408 0.860000
0.032944 -0.007061 0.863000
-0.014697 -0.013522 0.845000
-0.015393 -0.013522 0.845000
0.011236 -0.006329 0.860000
0.016343 -0.006030 0.868000
-0.007851 0.017679 0.857000
0.033453 -0.018156 0.867000
-0.028745 0.036732 0.849000
-0.024465 0.022326 0.846000
0.019603 0.006130 0.870000
0.018550 -0.000315 0.871000
-0.009840 -0.006226 0.846000
0.042288 -0.017968 0.858000
-0.032589 0.008428 0.849000
-0.008785 -0.010392 0.845000
0.027839 -0.026813 0.870000
0.029171 -0.039567 0.867000
0.022800 0.002189 0.869000
-0.016107 -0.013886 0.846000
0.007598 -0.030009 0.849000
0.028424 -0.003165 0.866000
0.018670 -0.033938 0.860000
0.030634 0.012755 0.858000
-0.035462 0.004330 0.868000
-0.005394 0.029741 0.859000
0.029630 -0.019293 0.870000
0.006237 -0.011909 0.854000
0.004210 0.034458 0.871000
-0.034190 0.031985 0.872000
-0.039200 0.008850 0.856000
-0.027093 0.041070 0.852000
0.011009 0.029047 0.870000
-0.012140 0.040795 0.861000
0.023326 -0.042177 0.862000
0.023928 -0.009995 0.871000
-0.012610 -0.025347 0.845000
0.006557 -0.035292 0.850000
-0.013541 0.047652 0.883000
0.015592 0.027131 0.866000
0.014725 -0.032761 0.857000
0.007334 0.001103 0.859000
0.018337 0.034417 0.861000
-0.030348 0.022996 0.845000
0.008307 -0.031794 0.850000
0.032437 0.005699 0.859000
0.017710 -0.017402 0.865000
-0.000092 0.036167 0.869000
-0.026839 0.011852 0.844000
0.009729 -0.039934 0.852000
0.014134 -0.011692 0.864000
0.003059 -0.027246 0.850000
-0.024145 0.002482 0.847000
0.011739 0.015458 0.871000
0.015253 0.025379 0.867000
-0.021558 0.042270 0.855000
0.004469 -0.025907 0.852000
0.018757 0.024224 0.864000
-0.005313 -0.012842 0.846000
0.006361 0.036609 0.871000
0.042436 -0.024763 0.861000
0.007411 0.014333 0.868000
0.008871 0.025854 0.871000
-0.026206 0.025112 0.846000
0.021602 -0.030539 0.864000
0.003445 0.006053 0.859000
-0.040609 0.016249 0.856000
-0.011676 0.024618 0.853000
-0.007490 0.015544 0.856000
-0.008899 0.018010 0.856000
-0.006448 0.030059 0.858000
0.000259 -0.031333 0.847000
0.025275 -0.027108 0.868000
0.009229 0.027647 0.871000
0.021320 0.012532 0.867000
0.030276 -0.012461 0.868000
0.003750 -0.036605 0.848000
0.021036 -0.008551 0.870000
0.028035 -0.001025 0.865000
-0.027914 0.006650 0.845000
-0.010511 -0.026706 0.844000
-0.017102 0.046111 0.861000
-0.008098 -0.007619 0.846000
0.027355 -0.001027 0.866000
-0.030384 0.013273 0.846000
-0.005674 -0.004146 0.848000
-0.006714 -0.003793 0.847000
-0.017213 0.022755 0.849000
0.013298 -0.034484 0.856000
0.017097 0.001117 0.870000
0.026286 0.002538 0.866000
-0.001138 -0.022671 0.849000
0.024645 -0.009636 0.871000
-0.012595 -0.014548 0.844000
-0.000785 -0.043084 0.845000
0.007670 -0.016536 0.857000
-0.011690 0.016914 0.854000
0.023131 -0.019249 0.868000
-0.006500 0.037781 0.865000
0.007419 0.019357 0.869000
-0.027881 0.012547 0.844000
0.032829 0.001458 0.860000
-0.013654 -0.014913 0.845000
-0.013306 -0.023956 0.845000
0.008779 0.004655 0.862000
0.024645 -0.009278 0.871000
0.006948 -0.010867 0.855000
0.021295 -0.021699 0.866000
0.009544 0.040009 0.867000
0.021123 0.036104 0.859000
0.007070 0.024034 0.870000
0.025396 0.019156 0.860000
-0.003643 0.024906 0.863000
0.010663 0.020477 0.871000
0.012682 -0.014504 0.862000
0.026999 -0.042372 0.866000
-0.003212 -0.037430 0.843000
0.016681 0.021810 0.867000
0.016700 -0.004601 0.868000
0.005495 -0.029625 0.848000
0.027355 0.000043 0.866000
-0.015759 0.003176 0.846000
0.021907 -0.037564 0.862000
0.026967 -0.041967 0.865000
0.029562 -0.012104 0.868000
0.030704 -0.030393 0.870000
-0.007455 0.011965 0.852000
0.009102 -0.002432 0.859000
0.025396 0.019864 0.860000
0.005152 -0.036649 0.849000
0.006689 0.015387 0.867000
0.016343 0.020764 0.868000
-0.010573 0.010175 0.849000
-0.016844 0.011211 0.848000
0.026936 0.006088 0.864000
0.033222 -0.002084 0.861000
0.011944 -0.006683 0.860000
-0.015484 0.023482 0.850000
0.004797 -0.030323 0.848000
0.004474 -0.022778 0.853000
-0.007833 0.015174 0.855000
-0.011622 0.009127 0.849000
0.028914 -0.023948 0.870000
-0.020310 -0.001701 0.847000
0.019513 -0.019917 0.866000
0.002760 0.020003 0.866000
-0.006016 -0.006233 0.847000
0.008013 -0.013698 0.856000
0.059920 0.143987 3.328000
0.003066 -0.016790 0.852000
-0.006500 0.039561 0.865000
0.022669 0.016756 0.864000
0.020133 0.027006 0.862000
-0.012098 0.031825 0.858000
0.030276 -0.036040 0.868000
-0.009816 -0.025317 0.844000
0.027260 0.008212 0.863000
0.008728 -0.015125 0.857000
-0.004324 0.015562 0.857000
-0.034268 0.036375 0.874000
0.008463 0.045666 0.866000
0.019847 0.021404 0.865000
-0.014958 0.042872 0.860000
0.001696 0.030802 0.869000
0.007634 -0.025587 0.853000
-0.007723 -0.033614 0.843000
-0.011232 -0.005181 0.846000
-0.009262 0.020500 0.857000
-0.012263 -0.010740 0.845000
-0.011064 -0.036415 0.860000
0.022468 -0.012132 0.870000
-0.011090 0.039069 0.862000
0.019778 -0.030469 0.862000
0.006002 0.036967 0.871000
-0.020610 0.002824 0.845000
-0.010014 0.034771 0.861000
0.026255 -0.035915 0.865000
0.026488 0.013863 0.861000
-0.020707 0.022056 0.849000
-0.022831 0.029429 0.850000
0.026457 0.015971 0.860000
0.023569 -0.008202 0.871000
0.017214 -0.029268 0.858000
0.054822 -0.055181 6.421000
-0.021781 0.027330 0.850000
0.023708 -0.037963 0.863000
0.009422 -0.044349 0.856000
-0.024989 0.040018 0.852000
-0.028262 0.023343 0.845000
-0.008557 0.019795 0.857000
-0.017416 0.043882 0.859000
0.016527 -0.043091 0.859000
0.007795 0.033024 0.871000
0.002703 -0.033813 0.848000
-0.015684 0.045756 0.861000
0.009718 -0.029730 0.851000
0.005267 0.020764 0.868000
-0.016553 0.019306 0.851000
-0.032899 0.016795 0.848000
0.002047 0.023211 0.866000
0.009218 0.017589 0.870000
0.016173 0.044943 0.859000
-0.002930 0.020975 0.862000
0.008667 -0.033933 0.851000
-0.010949 0.012651 0.851000
-0.006357 -0.008315 0.846000
0.032867 -0.001021 0.861000
-0.012277 0.001435 0.846000
0.013067 -0.004936 0.864000
0.007062 0.019714 0.869000
0.015628 -0.002815 0.868000
0.022971 -0.038629 0.862000
0.021752 0.000759 0.870000
0.031027 -0.016767 0.869000
0.038448 -0.010564 0.859000
-0.038405 0.014453 0.854000
0.018508 0.012919 0.869000
-0.010871 -0.034041 0.845000
-0.010871 -0.011783 0.845000
0.014725 -0.033114 0.857000
0.010443 -0.034364 0.853000
-0.023017 0.011852 0.844000
-0.004003 0.030625 0.864000
-0.011272 0.010175 0.849000
0.004825 -0.023831 0.853000
0.015306 0.018305 0.870000
0.012413 0.005402 0.868000
-0.012263 -0.009348 0.845000
0.019024 0.036500 0.860000
0.012770 0.028623 0.868000
-0.015834 0.025930 0.850000
-0.002608 -0.047745 0.873000
-0.009132 -0.014913 0.845000
-0.015741 -0.009348 0.845000
-0.018893 0.009443 0.846000
0.024889 -0.026720 0.867000
0.030704 -0.020009 0.870000
0.037344 -0.002783 0.858000
-0.030001 0.016735 0.845000
-0.004698 0.029455 0.861000
-0.014604 0.040748 0.860000
0.014523 -0.007086 0.866000
0.012667 -0.009171 0.861000
-0.026491 0.018105 0.844000
0.003070 -0.019618 0.853000
0.032063 -0.018892 0.868000
0.022695 -0.045172 0.865000
0.002754 0.015334 0.864000
-0.005313 -0.021895 0.846000
0.081529 0.154255 3.982000
0.014281 -0.048823 0.873000
-0.015393 -0.012131 0.845000
0.024334 0.022342 0.860000
0.026316 -0.043849 0.867000
0.026765 -0.020725 0.870000
-0.022375 0.017800 0.846000
-0.031540 0.029744 0.849000
-0.009122 -0.037475 0.844000
0.011145 -0.038928 0.853000
0.016041 0.011873 0.871000
-0.009262 0.022617 0.857000
-0.001133 -0.035780 0.845000
-0.001502 0.013446 0.857000
-0.014349 -0.009001 0.845000
0.044864 -0.024381 0.860000
0.030457 -0.001378 0.863000
0.017475 0.003269 0.871000
0.029609 0.012417 0.859000
0.010933 0.045560 0.864000
0.012213 -0.027726 0.854000
-0.005995 -0.040601 0.844000
0.012097 0.015099 0.871000
0.026049 -0.007835 0.870000
0.024119 0.010011 0.865000
0.000265 0.023540 0.865000
-0.007732 -0.038864 0.844000
-0.017521 -0.011811 0.847000
-0.024077 0.043780 0.857000
0.011972 -0.003150 0.862000
0.018444 -0.014927 0.866000
0.007078 0.026930 0.871000
0.000260 -0.011503 0.850000
-0.009828 -0.035780 0.845000
0.014456 -0.046079 0.862000
0.015412 -0.028495 0.856000
0.021805 0.032884 0.858000
0.008657 -0.032843 0.850000
-0.030528 0.036426 0.850000
-0.005788 0.037425 0.865000
-0.014697 -0.011783 0.845000
0.013762 -0.013455 0.863000
0.014355 -0.036246 0.856000
0.029289 0.009953 0.860000
0.026195 0.010698 0.863000
-0.000090 -0.016731 0.849000
0.008116 0.043577 0.867000
0.027481 -0.016070 0.870000
0.019961 -0.008551 0.870000
0.036411 -0.010589 0.861000
-0.012056 0.020804 0.855000
-0.002202 0.010599 0.855000
0.013986 -0.028814 0.855000
0.007054 0.042913 0.868000
0.025245 -0.029575 0.867000
0.009718 -0.032182 0.851000
0.012083 0.024034 0.870000
0.026049 -0.019651 0.870000
0.032437 0.003931 0.859000
-0.001878 0.037554 0.868000
0.002770 0.029014 0.869000
0.022971 -0.038984 0.862000
0.014862 -0.010282 0.865000
0.025425 0.016344 0.861000
0.006650 0.009267 0.862000
-0.016020 0.044641 0.860000
0.013021 0.046820 0.861000
0.007274 -0.044493 0.852000
-0.024202 0.032190 0.849000
0.021060 -0.005334 0.871000
-0.007516 0.023023 0.859000
0.011621 -0.021186 1.915000
-0.026206 0.004568 0.846000
-0.024436 0.005259 0.845000
0.018486 0.014690 0.868000
0.009729 -0.041337 0.852000
-0.005654 -0.024999 0.845000
0.017214 -0.040215 0.858000
0.031062 -0.020009 0.870000
-0.005641 -0.033614 0.843000
-0.016533 0.026280 0.850000
-0.023365 0.013242 0.844000
0.006244 -0.009811 0.855000
-0.021628 0.009421 0.844000
-0.019914 0.005259 0.845000
0.012682 -0.015568 0.862000
0.020678 -0.006760 0.870000
-0.036999 0.008478 0.854000
-0.021057 0.025551 0.849000
-0.008795 -0.002396 0.846000
0.012579 -0.033037 0.855000
0.009091 -0.007020 0.858000
0.007334 -0.002786 0.859000
0.006948 -0.015441 0.855000
-0.003915 -0.028825 0.845000
0.031240 -0.008146 0.865000
-0.026175 0.022648 0.845000
-0.001486 -0.015664 0.848000
-0.001482 -0.032341 0.846000
-0.031466 0.026536 0.847000
0.020440 -0.043141 0.860000
0.027154 -0.017164 0.871000
-0.039154 0.011303 0.855000
0.006712 0.024392 0.870000
0.018713 0.030909 0.862000
-0.022750 0.021307 0.847000
0.030311 -0.016410 0.869000
0.030387 0.004295 0.861000
0.006899 -0.029310 0.849000
-0.021608 0.043780 0.857000
0.033222 -0.002438 0.861000
0.034912 -0.001725 0.859000
0.004118 -0.015738 0.852000
0.019445 -0.027663 0.863000
0.022287 0.018158 0.863000
0.010222 0.045916 0.864000
0.014793 -0.045317 0.861000
-0.003643 0.025261 0.863000
-0.015759 -0.015975 0.846000
0.024091 -0.034807 0.864000
0.031384 -0.039658 0.869000
