-0.017891 -0.009033 0.848000
0.031340 0.026881 0.858000
0.000259 -0.009022 0.847000
0.024147 0.019646 0.866000
-0.029574 0.037338 0.863000
0.016841 -0.001369 0.857000
-0.024465 -0.010056 0.846000
-0.025690 -0.000659 0.852000
0.018337 0.000751 0.861000
0.018583 -0.006652 0.856000
-0.037482 -0.022179 0.857000
0.047207 -0.002802 0.864000
0.046496 -0.017026 0.864000
-0.023341 0.030444 0.869000
0.043138 0.012547 0.868000
-0.001135 -0.008325 0.847000
-0.053156 -0.003205 0.877000
-0.009370 0.028233 0.867000
0.040685 -0.017532 0.854000
-0.022678 0.026930 0.871000
0.010009 -0.017368 0.846000
0.007223 -0.017020 0.846000
-0.024696 0.001448 0.854000
-0.014802 -0.001009 0.851000
0.003445 0.031862 0.859000
-0.038833 -0.011127 0.848000
0.004099 -0.009033 0.848000
0.004786 -0.013538 0.846000
0.005975 0.023951 0.867000
-0.029083 0.012063 0.859000
0.044459 0.020548 0.859000
0.022731 -0.010841 0.853000
0.004786 -0.013190 0.846000
0.037609 -0.010527 0.856000
-0.004693 0.008538 0.860000
-0.036676 -0.026034 0.880000
-0.031459 0.017508 0.866000
-0.034113 0.012091 0.861000
-0.017022 0.003570 0.857000
0.016762 -0.008735 0.853000
0.027834 -0.014268 0.848000
0.013890 0.014741 0.871000
-0.007507 0.006752 0.858000
-0.020310 -0.019132 0.847000
0.007580 -0.015297 0.847000
-0.028641 0.033229 0.867000
-0.036338 0.003913 0.855000
-0.007229 0.027520 0.867000
-0.021306 -0.011435 0.845000
-0.011365 0.004622 0.856000
-0.021457 -0.004161 0.851000
-0.032896 -0.024648 0.857000
0.045125 -0.000669 0.865000
0.036200 -0.010879 0.856000
-0.033675 0.020406 0.868000
0.005605 0.026032 0.865000
0.007929 -0.011462 0.847000
-0.008646 0.012874 0.866000
-0.032923 0.034300 0.867000
0.031946 -0.022939 0.846000
0.009455 0.003224 0.859000
0.027455 0.027587 0.858000
0.024560 0.007188 0.868000
0.009544 0.022524 0.867000
-0.026856 0.032515 0.867000
-0.022243 0.030409 0.868000
0.047342 -0.010222 0.860000
-0.022697 -0.014218 0.845000
-0.032822 -0.013190 0.846000
0.019024 -0.001019 0.860000
-0.032566 0.018955 0.867000
0.035080 -0.025028 0.846000
0.035661 -0.004913 0.860000
-0.006848 0.030625 0.864000
0.036182 0.000043 0.864000
-0.015429 -0.011462 0.847000
0.025602 0.006466 0.867000
-0.031277 0.039732 0.861000
0.037607 -0.024739 0.848000
-0.000806 0.024693 0.868000
-0.024523 -0.006939 0.848000
0.003741 -0.016672 0.846000
0.028133 0.016476 0.868000
0.032173 -0.013634 0.852000
0.020407 -0.024275 0.844000
0.016738 0.017589 0.870000
-0.027276 0.031160 0.869000
-0.002215 0.007476 0.860000
-0.024813 -0.017368 0.846000
-0.038925 -0.013602 0.850000
-0.021007 -0.009022 0.847000
-0.027220 0.007793 0.856000
-0.008108 -0.008673 0.847000
0.015351 0.007868 1.889000
-0.023508 0.036940 0.862000
0.004916 0.013634 0.869000
0.039509 -0.007029 0.859000
-0.002566 0.033983 0.859000
0.018736 -0.017737 0.847000
-0.029456 0.022602 0.870000
-0.026732 0.036983 0.863000
-0.003281 0.032645 0.861000
-0.007879 0.009599 0.860000
0.003461 0.028103 0.863000
0.042288 0.024056 0.858000
0.035319 0.005766 0.869000
-0.011077 0.034771 0.861000
-0.021653 -0.016652 0.845000
0.029857 -0.022243 0.846000
-0.029478 -0.003806 0.850000
0.022261 0.000043 0.862000
0.030528 0.002535 0.865000
-0.034808 0.001445 0.852000
0.033615 -0.013650 0.853000
0.020226 0.005746 0.866000
-0.000801 0.030554 0.862000
-0.002926 0.008902 0.861000
0.021576 -0.016731 0.849000
-0.029016 -0.026059 0.857000
0.041277 0.021962 0.859000
-0.009055 0.019043 0.871000
-0.016206 0.018663 0.870000
-0.014400 -0.009731 0.848000
-0.002530 -0.020178 0.847000
-0.019474 0.023013 0.872000
-0.039974 -0.001707 0.850000
0.038448 -0.007029 0.859000
0.045324 -0.016277 0.862000
-0.003223 -0.016324 0.846000
-0.020502 0.001098 0.855000
0.000955 -0.016324 0.846000
-0.039437 -0.014979 0.869000
0.013329 0.002161 0.858000
-0.006009 -0.016672 0.846000
0.023966 -0.019132 0.847000
0.029579 -0.016362 0.848000
-0.003300 0.012161 0.866000
-0.021305 0.006760 0.859000
0.047974 -0.001737 0.865000
0.040373 0.008279 0.870000
-0.046951 0.007441 0.856000
-0.009851 -0.010765 0.847000
0.010345 -0.022217 0.845000
-0.031927 0.000392 0.850000
-0.032209 0.018955 0.867000
-0.031132 0.008860 0.857000
0.046442 -0.004220 0.863000
0.038179 -0.014703 0.853000
0.036909 -0.021597 0.848000
-0.005438 0.012518 0.866000
0.023708 0.000753 0.863000
-0.015134 -0.004856 0.850000
0.010528 0.029775 0.860000
0.047452 -0.006698 0.862000
-0.037044 -0.010068 0.847000
0.042939 -0.002447 0.864000
0.026457 -0.002789 0.860000
0.042066 0.003258 0.868000
0.035819 -0.027150 0.847000
-0.002241 0.023318 0.870000
-0.025188 0.022628 0.871000
0.030351 0.023404 0.860000
0.023928 0.013307 0.871000
0.029436 -0.006285 0.854000
0.031062 0.012934 0.870000
-0.026102 0.003206 0.854000
-0.007062 -0.009371 0.847000
0.024894 -0.025634 0.843000
0.600957 0.338108 14.638000
-0.044173 -0.005556 0.850000
0.006875 -0.012842 0.846000
-0.043072 -0.002055 0.849000
0.003131 0.015082 0.870000
-0.027602 0.019692 0.868000
0.020926 -0.013268 0.851000
-0.003631 0.033315 0.860000
-0.021705 -0.018783 0.847000
-0.012197 0.030660 0.865000
0.000956 -0.021223 0.847000
-0.045559 0.016026 0.863000
0.041352 0.013261 0.868000
0.000263 0.005706 0.860000
0.015599 -0.017040 0.847000
-0.018648 0.016458 0.867000
0.032913 -0.011543 0.853000
-0.002885 -0.005898 0.849000
-0.002223 0.030234 0.863000
-0.023699 0.018999 0.869000
0.041447 0.006846 0.870000
0.013158 -0.017389 0.847000
0.016315 -0.016362 0.848000
0.009091 0.032178 0.858000
-0.007769 -0.018456 0.848000
-0.030530 0.030838 0.870000
-0.009154 -0.010068 0.847000
-0.074485 0.059673 1.880000
-0.002593 0.025408 0.868000
0.027418 0.017191 0.868000
0.029816 0.002179 0.865000
0.042115 0.005050 0.869000
-0.026071 -0.023129 0.853000
-0.044138 0.016737 0.863000
0.006534 -0.024361 0.847000
-0.027061 -0.001009 0.851000
-0.023341 0.029729 0.869000
-0.036636 0.013524 0.862000
0.021797 -0.023927 0.844000
-0.015348 0.009267 0.862000
0.010068 -0.005912 0.851000
-0.041458 0.010649 0.859000
-0.038135 -0.003797 0.848000
0.000982 0.021528 0.870000
-0.021935 0.002861 0.856000
0.000259 -0.019109 0.846000
0.006712 0.020811 0.870000
-0.028277 0.009202 0.856000
0.003745 -0.022618 0.847000
-0.043025 0.005673 0.855000
0.039520 0.014673 0.867000
0.021152 -0.020154 0.846000
-0.011704 0.003561 0.855000
-0.021734 0.009622 0.862000
0.047098 -0.005279 0.862000
0.026905 0.000398 0.863000
-0.012306 -0.007637 0.848000
-0.020551 0.024089 0.872000
-0.048417 0.007450 0.857000
0.038136 0.013618 0.868000
-0.021986 0.023013 0.872000
-0.038711 0.002851 0.853000
-0.013945 0.033431 0.863000
-0.043529 0.009577 0.858000
0.018648 -0.002786 0.859000
0.048330 -0.002449 0.865000
0.016060 -0.008735 0.853000
0.000955 -0.018413 0.846000
0.023407 0.003959 0.865000
-0.032395 0.029473 0.872000
0.013143 -0.018413 0.846000
-0.010949 -0.001009 0.851000
0.041447 0.008279 0.870000
0.022678 -0.030780 0.851000
-0.024715 0.016814 0.867000
0.032121 0.023050 0.860000
0.000970 0.006406 0.859000
-0.051896 -0.001386 0.868000
-0.009525 -0.004850 0.849000
0.027711 0.018934 0.866000
-0.013702 -0.016362 0.848000
-0.028395 -0.005549 0.849000
-0.015484 -0.004156 0.850000
0.033497 -0.017800 0.850000
-0.044784 0.006728 0.855000
0.041447 0.010427 0.870000
-0.014689 0.012147 0.865000
-0.028429 -0.019549 0.850000
0.045731 -0.004220 0.863000
0.015306 0.011859 0.870000
-0.017241 0.016476 0.868000
-0.033598 -0.005193 0.848000
-0.029287 0.035645 0.865000
0.024475 0.019980 0.865000
0.004876 0.028425 0.862000
0.029305 0.010798 0.871000
-0.013234 0.009988 0.863000
-0.022089 0.036940 0.862000
-0.019765 0.030444 0.869000
0.022365 0.020359 0.866000
0.041727 -0.005982 0.861000
0.023380 0.021735 0.864000
0.043448 -0.006683 0.860000
0.017506 -0.006996 0.855000
0.011685 0.008964 0.867000
0.026642 0.018577 0.866000
0.009165 0.024964 0.865000
0.015910 -0.026738 0.845000
0.041485 -0.015460 0.856000
-0.015575 0.002857 0.855000
-0.000090 -0.008673 0.847000
-0.015502 -0.002060 0.851000
0.019915 0.018620 0.868000
0.029954 0.007554 0.869000
-0.030711 0.015708 0.865000
-0.011622 -0.003802 0.849000
0.034732 -0.027814 0.846000
-0.025570 -0.007288 0.848000
0.029272 0.010427 0.870000
0.015288 0.018641 0.869000
0.007929 -0.012160 0.847000
-0.046653 0.008860 0.857000
-0.034849 0.002851 0.853000
0.018496 -0.012231 0.852000
-0.019810 0.026930 0.871000
-0.041555 0.013509 0.861000
0.019265 -0.008403 0.855000
-0.009165 -0.006590 0.848000
0.045731 0.016026 0.863000
-0.034255 -0.013554 0.847000
-0.034700 0.007458 0.858000
0.015746 -0.003477 0.855000
-0.023697 -0.022153 0.856000
0.021500 -0.029555 0.846000
-0.030384 -0.009360 0.846000
-0.002223 0.010698 0.863000
0.023994 -0.018805 0.848000
0.009091 0.031118 0.858000
-0.043729 -0.008403 0.855000
0.029436 -0.006988 0.854000
0.036308 0.002898 0.867000
0.012055 0.020764 0.868000
-0.034033 0.008881 0.859000
-0.014416 0.019379 0.870000
-0.009991 0.037165 0.859000
0.036182 0.017823 0.864000
0.002059 0.020477 0.871000
-0.008338 0.020477 0.871000
-0.023261 0.032834 0.866000
0.026656 -0.006996 0.855000
0.000955 -0.011101 0.846000
-0.004268 -0.014931 0.846000
0.037344 0.023703 0.858000
-0.004036 0.017250 0.871000
-0.044925 0.000743 0.851000
-0.028948 0.007432 0.855000
0.014232 0.018305 0.870000
0.026043 -0.004195 0.858000
-0.038055 0.013879 0.862000
-0.033675 0.021121 0.868000
-0.030888 0.022244 0.870000
-0.015466 -0.005898 0.849000
-0.002554 -0.005588 0.855000
0.038851 0.013261 0.868000
0.034643 0.010427 0.870000
0.012000 0.024580 0.864000
-0.015866 0.026213 0.871000
0.011442 -0.009043 0.849000
0.040780 -0.012993 0.856000
0.005927 0.030837 0.860000
0.033264 -0.012597 0.853000
-0.047414 0.009930 0.858000
-0.018983 -0.006605 0.850000
-0.006721 -0.006590 0.848000
0.015910 -0.020825 0.845000
-0.023426 0.007467 0.859000
0.028068 0.018934 0.866000
0.014965 0.015458 0.871000
0.047397 -0.008817 0.861000
-0.006809 0.007467 0.859000
-0.002181 -0.013554 0.847000
-0.017849 -0.011101 0.846000
0.002696 -0.014234 0.846000
0.013438 0.007163 0.865000
-0.028773 0.022986 0.871000
0.038272 -0.002089 0.863000
0.023681 0.023458 0.862000
-0.019452 0.026213 0.871000
0.026967 0.019624 0.865000
-0.011064 0.035085 0.860000
0.030669 0.007912 0.869000
-0.016241 0.000393 0.853000
0.026377 0.016495 0.869000
0.043095 -0.007037 0.860000
0.029092 -0.026359 0.844000
0.006339 0.022550 0.868000
0.018150 0.010058 0.869000
0.006332 0.010034 0.867000
0.005219 0.030483 0.860000
0.013158 0.012218 0.870000
0.020745 -0.030327 0.858000
0.007029 0.024964 0.865000
-0.032277 -0.017800 0.850000
0.026225 0.001821 0.864000
-0.037042 0.004969 0.855000
0.014134 0.024580 0.864000
0.008277 -0.012160 0.847000
0.018529 0.017589 0.870000
0.037258 -0.022994 0.848000
0.020060 -0.023580 0.844000
-0.029165 0.025525 0.872000
-0.019117 0.002156 0.856000
0.023241 -0.030251 0.846000
0.044969 -0.004924 0.862000
0.009889 0.023567 0.866000
0.016117 -0.002776 0.856000
0.008453 0.024608 0.865000
0.028881 -0.017060 0.848000
0.016782 -0.006988 0.854000
-0.032036 0.025525 0.872000
-0.038720 0.012800 0.861000
0.018129 0.018977 0.868000
0.020770 0.029741 0.859000
0.036775 -0.014703 0.853000
0.029272 0.012218 0.870000
0.009197 0.021835 0.868000
0.050110 -0.007790 0.865000
0.036552 -0.010879 0.856000
-0.032277 0.000392 0.850000
-0.022079 -0.007288 0.848000
-0.036733 0.005679 0.856000
0.034643 0.011501 0.870000
-0.047767 0.009577 0.858000
0.012931 -0.001365 0.855000
-0.047952 0.005673 0.855000
0.025959 0.017885 0.867000
0.027776 -0.003838 0.857000
-0.018634 0.039083 0.958000
0.034285 0.008279 0.870000
0.019782 -0.018783 0.847000
-0.014993 0.009267 0.862000
0.006317 0.026032 0.865000
0.014052 0.002871 0.859000
-0.031081 -0.007967 0.846000
0.020828 -0.018434 0.847000
0.009312 -0.024680 0.846000
-0.035343 -0.005193 0.848000
0.025270 -0.028790 0.844000
-0.011854 0.012518 0.866000
-0.040626 -0.007995 0.849000
0.028035 0.019268 0.865000
0.046634 -0.013054 0.860000
-0.034726 -0.016051 0.850000
-0.010344 0.036104 0.859000
-0.042272 0.004260 0.854000
-0.008616 0.031655 0.863000
-0.000444 0.006760 0.859000
-0.017996 -0.001011 0.853000
-0.019446 0.000394 0.855000
0.016684 -0.014984 0.849000
0.032853 0.010785 0.870000
-0.014068 -0.006947 0.849000
-0.034827 0.023676 0.870000
-0.010773 0.030304 0.865000
-0.040976 -0.004501 0.849000
-0.001134 -0.014234 0.846000
0.051355 -0.000672 0.868000
-0.020409 0.014656 0.866000
0.012976 0.030412 0.858000
-0.025517 0.021886 0.870000
0.027387 -0.030911 0.845000
-0.018670 0.029338 0.868000
-0.037302 0.012446 0.861000
0.003847 0.020811 0.870000
0.025934 -0.026675 0.843000
-0.049648 0.008184 0.860000
-0.039783 0.012800 0.861000
-0.022012 0.006760 0.859000
0.009649 -0.019087 0.845000
-0.022366 0.039993 0.859000
0.029816 0.001823 0.865000
-0.042823 0.009930 0.858000
-0.034150 0.024420 0.871000
-0.036696 -0.012508 0.847000
-0.026902 -0.009011 0.846000
0.022391 0.019312 0.867000
-0.031228 -0.003107 0.850000
-0.030178 -0.003806 0.850000
-0.024901 -0.020225 0.849000
0.004786 -0.021895 0.846000
0.032991 -0.023636 0.846000
0.021900 -0.017409 0.848000
0.004200 0.013634 0.869000
-0.005111 0.020477 0.871000
-0.006455 0.034690 0.859000
0.028581 0.024466 0.860000
0.017294 0.025587 0.862000
-0.051182 -0.004244 0.868000
0.000621 0.010723 0.865000
-0.017996 -0.001713 0.853000
0.011210 0.031825 0.858000
-0.001865 0.009977 0.862000
-0.011923 0.023703 0.871000
-0.005413 0.031618 0.862000
-0.043926 0.001795 0.852000
0.007697 0.006060 0.860000
-0.023345 0.002156 0.856000
0.021011 0.017568 0.869000
-0.006840 0.011409 0.863000
-0.017558 0.014656 0.866000
-0.030348 -0.011783 0.845000
-0.026499 0.017885 0.867000
-0.021558 0.001098 0.855000
0.012961 0.000395 0.857000
-0.022938 0.000394 0.854000
0.006997 0.007484 0.861000
-0.047544 0.004260 0.854000
-0.009536 -0.003107 0.850000
0.007929 -0.014948 0.847000
0.011917 0.031118 0.858000
-0.047896 0.004963 0.854000
0.040015 0.007204 0.870000
0.034036 -0.028510 0.846000
-0.032040 -0.020672 0.853000
0.028162 0.026175 0.858000
0.029579 -0.019503 0.848000
0.012779 -0.023608 0.845000
-0.006714 -0.013205 0.847000
-0.003665 0.025765 0.868000
-0.017849 -0.014234 0.846000
-0.014819 -0.000309 0.852000
-0.044680 -0.007682 0.853000
-0.019264 -0.018086 0.847000
-0.012655 -0.017060 0.848000
-0.010673 0.006391 0.857000
0.032137 0.010069 0.870000
0.012840 -0.010441 0.849000
0.048517 -0.007408 0.862000
0.045021 0.017092 0.863000
-0.029929 0.037338 0.863000
0.050226 -0.000671 0.867000
-0.010489 0.018684 0.871000
0.040947 0.001827 0.867000
-0.002243 0.016892 0.871000
-0.015778 -0.010765 0.847000
-0.022349 -0.013522 0.845000
-0.006365 -0.018086 0.847000
0.018344 -0.020825 0.845000
-0.029934 -0.021374 0.853000
-0.007759 -0.014251 0.847000
0.033376 0.001111 0.865000
0.030348 -0.013602 0.850000
0.019513 0.021072 0.866000
0.035718 0.012576 0.870000
-0.030207 0.023345 0.871000
-0.020886 0.021194 0.871000
-0.042264 0.013863 0.861000
0.024372 -0.014984 0.849000
-0.045976 -0.005212 0.851000
0.037302 -0.021623 0.849000
0.041209 0.015708 0.865000
-0.034377 -0.002757 0.850000
-0.000447 0.029524 0.863000
-0.006478 0.011041 0.862000
0.038761 0.015369 0.866000
0.024475 0.020336 0.865000
-0.023392 -0.011783 0.845000
-0.029478 0.001441 0.850000
0.025390 -0.019154 0.848000
0.017649 -0.021173 0.845000
0.035080 -0.024680 0.846000
0.011972 0.026651 0.862000
-0.003319 0.017250 0.871000
-0.006575 -0.021205 0.875000
0.010021 -0.017040 0.847000
-0.015508 0.024420 0.871000
-0.024471 0.027288 0.871000
-0.030214 0.001793 0.851000
0.039565 0.003615 0.868000
-0.040162 0.003909 0.854000
-0.021007 -0.018783 0.847000
-0.024667 0.000042 0.853000
-0.001486 -0.021248 0.848000
0.012098 -0.025377 0.846000
-0.007254 0.016873 0.870000
-0.039690 0.010649 0.859000
0.029195 -0.020875 0.847000
0.011972 0.027361 0.862000
0.009102 0.030448 0.859000
-0.008338 0.018326 0.871000
0.038756 0.025115 0.858000
0.000971 0.032253 0.860000
-0.009055 0.022269 0.871000
0.045908 -0.021326 0.880000
-0.026071 0.001095 0.853000
0.036996 -0.019549 0.850000
-0.016942 0.024779 0.871000
-0.004698 0.032290 0.861000
0.034800 0.001111 0.865000
0.027484 -0.019154 0.848000
-0.032315 0.001443 0.851000
-0.008108 -0.013205 0.847000
-0.048997 0.010674 0.861000
0.030987 0.026175 0.858000
0.042691 0.021255 0.859000
0.022313 0.002888 0.864000
0.010357 -0.018413 0.846000
0.016998 0.005027 0.865000
-0.040044 0.011002 0.859000
-0.001482 -0.018761 0.846000
0.010693 -0.023608 0.845000
-0.022349 -0.012131 0.845000
-0.031927 -0.003456 0.850000
-0.018060 0.001452 0.856000
-0.029964 0.036315 0.864000
0.017455 0.011143 0.870000
0.002260 0.008526 1.467000
0.014954 -0.012902 0.850000
0.018103 -0.015001 0.850000
0.002384 0.032569 0.859000
-0.018916 -0.018434 0.847000
0.032196 -0.000667 0.862000
0.036516 -0.023315 0.847000
-0.009503 -0.013903 0.847000
0.045282 0.002544 0.868000
0.042066 0.002901 0.868000
0.004786 -0.017020 0.846000
-0.021986 0.024807 0.872000
-0.032036 0.025884 0.872000
0.000624 0.015082 0.870000
0.038050 0.023349 0.858000
-0.036647 0.003206 0.854000
-0.023645 0.017171 0.867000
-0.026608 0.041054 0.859000
-0.031023 0.005666 0.854000
0.039118 0.015369 0.866000
0.042890 -0.002799 0.863000
0.043802 -0.007037 0.860000
0.033727 -0.029939 0.847000
0.014656 -0.005575 0.853000
-0.024638 -0.002413 0.852000
-0.030033 0.034616 0.866000
0.026704 0.016476 0.868000
-0.009525 -0.018827 0.849000
0.009112 0.005352 0.860000
-0.031540 -0.004151 0.849000
-0.001861 0.008538 0.860000
0.035288 -0.016420 0.851000
-0.002530 -0.019132 0.847000
0.021449 -0.027748 0.844000
0.009112 0.030129 0.860000
0.041969 0.014300 0.866000
0.012255 0.000395 0.857000
0.014518 -0.020825 0.845000
0.023506 -0.026328 0.843000
0.035676 0.012919 0.869000
-0.020456 0.030767 0.868000
-0.034943 0.016045 0.864000
0.039383 0.017112 0.864000
-0.009370 0.013246 0.867000
-0.039291 0.009577 0.858000
0.016267 0.023868 0.864000
0.022433 -0.008403 0.855000
-0.134617 0.011388 2.283000
0.038711 0.024380 0.857000
0.036766 0.020596 0.861000
-0.018017 0.025854 0.871000
-0.026836 -0.025295 0.855000
-0.034215 -0.010752 0.846000
0.015764 -0.002776 0.856000
-0.001149 -0.022532 0.857000
-0.013385 -0.002757 0.850000
0.007910 -0.021173 0.845000
-0.029711 0.018242 0.867000
0.024774 0.022065 0.863000
-0.019560 0.007122 0.860000
-0.021429 0.012845 0.864000
0.038836 -0.017842 0.852000
0.011289 0.025646 0.864000
0.036015 0.021634 0.860000
0.024372 -0.016032 0.849000
0.031048 -0.013602 0.850000
-0.018228 0.012489 0.864000
-0.022345 0.024807 0.872000
-0.021000 0.036897 0.861000
0.005134 -0.013190 0.846000
-0.026102 -0.024562 0.854000
-0.026454 0.003909 0.854000
-0.026902 -0.010056 0.846000
0.029104 0.002891 0.865000
-0.000451 0.019043 0.871000
-0.006016 -0.013903 0.847000
-0.041675 -0.002754 0.849000
0.011750 -0.025028 0.846000
-0.029898 0.003899 0.852000
0.038314 -0.011584 0.856000
-0.006817 0.008891 0.860000
0.042989 -0.000669 0.865000
0.000977 0.026744 0.865000
-0.049964 0.011607 0.878000
0.000264 0.028136 0.864000
-0.025370 0.014995 0.865000
-0.031031 0.014978 0.864000
0.008268 -0.023984 0.846000
-0.013173 0.037872 0.859000
0.017795 -0.011881 0.852000
0.034049 0.000398 0.864000
-0.025280 -0.005206 0.850000
0.013267 -0.002770 0.854000
-0.010698 0.036458 0.859000
-0.021583 0.002156 0.856000
0.008405 0.029775 0.860000
-0.041471 0.002146 0.852000
0.000980 0.012904 0.868000
0.034116 -0.030323 0.848000
0.032345 0.002894 0.866000
0.001700 0.016533 0.871000
0.039417 0.024028 0.857000
0.012991 0.031508 0.859000
-0.018852 0.037562 0.860000
0.022261 0.023813 0.862000
0.008646 -0.008344 0.849000
-0.054858 0.052448 1.414000
-0.032716 0.030156 0.871000
-0.009154 -0.009371 0.847000
-0.029934 -0.022076 0.853000
-0.039062 0.002851 0.853000
0.039298 0.006846 0.870000
0.035237 0.015387 0.867000
0.041824 0.017802 0.863000
-0.050005 -0.000661 0.854000
-0.029165 0.028396 0.872000
0.018273 0.029353 0.858000
0.003095 0.006768 0.860000
0.027165 -0.002081 0.860000
0.018192 0.012949 0.871000
-0.031103 0.034616 0.866000
-0.022349 -0.015609 0.845000
0.012170 -0.006263 0.851000
0.020407 -0.024622 0.844000
0.007795 0.015816 0.871000
-0.025827 -0.012479 0.845000
0.002703 -0.009033 0.848000
0.037605 0.017467 0.864000
-0.011786 0.034062 0.861000
-0.047170 0.012077 0.860000
-0.002536 -0.005898 0.849000
-0.037525 -0.001707 0.850000
-0.027411 -0.003110 0.851000
0.043145 0.018824 0.861000
-0.029163 -0.019923 0.851000
-0.043823 -0.000658 0.850000
-0.007759 -0.014948 0.847000
0.003741 -0.012493 0.846000
-0.048542 -0.004171 0.853000
0.016959 0.024551 0.863000
0.003812 0.029490 0.862000
0.038802 -0.007736 0.859000
-0.024465 -0.016672 0.846000
-0.011471 0.031692 0.864000
0.018847 -0.012582 0.852000
-0.004379 0.013618 0.868000
-0.015437 0.014673 0.867000
-0.034862 0.012460 0.862000
-0.007759 -0.010068 0.847000
-0.026173 0.031838 0.868000
-0.003227 -0.009371 0.847000
0.017813 0.017589 0.870000
0.025839 0.000398 0.863000
-0.012640 -0.010416 0.847000
-0.039783 0.013154 0.861000
0.026999 0.004320 0.866000
0.015214 -0.026390 0.845000
-0.013326 0.016853 0.869000
0.014622 -0.010115 0.851000
-0.031228 0.001441 0.850000
-0.008108 -0.007976 0.847000
0.024203 0.017191 0.868000
-0.033756 -0.018894 0.852000
0.004152 0.031862 0.859000
0.029630 0.014008 0.870000
0.023689 0.003281 1.935000
0.003116 0.025706 0.866000
0.042066 0.003973 0.868000
-0.025517 0.021528 0.870000
-0.029305 -0.010740 0.845000
-0.021195 0.018641 0.869000
0.028397 -0.029833 0.844000
0.020319 0.011859 0.870000
-0.008300 0.013246 0.867000
0.007223 -0.023636 0.846000
-0.013448 0.002503 0.854000
-0.039212 -0.022775 0.880000
0.011380 0.014024 0.871000
-0.000092 0.015440 0.870000
0.011739 0.016533 0.871000
-0.045648 0.010636 0.858000
-0.007979 0.021911 0.871000
0.015232 -0.019457 0.846000
0.048218 -0.013455 0.863000
-0.025931 0.012785 0.860000
0.021197 0.000752 0.862000
0.021652 -0.012933 0.852000
-0.013004 -0.009033 0.848000
-0.005451 0.025765 0.868000
-0.047784 -0.004517 0.852000
0.029998 -0.011853 0.850000
0.001691 0.010736 0.866000
-0.027538 0.017151 0.866000
0.050110 -0.005654 0.865000
-0.029129 -0.002757 0.850000
0.002348 -0.011449 0.846000
-0.019115 0.025166 0.872000
-0.019682 -0.005556 0.850000
0.021475 -0.028825 0.845000
0.035163 -0.021248 0.848000
-0.036948 0.012800 0.861000
0.004166 0.008912 0.862000
0.032600 -0.009800 0.854000
0.041582 -0.009845 0.858000
0.034831 -0.008070 0.857000
-0.022349 -0.016652 0.845000
0.009912 0.011118 0.868000
-0.043123 -0.006255 0.850000
-0.017893 0.012503 0.865000
0.025965 -0.028790 0.844000
0.000264 0.027780 0.864000
-0.033907 -0.013554 0.847000
0.005637 0.014724 0.870000
-0.019810 0.026213 0.871000
-0.024029 0.031124 0.868000
-0.034911 -0.010404 0.846000
0.013778 0.024224 0.864000
0.029614 -0.017430 0.849000
-0.037394 0.004617 0.855000
-0.001844 -0.022050 0.852000
-0.006515 0.013603 0.867000
0.034547 -0.017800 0.850000
0.038982 0.018158 0.863000
0.029439 -0.027748 0.844000
0.021102 -0.023927 0.844000
-0.030914 0.001793 0.851000
0.034285 0.009353 0.870000
0.000618 0.009267 0.862000
-0.028529 0.004255 0.853000
0.008444 0.026358 0.864000
0.010293 0.012934 0.870000
-0.018433 0.002864 0.857000
0.018103 -0.014651 0.850000
-0.042673 0.006376 0.855000
0.022616 0.000043 0.862000
0.020649 -0.010151 0.854000
0.034009 -0.000668 0.863000
0.023241 -0.020850 0.846000
0.008079 0.026682 0.863000
0.015322 -0.010115 0.851000
-0.047823 0.010295 0.859000
0.003820 0.009644 0.864000
-0.000092 0.026775 0.866000
-0.030039 0.008498 0.856000
-0.010308 0.004622 0.856000
-0.017122 0.035521 0.862000
0.003469 0.010011 0.865000
0.040731 0.006488 0.870000
-0.029478 0.000042 0.850000
0.043347 -0.013024 0.858000
-0.020805 -0.002064 0.853000
-0.033831 0.026243 0.872000
0.049926 0.001472 0.868000
-0.042618 0.013154 0.861000
0.023163 -0.007356 0.856000
-0.010548 -0.008325 0.847000
-0.013700 0.019021 0.870000
0.005920 0.031155 0.859000
-0.013296 0.014673 0.867000
-0.020670 0.035876 0.862000
-0.004753 0.017609 0.871000
0.012549 -0.004171 0.853000
-0.024989 -0.001711 0.852000
0.029609 -0.001372 0.859000
0.030481 -0.026706 0.844000
-0.033716 -0.001359 0.851000
0.022625 -0.016731 0.849000
0.002047 0.025706 0.866000
-0.038484 -0.011476 0.848000
0.008041 0.030801 0.859000
0.046033 -0.015568 0.862000
0.037292 0.000755 0.865000
0.048872 -0.010246 0.862000
0.029885 0.005395 0.867000
-0.008930 0.008881 0.859000
-0.013912 0.035480 0.861000
-0.030004 0.007080 0.855000
-0.023726 0.020811 0.870000
0.013143 -0.018065 0.846000
0.040048 -0.003154 0.863000
0.024022 -0.017080 0.849000
0.014931 0.018999 0.869000
0.030734 -0.012217 0.851000
-0.033357 0.021860 0.869000
-0.029300 0.007784 0.855000
0.005996 0.013650 0.870000
-0.038833 -0.005193 0.848000
-0.014416 0.026899 0.870000
-0.006463 0.008538 0.860000
0.011341 0.020764 0.868000
0.014085 0.027684 0.861000
0.024249 -0.005954 0.857000
0.010293 0.014008 0.870000
-0.028630 0.008498 0.856000
0.029113 -0.033127 0.876000
0.023896 -0.006659 0.857000
0.033733 -0.008766 0.856000
0.017097 0.017231 0.870000
0.007598 -0.008694 0.849000
-0.036168 -0.017121 0.851000
0.033067 -0.004543 0.857000
-0.037437 -0.013570 0.848000
-0.026175 -0.014913 0.845000
0.035020 -0.014352 0.853000
-0.050192 0.013475 0.882000
0.005573 0.004290 0.860000
-0.004339 0.008538 0.860000
0.016704 -0.013602 0.850000
-0.008930 0.035397 0.859000
0.036210 -0.027880 0.848000
-0.022418 0.009611 0.861000
-0.033210 0.006384 0.856000
-0.019071 0.027973 0.870000
-0.018562 0.011054 0.863000
-0.028079 -0.004156 0.850000
0.003449 0.031545 0.860000
0.014742 0.030059 0.858000
-0.034187 -0.021047 0.854000
0.017214 -0.001723 0.858000
0.010602 0.008597 0.866000
-0.024436 -0.011783 0.845000
0.000962 -0.023102 0.852000
0.014849 -0.022190 0.844000
-0.013219 0.009622 0.862000
-0.031815 -0.006582 0.847000
0.016973 -0.027814 0.846000
-0.010119 0.025466 0.870000
-0.045922 -0.001707 0.850000
0.072870 0.046035 1.830000
0.017394 0.020026 0.867000
0.025989 0.007545 0.868000
-0.033867 -0.009011 0.846000
-0.005808 0.026480 0.868000
-0.022261 0.001098 0.855000
-0.010084 0.028590 0.867000
0.033537 0.022342 0.860000
-0.034563 -0.008315 0.846000
-0.000091 0.006760 0.859000
0.033211 0.011501 0.870000
-0.001160 0.027456 0.865000
-0.025217 0.024089 0.872000
-0.013977 0.011791 0.865000
-0.031210 0.032590 0.869000
-0.017659 0.026571 0.871000
-0.019429 0.019737 0.870000
0.004882 0.027748 0.863000
0.039463 0.023349 0.858000
0.028548 -0.001725 0.859000
-0.011352 0.003561 0.855000
0.019491 0.021404 0.865000
-0.039506 0.005321 0.855000
0.038224 -0.014017 0.854000
-0.028596 -0.024591 0.855000
-0.002930 0.031264 0.862000
-0.046246 0.007089 0.856000
-0.046408 0.011710 0.859000
0.007598 -0.007995 0.849000
0.023853 -0.026328 0.843000
-0.018735 0.025496 0.871000
0.018422 0.005383 0.865000
-0.017578 0.015744 0.867000
0.033300 -0.027433 0.845000
-0.002530 -0.010068 0.847000
0.018444 0.006102 0.866000
0.050998 -0.000672 0.868000
0.014989 -0.006971 0.852000
0.018486 0.019692 0.868000
-0.037741 -0.010416 0.847000
0.031748 -0.017450 0.850000
0.024831 0.003247 0.865000
0.030210 -0.003833 0.856000
0.002776 0.018684 0.871000
-0.036476 -0.001707 0.850000
-0.014400 -0.007986 0.848000
-0.022320 0.027647 0.871000
0.028198 0.013292 0.870000
-0.009693 0.011422 0.864000
-0.020903 0.002864 0.857000
0.046334 0.017761 0.861000
0.017506 -0.007700 0.855000
-0.022418 0.037960 0.861000
-0.001880 0.024364 0.869000
0.039657 0.007921 0.870000
0.031669 0.017171 0.867000
-0.037132 -0.002754 0.849000
-0.003635 0.032290 0.861000
0.045534 0.000399 0.866000
-0.027914 -0.010392 0.845000
0.023653 0.024140 0.861000
0.043495 0.012189 0.868000
0.009984 -0.006675 0.907000
-0.039428 0.012800 0.861000
0.025514 0.002532 0.864000
0.015838 0.002874 0.860000
-0.041458 0.010295 0.859000
-0.007621 0.021194 0.871000
0.050582 -0.007808 0.867000
0.024475 0.020692 0.865000
0.013603 -0.005224 0.853000
-0.007062 -0.016343 0.847000
-0.033280 0.018599 0.867000
0.029816 0.002891 0.865000
-0.011026 0.006744 0.857000
-0.020683 -0.007986 0.848000
0.029439 -0.026011 0.844000
-0.002181 -0.009022 0.847000
0.051713 -0.001386 0.868000
-0.021653 -0.014218 0.845000
-0.018347 -0.001713 0.853000
0.021677 0.019312 0.867000
-0.042116 0.009224 0.858000
-0.009381 0.027194 0.868000
-0.044132 0.007089 0.856000
0.052130 0.000043 0.869000
0.019365 -0.026706 0.844000
-0.029848 0.030156 0.871000
-0.011103 0.032010 0.863000
0.033497 -0.018150 0.850000
0.016661 0.006459 0.866000
0.003044 -0.012493 0.846000
0.011631 0.026327 0.863000
-0.011943 -0.010416 0.847000
-0.037741 -0.007279 0.847000
-0.037042 0.004617 0.855000
-0.005788 0.012147 0.865000
0.022380 -0.011895 0.853000
0.045177 0.013231 0.866000
0.047807 -0.006344 0.862000
0.012490 -0.009393 0.849000
-0.027991 0.020072 0.869000
-0.034417 -0.017821 0.851000
-0.022704 0.025884 0.872000
-0.006714 -0.010068 0.847000
0.002057 0.021528 0.870000
-0.024162 0.038624 0.860000
-0.029652 -0.023887 0.855000
0.046797 -0.004220 0.863000
0.018778 0.005383 0.865000
-0.028218 0.015351 0.865000
0.003493 0.019401 0.871000
0.045926 -0.013762 0.860000
-0.025217 0.024448 0.872000
0.009577 0.019379 0.870000
-0.029031 0.020049 0.868000
-0.027444 0.001795 0.852000
0.002401 0.027100 0.865000
-0.030805 -0.016362 0.848000
-0.041024 -0.001357 0.850000
-0.051837 -0.003882 0.867000
0.046033 0.017072 0.862000
-0.030249 0.038714 0.862000
-0.008338 0.021911 0.871000
-0.015778 -0.010068 0.847000
-0.029723 -0.006930 0.847000
0.024547 -0.025287 0.843000
-0.033598 -0.005891 0.848000
0.017134 -0.007691 0.854000
0.004786 -0.017368 0.846000
-0.011339 0.002854 0.854000
-0.008457 -0.015646 0.847000
-0.003677 0.022269 0.871000
-0.028696 0.010990 0.858000
0.021848 -0.020850 0.846000
0.021320 0.019312 0.867000
0.026049 0.014008 0.870000
0.036210 -0.027531 0.848000
-0.005041 0.007113 0.859000
-0.037964 0.001094 0.852000
0.010933 0.025291 0.864000
-0.015098 -0.010080 0.848000
-0.043225 -0.008374 0.852000
0.019243 -0.009448 0.854000
-0.008108 -0.009022 0.847000
-0.032604 0.033625 0.868000
0.024487 -0.010841 0.853000
-0.013686 -0.013554 0.847000
0.023542 0.010427 0.870000
-0.035608 -0.007619 0.846000
0.003098 0.008193 0.861000
0.038940 0.011143 0.870000
-0.026010 -0.021324 0.851000
0.005237 0.027393 0.863000
-0.009933 0.001800 0.854000
-0.001135 -0.013903 0.847000
-0.030878 0.000392 0.850000
-0.033404 0.011737 0.861000
-0.013234 0.033431 0.863000
-0.008242 0.010674 0.861000
-0.037702 0.002854 0.854000
0.030554 -0.021895 0.846000
-0.046216 0.014943 0.862000
0.038836 -0.016790 0.852000
0.010345 -0.022912 0.845000
0.025770 -0.013586 0.849000
0.023818 0.006109 0.867000
0.005830 -0.015627 0.846000
0.038847 -0.006683 0.860000
0.037465 0.006123 0.869000
-0.036029 0.005679 0.856000
0.046227 -0.010918 0.859000
0.005128 -0.018739 0.845000
0.003098 0.008547 0.861000
0.016704 -0.013952 0.850000
-0.020718 0.012133 0.864000
0.015556 0.005377 0.864000
0.010693 -0.019434 0.845000
-0.042074 -0.001357 0.850000
0.029988 0.014366 0.870000
-0.000788 -0.007288 0.848000
0.028050 -0.025664 0.844000
-0.025539 -0.017737 0.847000
-0.038541 -0.017204 0.873000
0.043600 0.016737 0.863000
0.014776 0.028359 0.860000
0.012795 -0.017716 0.846000
0.022511 -0.004548 0.858000
0.007326 0.032178 0.858000
-0.024812 0.008165 0.858000
0.038538 0.006123 0.869000
-0.011999 -0.001709 0.851000
0.027455 0.027940 0.858000
0.050939 -0.002098 0.867000
-0.033954 0.018577 0.866000
0.011509 -0.002418 0.854000
-0.033518 -0.007967 0.846000
-0.020122 0.029371 0.869000
0.024286 0.012590 0.871000
0.041576 0.021329 1.055000
-0.034563 -0.009011 0.846000
-0.022402 -0.018783 0.847000
-0.013204 0.008902 0.861000
-0.000090 -0.010068 0.847000
-0.005781 0.029558 0.864000
-0.031264 0.003194 0.851000
-0.033170 -0.009708 0.846000
-0.020430 -0.003465 0.852000
-0.031852 0.018599 0.867000
0.001698 0.015798 0.870000
0.025480 -0.011516 0.851000
-0.020958 -0.013522 0.845000
0.036680 -0.006675 0.859000
0.014866 -0.019782 0.845000
0.027103 -0.019829 0.847000
-0.034619 0.006032 0.856000
0.031062 0.008279 0.870000
0.033183 -0.001727 0.860000
0.019558 0.008260 0.868000
-0.027476 0.003202 0.853000
-0.042313 0.014943 0.862000
-0.036991 0.013879 0.862000
0.022998 0.022775 0.863000
-0.016572 -0.001711 0.852000
0.001342 0.016175 0.871000
0.036948 -0.009129 0.857000
0.017567 0.029353 0.858000
-0.031314 0.040133 0.862000
0.036168 -0.025058 0.847000
-0.031532 0.019692 0.868000
-0.004970 -0.009022 0.847000
0.035122 -0.028196 0.847000
0.025691 0.009711 0.870000
0.022971 0.000397 0.862000
-0.030137 0.021145 0.869000
-0.035551 -0.019267 0.853000
0.023673 -0.017080 0.849000
0.011476 -0.006155 1.005000
-0.009024 0.015047 0.868000
-0.034726 -0.002407 0.850000
-0.032474 -0.010056 0.846000
0.047863 -0.004575 0.863000
0.025187 0.020336 0.865000
-0.037482 0.007450 0.857000
-0.031318 0.025166 0.872000
-0.002530 -0.012160 0.847000
0.014019 0.000042 0.857000
-0.006455 0.007820 0.859000
0.032420 0.015405 0.868000
0.004537 0.026032 0.865000
0.027008 -0.006996 0.855000
0.002354 -0.008335 0.848000
-0.033796 0.002851 0.853000
0.007786 0.013292 0.870000
0.006635 0.030483 0.860000
0.040684 0.011846 0.869000
0.036284 -0.008433 0.858000
-0.016533 -0.005206 0.850000
0.015268 -0.016711 0.848000
0.040684 0.011488 0.869000
-0.038454 0.015671 0.863000
0.035744 0.020620 0.862000
0.034840 0.016439 0.866000
-0.035650 -0.012160 0.847000
0.019759 -0.029207 0.846000
-0.023835 0.037960 0.861000
0.024975 0.010427 0.870000
-0.036519 -0.000308 0.851000
0.045625 0.018470 0.861000
-0.036126 -0.002757 0.850000
0.033530 0.007196 0.869000
0.025396 0.025528 0.860000
0.001696 0.022576 0.869000
0.030134 -0.024622 0.844000
0.029161 -0.021895 0.846000
0.035001 0.011143 0.870000
0.041469 0.018158 0.863000
0.029988 0.010427 0.870000
0.000955 -0.018065 0.846000
-0.036347 -0.012857 0.847000
0.023078 0.004676 0.866000
-0.017976 0.028656 0.869000
0.017608 0.027297 0.860000
-0.026887 0.018977 0.868000
0.026881 -0.010466 0.851000
-0.009772 0.019401 0.871000
-0.034660 -0.023590 0.857000
-0.028145 -0.021699 0.852000
0.041018 0.019533 0.861000
0.006002 0.018684 0.871000
-0.035635 0.003913 0.855000
0.038224 0.010785 0.870000
-0.017976 0.018641 0.869000
0.019090 0.002174 0.863000
0.008850 0.011846 0.869000
-0.010332 0.007105 0.858000
0.041824 -0.003509 0.863000
0.028162 -0.002783 0.858000
-0.001165 0.015065 0.869000
0.024975 0.011143 0.870000
0.040333 -0.016126 0.854000
0.004893 0.009655 0.865000
0.015448 0.029706 0.858000
0.031778 0.010427 0.870000
-0.032061 0.038759 0.863000
0.015236 0.007528 0.866000
-0.035695 0.017132 0.865000
0.009923 0.012561 0.869000
-0.022678 0.028005 0.871000
-0.006872 0.027163 0.867000
0.027871 0.011515 0.871000
0.022287 0.001463 0.863000
-0.027276 0.020430 0.869000
0.010021 -0.012508 0.847000
-0.037744 0.015671 0.863000
-0.041666 0.006384 0.856000
0.034840 0.002894 0.866000
0.000622 0.012175 0.867000
-0.014134 0.001095 0.853000
-0.001833 -0.009022 0.847000
-0.008656 0.028233 0.867000
0.033300 -0.024303 0.845000
0.030481 -0.026359 0.844000
0.047783 0.001829 0.868000
-0.035094 -0.025060 0.859000
0.043347 -0.012671 0.858000
0.001336 0.011462 0.867000
0.024576 -0.029485 0.844000
-0.004036 0.019043 0.871000
0.001679 0.006768 0.860000
-0.032023 0.012815 0.862000
0.008473 0.009678 0.867000
0.014171 -0.020825 0.845000
-0.028112 0.002144 0.851000
0.004558 0.012919 0.869000
0.032257 -0.027781 0.845000
-0.030564 0.003194 0.851000
-0.031448 0.008145 0.856000
0.027582 -0.010466 0.851000
-0.001524 0.015798 0.870000
0.037150 0.007921 0.870000
-0.008676 0.016853 0.869000
0.003477 0.023951 0.867000
0.026273 -0.007691 0.854000
0.019525 -0.012917 0.851000
0.022545 -0.020154 0.846000
0.024220 -0.007709 0.856000
-0.029687 0.009202 0.856000
0.004786 -0.014234 0.846000
0.001303 -0.017716 0.846000
0.020987 0.008617 0.868000
-0.040578 -0.006590 0.848000
0.014965 0.016533 0.871000
-0.011564 0.021194 0.871000
-0.012321 -0.003802 0.849000
-0.021986 0.025525 0.872000
-0.011511 0.028947 0.867000
0.010234 0.008231 0.865000
0.016098 -0.004884 0.855000
-0.021305 0.038933 0.859000
-0.047727 -0.000658 0.851000
0.019502 -0.014302 0.850000
-0.018983 0.015013 0.866000
-0.018874 0.036897 0.861000
-0.005681 -0.004850 0.849000
-0.033716 -0.018171 0.851000
-0.005017 -0.021072 0.855000
0.014849 -0.021843 0.844000
0.028532 -0.019154 0.848000
0.038756 0.023703 0.858000
-0.049111 0.012119 0.863000
-0.025637 0.013879 0.862000
-0.000787 -0.013554 0.847000
0.017962 0.000042 0.860000
0.029928 -0.001723 0.858000
-0.028244 0.007432 0.855000
0.043195 -0.004924 0.862000
0.008277 -0.011114 0.847000
-0.023993 0.000394 0.854000
-0.008127 -0.004151 0.849000
0.004432 -0.018043 0.845000
-0.022548 0.015726 0.866000
-0.031927 -0.000658 0.850000
-0.008300 0.027876 0.867000
-0.019765 0.019357 0.869000
-0.039200 0.006736 0.856000
-0.041909 0.012800 0.861000
-0.027634 0.020787 0.869000
0.005134 -0.017716 0.846000
0.011388 -0.020825 0.845000
0.022564 -0.002081 0.860000
0.023001 -0.015701 0.850000
0.033058 0.002538 0.866000
-0.020262 -0.012479 0.845000
-0.033209 -0.006930 0.847000
0.035702 0.020950 0.861000
0.024923 -0.028443 0.844000
0.024634 -0.020850 0.846000
0.041469 0.017447 0.863000
0.028868 0.025821 0.858000
-0.002181 -0.020178 0.847000
0.034961 0.006123 0.869000
0.023299 0.024849 0.861000
0.029426 0.001109 0.864000
0.017383 -0.016032 0.849000
0.004094 -0.010416 0.847000
-0.031392 -0.010740 0.845000
0.015928 -0.018761 0.846000
-0.027637 0.010990 0.858000
-0.036696 -0.012160 0.847000
0.021427 -0.005601 0.857000
-0.010860 0.021577 0.872000
0.023186 -0.023232 0.844000
-0.012640 -0.012857 0.847000
0.014035 0.030412 0.858000
0.010394 -0.009393 0.849000
0.029718 -0.010127 0.852000
-0.021528 0.030052 0.868000
0.047452 -0.005634 0.862000
0.041856 0.039516 1.229000
0.014607 0.015816 0.871000
0.022826 0.011501 0.870000
0.028914 0.010427 0.870000
-0.028830 0.014234 0.862000
-0.030172 0.022244 0.870000
-0.008666 0.026480 0.868000
-0.014791 0.024420 0.871000
-0.011608 -0.005542 0.848000
0.034246 0.006123 0.869000
0.042879 0.006846 0.870000
0.093923 0.006694 7.672000
-0.015871 -0.000309 0.852000
-0.025696 0.014623 0.864000
-0.015429 -0.011114 0.847000
-0.024133 0.008528 0.859000
0.021394 0.015798 0.870000
-0.013463 0.004265 0.855000
0.014989 -0.007322 0.852000
0.036637 0.023703 0.858000
-0.010200 -0.013554 0.847000
-0.034190 0.026243 0.872000
-0.000445 0.032253 0.860000
-0.019914 0.006768 0.860000
0.000996 -0.024278 0.882000
-0.039737 0.011369 0.860000
-0.021000 0.037606 0.861000
-0.042373 -0.003103 0.849000
-0.036029 0.006032 0.856000
-0.008457 -0.014251 0.847000
-0.015259 0.004980 0.857000
0.008414 0.029101 0.861000
-0.039074 0.012446 0.861000
0.010382 -0.013570 0.848000
-0.023781 0.023730 0.872000
-0.011064 0.009245 0.860000
-0.017873 0.012133 0.864000
0.029505 -0.004890 0.856000
0.004899 0.024636 0.866000
0.024258 0.014366 0.870000
0.016933 -0.023580 0.844000
-0.048485 0.001094 0.852000
-0.008909 0.005333 0.857000
0.010044 -0.008344 0.849000
0.004927 0.015458 0.871000
-0.029653 -0.010044 0.845000
0.037258 -0.025088 0.848000
-0.016431 0.009988 0.863000
0.035553 0.016082 0.866000
-0.007428 -0.004501 0.849000
-0.012495 0.034417 0.861000
-0.036423 0.007097 0.857000
-0.029653 -0.010392 0.845000
0.014288 -0.006621 0.852000
-0.018633 -0.006605 0.850000
-0.002530 -0.012508 0.847000
0.017194 -0.003132 0.857000
0.022494 0.012949 0.871000
-0.026825 0.016082 0.866000
-0.000092 0.019401 0.871000
-0.005470 0.019043 0.871000
0.012991 0.003931 0.859000
0.032324 -0.005947 0.856000
-0.007933 0.028557 0.866000
-0.045894 0.007089 0.856000
0.046227 0.020902 0.859000
0.016933 -0.024969 0.844000
-0.037393 -0.010765 0.847000
-0.040586 0.015316 0.863000
0.033732 0.001467 0.865000
0.031582 -0.006996 0.855000
0.025336 0.027587 0.858000
-0.039321 -0.000658 0.851000
0.050881 -0.004947 0.866000
0.020109 0.025203 0.861000
-0.036956 -0.018565 0.853000
0.013173 0.015099 0.871000
0.004432 -0.020478 0.845000
-0.011077 0.034417 0.861000
0.013112 -0.021843 0.844000
0.045572 -0.013408 0.860000
0.024475 0.003603 0.865000
-0.046108 0.012077 0.860000
-0.024430 0.006039 0.857000
-0.004354 0.011409 0.863000
-0.040626 -0.003103 0.849000
-0.018165 0.007484 0.861000
-0.030462 -0.026443 0.858000
0.035946 -0.018850 0.850000
-0.013715 0.024779 0.871000
0.034088 0.000755 0.865000
-0.031318 0.026961 0.872000
0.013127 0.021121 0.868000
-0.015149 0.024779 0.871000
-0.032627 -0.001008 0.850000
-0.037393 -0.006930 0.847000
0.014573 0.011131 0.869000
-0.004026 0.015065 0.869000
0.049155 -0.000314 0.867000
0.027906 0.023431 0.861000
0.026225 0.020668 0.864000
0.043145 0.019179 0.861000
-0.000789 -0.006597 0.849000
0.001695 0.023979 0.868000
-0.037129 -0.022885 0.857000
-0.023909 -0.022374 0.851000
-0.009863 -0.006939 0.848000
-0.015834 -0.003456 0.850000
0.011402 -0.025028 0.846000
-0.018871 -0.012479 0.845000
-0.020527 0.021194 0.871000
-0.012524 0.032721 0.863000
-0.026962 0.040347 0.859000
-0.004349 0.031973 0.862000
-0.010072 0.013231 0.866000
-0.038484 -0.012174 0.848000
-0.032190 0.008508 0.857000
0.033693 0.000398 0.864000
0.022590 -0.001021 0.861000
0.003461 0.028458 0.863000
-0.025667 0.036628 0.863000
0.016900 0.001812 0.860000
-0.046326 0.001443 0.851000
-0.027056 0.014234 0.862000
0.042326 0.014300 0.866000
0.027323 0.019268 0.865000
0.020630 0.018977 0.868000
0.035246 -0.018500 0.850000
0.013236 -0.006270 0.852000
0.025989 0.017548 0.868000
0.033615 -0.012948 0.853000
0.018422 0.022472 0.865000
-0.014451 -0.001009 0.851000
0.003120 0.011105 0.867000
0.036516 -0.024709 0.847000
0.032257 -0.028129 0.845000
0.001305 -0.009371 0.847000
-0.013372 0.021936 0.872000
-0.025429 0.017528 0.867000
0.033569 0.009711 0.870000
-0.022444 0.036585 0.862000
-0.022652 0.021169 0.870000
0.027092 0.016138 0.869000
0.025071 -0.014634 0.849000
-0.027599 -0.014931 0.846000
0.035718 0.011501 0.870000
0.017899 -0.004543 0.857000
0.039630 -0.022805 0.854000
0.011429 -0.015664 0.848000
-0.024274 0.034892 0.864000
-0.007759 -0.017737 0.847000
0.033096 0.015744 0.867000
0.005495 -0.009731 0.848000
-0.026499 0.032872 0.867000
-0.011957 -0.010080 0.848000
-0.030214 0.013509 0.861000
0.026692 -0.030911 0.845000
-0.022418 0.037252 0.861000
-0.016942 0.020118 0.871000
-0.026293 0.024448 0.872000
-0.032321 0.022960 0.870000
0.011080 -0.012174 0.848000
0.047562 -0.003158 0.864000
-0.038315 0.000393 0.852000
0.014254 -0.012902 0.850000
0.014742 0.030765 0.858000
0.000266 0.020477 0.871000
0.014884 -0.027118 0.846000
0.054522 0.035046 8.414000
-0.001509 0.009256 0.861000
0.025720 0.012590 0.871000
-0.045754 0.012431 0.860000
0.038045 -0.019899 0.850000
0.045678 -0.004924 0.862000
-0.027218 -0.013522 0.845000
0.015893 0.024551 0.863000
0.029137 0.003251 0.866000
0.014587 -0.015333 0.849000
0.043445 0.001827 0.867000
-0.039880 -0.008335 0.848000
0.038927 -0.014017 0.854000
-0.030533 0.012077 0.860000
0.010357 -0.017368 0.846000
-0.007262 0.021911 0.871000
-0.041909 0.013863 0.861000
-0.011594 -0.012857 0.847000
0.023533 -0.024969 0.844000
0.029648 -0.012203 0.850000
-0.025871 0.009577 0.858000
-0.020169 0.021552 0.871000
0.025934 -0.025634 0.843000
-0.025131 -0.013522 0.845000
0.011341 0.010760 0.868000
0.034425 -0.029241 0.847000
0.004448 -0.008684 0.848000
0.025480 -0.011867 0.851000
0.030528 0.002179 0.865000
0.035020 -0.014703 0.853000
0.003048 -0.010068 0.847000
-0.020409 0.015369 0.866000
-0.030178 -0.003456 0.850000
-0.005463 0.023318 0.870000
0.002773 0.021169 0.870000
-0.028608 0.017151 0.866000
-0.034271 0.016420 0.865000
0.029988 0.008995 0.870000
-0.039484 -0.015857 0.878000
-0.038787 -0.009371 0.847000
-0.005058 0.011041 0.862000
0.010281 0.012204 0.869000
-0.032190 0.008155 0.857000
0.019068 0.001462 0.862000
-0.009370 0.027520 0.867000
-0.024687 0.033547 0.866000
-0.029437 0.012063 0.859000
0.040048 -0.002444 0.863000
-0.013463 0.003913 0.855000
0.013438 0.006807 0.865000
-0.001135 -0.009719 0.847000
0.021477 0.027619 0.859000
0.032991 -0.029903 0.846000
-0.008816 -0.005542 0.848000
0.016173 0.001103 0.859000
-0.034911 -0.010056 0.846000
0.018844 0.018620 0.868000
0.040732 -0.016145 0.855000
-0.047377 -0.000658 0.851000
-0.003639 0.031618 0.862000
0.041582 0.024056 0.858000
0.022196 -0.020154 0.846000
0.009477 0.028392 0.861000
0.019686 -0.004195 0.858000
-0.044329 0.003553 0.853000
0.007351 0.007130 0.861000
-0.030107 -0.005891 0.848000
-0.043831 0.008508 0.857000
0.015286 -0.015333 0.849000
0.015574 0.023184 0.865000
-0.027669 0.041054 0.859000
-0.023180 0.012119 0.863000
-0.008940 0.009953 0.860000
0.043138 0.002901 0.868000
-0.007737 0.052289 1.232000
-0.041217 0.004612 0.854000
0.029205 0.016476 0.868000
-0.001135 -0.010068 0.847000
-0.034457 -0.018193 0.852000
0.042994 -0.011258 0.858000
0.013555 -0.011503 0.850000
-0.000800 0.031936 0.861000
-0.162960 0.083876 3.910000
0.016625 -0.028162 0.846000
-0.010923 -0.004850 0.849000
-0.025250 -0.019526 0.849000
-0.046677 -0.002410 0.851000
0.029230 -0.015664 0.848000
0.004171 0.028458 0.863000
0.024147 0.019290 0.866000
0.021320 0.007180 0.867000
0.022485 -0.005954 0.857000
-0.010910 -0.006939 0.848000
0.036168 -0.026104 0.847000
-0.041675 -0.002055 0.849000
0.051296 -0.002455 0.867000
-0.133331 0.075959 3.231000
-0.017201 0.013944 0.866000
0.031011 -0.017080 0.849000
0.032362 0.025791 0.857000
-0.067775 0.012621 1.174000
-0.047690 0.014606 0.863000
-0.031641 0.024062 0.871000
0.046202 0.038755 1.237000
0.020179 0.023157 0.864000
-0.013880 0.037872 0.859000
0.035001 0.007563 0.870000
-0.026523 -0.012826 0.845000
0.041661 0.013960 0.867000
0.003493 0.019760 0.871000
0.012840 -0.011839 0.849000
0.008820 0.023924 0.866000
0.010663 0.016533 0.871000
0.036909 -0.022644 0.848000
0.001675 0.033590 0.858000
0.033694 -0.010515 0.855000
0.018066 0.022472 0.865000
0.033459 0.024762 0.858000
0.006332 0.023594 0.867000
0.016249 0.024906 0.863000
0.006665 0.026002 0.864000
0.012638 0.029387 0.859000
0.011736 -0.021521 0.845000
0.018670 -0.022190 0.844000
-0.018830 0.038226 0.859000
0.037508 0.009711 0.870000
-0.036733 0.006032 0.856000
0.015232 -0.027118 0.846000
-0.031495 0.034656 0.867000
-0.034296 -0.014268 0.848000
-0.019469 0.001452 0.856000
-0.008290 0.012518 0.866000
-0.027443 0.036983 0.863000
0.006642 0.006776 0.861000
0.033381 -0.006652 0.856000
-0.009503 -0.017040 0.847000
-0.008457 -0.013205 0.847000
0.036076 0.010427 0.870000
-0.049244 -0.000309 0.853000
0.043145 -0.006336 0.861000
0.022184 -0.004200 0.859000
-0.033558 -0.014251 0.847000
0.014085 0.004649 0.861000
0.021099 -0.004902 0.858000
0.006186 -0.010416 0.847000
0.023214 -0.021521 0.845000
-0.031889 0.033625 0.868000
-0.019821 0.001804 0.856000
-0.038585 0.008518 0.858000
-0.043276 0.012431 0.860000
0.017294 0.025232 0.862000
0.036948 0.024380 0.857000
0.021127 -0.021869 0.845000
0.003834 0.010748 0.867000
0.014101 0.026651 0.862000
-0.019219 -0.015609 0.845000
0.042081 0.019179 0.861000
0.039509 0.022316 0.859000
0.032084 -0.001725 0.859000
0.008258 -0.021521 0.845000
0.028183 -0.015664 0.848000
0.041180 -0.011598 0.857000
0.026913 -0.031869 0.852000
0.038005 0.017132 0.865000
0.007070 0.019737 0.870000
0.005134 -0.015279 0.846000
-0.011957 -0.016362 0.848000
0.027102 -0.003489 0.858000
0.017731 0.021429 0.866000
-0.029758 -0.016362 0.848000
-0.004976 -0.007288 0.848000
-0.001510 0.030554 0.862000
-0.013353 -0.008684 0.848000
-0.009514 -0.006939 0.848000
0.025661 0.015780 0.869000
0.014254 -0.011153 0.850000
-0.028023 0.041054 0.859000
0.032513 -0.001021 0.861000
-0.032125 -0.009360 0.846000
-0.019961 -0.019132 0.847000
-0.021379 0.009977 0.862000
-0.034417 -0.017121 0.851000
0.041969 0.001112 0.866000
0.026242 -0.008735 0.853000
0.046905 -0.002093 0.865000
0.028030 -0.007339 0.854000
0.047043 -0.007045 0.861000
0.014656 -0.006277 0.853000
0.004205 0.014724 0.870000
-0.009851 -0.009719 0.847000
0.023186 -0.023580 0.844000
-0.038180 -0.003103 0.849000
-0.038847 0.006032 0.856000
-0.009772 0.024420 0.871000
0.052548 -0.001389 0.870000
0.026281 -0.027368 0.843000
0.003838 0.012189 0.868000
0.005844 -0.024390 0.848000
-0.036948 0.012446 0.861000
-0.010810 0.015405 0.868000
0.025100 -0.012552 0.850000
0.031524 -0.026359 0.844000
-0.032977 -0.002057 0.850000
0.012184 -0.005218 0.852000
-0.041153 0.012077 0.860000
-0.022777 -0.007288 0.848000
-0.013715 0.023703 0.871000
-0.041169 0.002500 0.853000
0.018150 0.010773 0.869000
0.022537 0.026912 0.859000
-0.028362 -0.017060 0.848000
-0.036604 0.001446 0.853000
0.044864 -0.007391 0.860000
0.047752 -0.008462 0.861000
0.006875 -0.022243 0.846000
-0.001885 0.021194 0.871000
-0.038484 -0.011127 0.848000
0.007732 0.026358 0.864000
-0.025188 0.023345 0.871000
0.026088 -0.015664 0.848000
