0.009084 0.041897 0.892000
0.008756 -0.032039 0.896000
-0.014494 0.018873 0.897000
0.009483 -0.026110 0.895000
0.003962 -0.032408 0.896000
0.020443 0.039650 0.891000
-0.030031 -0.040844 0.887000
-0.035548 -0.016037 0.888000
-0.004156 -0.026168 0.897000
0.009505 -0.001063 0.897000
0.008737 0.024329 0.894000
-0.006748 -0.039872 0.898000
0.019402 -0.026202 0.911000
-0.002310 -0.017308 0.897000
0.018057 -0.023292 0.900000
0.035073 0.028250 0.890000
-0.026026 -0.016625 0.900000
0.029245 0.023514 0.891000
-0.002310 -0.033183 0.897000
-0.022347 -0.025172 0.901000
-0.006748 -0.023980 0.898000
-0.001937 0.036512 0.895000
-0.025145 0.000413 0.895000
-0.023063 -0.040702 0.900000
0.019776 -0.010259 0.894000
0.024477 0.025714 0.891000
0.023010 0.036349 0.891000
-0.001572 -0.033921 0.897000
0.003601 0.012980 0.898000
-0.018576 0.005588 0.898000
0.006175 -0.032039 0.896000
-0.010086 -0.011796 0.899000
0.023062 -0.003631 0.893000
0.023770 0.008855 0.892000
0.030712 0.013613 0.891000
-0.001205 -0.010316 0.899000
0.034432 0.009697 0.902000
0.011224 0.042392 0.887000
-0.007875 -0.008105 0.900000
-0.021187 -0.001066 0.899000
-0.016747 -0.017346 0.899000
0.011681 0.032424 0.894000
-0.001941 -0.037613 0.897000
-0.017737 0.015848 0.893000
0.022302 0.005918 0.892000
-0.004515 0.042038 0.895000
0.025606 0.005551 0.892000
-0.010097 0.001897 0.900000
0.005437 -0.024295 0.896000
0.025944 0.026448 0.891000
0.007273 -0.026478 0.895000
-0.028410 -0.043518 0.882000
0.007658 0.007797 0.897000
-0.027094 -0.047574 0.911000
-0.008986 0.010416 0.900000
0.005449 0.009654 0.898000
-0.029393 -0.026285 0.901000
-0.004525 -0.020999 0.897000
-0.013817 -0.002551 0.901000
0.000275 -0.010686 0.899000
0.024111 0.024981 0.891000
-0.006733 0.035816 0.896000
0.019343 0.038183 0.891000
-0.022322 -0.017365 0.900000
-0.029665 -0.039133 0.898000
0.011681 -0.017986 0.894000
-0.024544 -0.019218 0.900000
-0.031989 -0.032218 0.901000
-0.018206 0.005958 0.898000
0.017549 0.016216 0.893000
-0.036760 -0.010484 0.882000
0.008028 -0.004755 0.897000
0.009146 -0.037285 0.898000
-0.002670 0.043463 0.894000
0.026002 0.000779 0.893000
0.038456 0.023908 0.892000
0.019732 0.013261 0.892000
0.004705 0.032164 0.897000
-0.014125 0.018504 0.897000
0.015026 -0.022820 0.896000
-0.001200 0.027303 0.895000
0.006161 0.038679 0.894000
0.018304 -0.013570 0.894000
-0.001203 -0.043520 0.897000
0.003958 0.035776 0.895000
0.019386 0.007027 0.893000
0.029844 0.001892 0.898000
0.002859 -0.044258 0.897000
-0.003762 0.046251 0.891000
0.008835 -0.044232 0.904000
0.014976 0.014378 0.893000
0.013888 -0.005475 0.894000
0.001407 -0.046551 0.913000
-0.006364 0.024752 0.896000
0.017549 0.007395 0.893000
0.031776 0.032645 0.890000
-0.017370 0.019156 0.893000
0.019386 0.027242 0.893000
0.013873 0.019156 0.893000
0.031410 0.020557 0.890000
0.012799 0.009253 0.895000
0.024192 -0.004739 0.894000
0.026678 0.026081 0.891000
0.018997 0.019869 0.892000
0.010232 -0.028720 0.896000
-0.003418 -0.016938 0.897000
0.014919 -0.034113 0.912000
0.017529 0.019502 0.892000
0.020466 0.033086 0.892000
0.030012 0.011425 0.892000
-0.003042 0.033197 0.895000
-0.001205 -0.011056 0.899000
-0.015266 -0.012166 0.899000
0.024645 0.040911 0.871000
-0.028249 -0.008846 0.900000
-0.013046 -0.043617 0.899000
-0.035832 -0.015637 0.886000
-0.000464 -0.029122 0.897000
-0.005276 0.015585 0.899000
0.004331 0.017008 0.896000
0.024300 -0.009565 0.898000
0.001751 -0.035029 0.897000
-0.032216 -0.036875 0.897000
-0.034138 -0.019196 0.899000
0.020099 0.015831 0.892000
-0.010479 -0.000326 0.901000
0.025211 0.025348 0.891000
-0.026055 -0.024060 0.901000
-0.024544 -0.010327 0.900000
0.017916 0.015481 0.893000
0.028461 -0.002551 0.901000
-0.000095 0.019589 0.896000
0.009830 0.037901 0.893000
0.017896 0.034187 0.892000
-0.019597 0.013658 0.894000
0.005051 0.041944 0.893000
0.017588 0.026198 0.895000
0.001013 -0.033552 0.897000
-0.016006 -0.011796 0.899000
0.032143 0.023854 0.890000
0.019019 0.008865 0.893000
0.033723 0.037814 0.874000
0.015328 -0.036069 0.914000
0.003593 -0.025033 0.896000
-0.006726 0.037986 0.895000
0.006544 -0.026139 0.896000
0.035034 0.034072 0.889000
0.006544 -0.029458 0.896000
0.022777 -0.019077 0.911000
-0.029764 -0.016643 0.901000
0.021930 -0.018994 0.907000
0.022669 0.015831 0.892000
-0.014880 0.011132 0.898000
-0.004895 -0.022845 0.897000
-0.005996 0.020696 0.896000
-0.031618 -0.022206 0.901000
0.012049 -0.008051 0.894000
0.001013 -0.038721 0.897000
0.022302 0.016565 0.892000
-0.015989 0.007067 0.898000
0.041719 0.025575 0.899000
0.007667 0.001892 0.898000
0.021177 0.037816 0.891000
0.028975 0.004828 0.894000
-0.020424 0.001523 0.898000
0.002862 0.011132 0.898000
0.019732 0.009222 0.892000
-0.007487 -0.033220 0.898000
-0.013046 -0.042877 0.899000
-0.027878 -0.012180 0.900000
-0.023037 -0.002176 0.899000
0.021568 0.021338 0.892000
-0.010097 -0.011439 0.900000
-0.021586 -0.045852 0.885000
0.019473 -0.017308 0.897000
0.006195 -0.045837 0.899000
-0.002315 -0.010316 0.899000
0.019365 0.017299 0.892000
-0.015266 -0.035107 0.899000
0.025944 0.020214 0.891000
-0.005646 -0.028817 0.899000
-0.022322 -0.028108 0.900000
0.021592 -0.005101 0.893000
0.010969 0.011108 0.896000
-0.000833 -0.018415 0.897000
-0.008245 -0.009587 0.900000
0.004700 -0.029458 0.896000
-0.031247 -0.018126 0.901000
-0.011963 0.002270 0.901000
-0.013046 -0.041027 0.899000
-0.017506 -0.003660 0.900000
-0.007487 -0.032480 0.898000
0.014256 -0.014674 0.894000
-0.015935 0.018094 0.895000
0.017588 0.025093 0.895000
0.006168 -0.023163 0.895000
0.034785 0.019135 0.892000
0.032875 0.023854 0.890000
-0.013786 -0.032147 0.899000
-0.028406 -0.046143 0.905000
-0.021927 -0.006986 0.899000
0.028575 0.004822 0.893000
0.005793 0.025433 0.894000
0.005068 -0.028352 0.896000
0.031263 0.000418 0.907000
-0.006009 0.018155 0.898000
0.021592 -0.005837 0.893000
0.015326 0.038226 0.892000
0.007658 0.012966 0.897000
0.012062 -0.021321 0.895000
0.020237 0.042153 0.882000
0.022644 0.027915 0.891000
0.009483 -0.027215 0.895000
0.027044 0.033049 0.891000
-0.020655 -0.045480 0.892000
-0.034778 -0.012734 0.887000
0.010243 -0.033183 0.897000
-0.005652 -0.009587 0.900000
0.022644 0.039283 0.891000
-0.010730 0.037449 0.891000
0.031919 0.009243 0.894000
0.013888 -0.010627 0.894000
0.014608 0.020994 0.893000
-0.009705 -0.013631 0.898000
0.032540 0.005978 0.901000
0.015343 0.007395 0.893000
0.016078 0.009233 0.893000
0.022277 0.030848 0.891000
-0.004889 0.029915 0.896000
-0.004161 -0.028415 0.898000
-0.011553 -0.021392 0.898000
-0.015989 0.006697 0.898000
0.029978 0.018747 0.891000
-0.012292 -0.015848 0.898000
-0.036760 -0.011210 0.882000
-0.017059 0.014058 0.896000
0.031776 0.022755 0.890000
0.035846 0.023881 0.891000
0.009830 0.036063 0.893000
-0.016024 -0.004771 0.900000
0.021200 0.007020 0.892000
0.022377 -0.009165 0.895000
-0.024544 -0.018477 0.900000
0.025211 0.016913 0.891000
-0.026767 -0.015884 0.900000
0.000274 -0.017308 0.897000
-0.022692 -0.040332 0.900000
-0.010421 0.029178 0.896000
0.038824 0.025376 0.892000
0.021090 -0.018538 0.903000
-0.013786 -0.020676 0.899000
-0.016747 -0.035477 0.899000
0.016813 0.012173 0.893000
0.020466 0.031250 0.892000
0.009841 0.017706 0.894000
-0.023037 -0.005876 0.899000
-0.004161 -0.015848 0.898000
-0.016377 -0.019196 0.899000
-0.030505 -0.026656 0.901000
-0.030135 -0.025543 0.901000
-0.010456 -0.024006 0.899000
-0.014109 0.021065 0.896000
0.005068 0.016270 0.896000
0.028846 0.034111 0.890000
-0.035170 -0.029860 0.897000
-0.004900 -0.036916 0.898000
0.013152 -0.006579 0.894000
-0.010778 0.031724 0.895000
-0.001566 0.043463 0.894000
0.005812 0.014812 0.897000
-0.011923 -0.016588 0.898000
0.023482 -0.008060 0.895000
-0.012306 -0.040287 0.899000
0.002490 -0.045366 0.897000
0.013505 0.033858 0.893000
0.030815 0.007403 0.894000
-0.008529 0.040750 0.891000
0.003975 -0.004766 0.899000
0.004700 0.029178 0.896000
0.002862 -0.013631 0.898000
-0.035777 -0.029688 0.903000
0.009841 0.014762 0.894000
0.020466 0.003715 0.892000
-0.006741 -0.020630 0.897000
-0.034047 -0.010908 0.887000
0.013808 -0.038660 0.913000
0.013520 -0.016882 0.894000
-0.018659 -0.023715 0.902000
-0.015636 -0.017346 0.899000
0.017836 0.040292 0.889000
-0.020886 -0.021117 0.902000
0.033974 0.025319 0.890000
-0.022667 -0.002176 0.899000
0.029578 0.031180 0.890000
0.000644 0.012980 0.898000
0.018714 -0.018395 0.896000
-0.031989 -0.031847 0.901000
0.015326 0.037491 0.892000
-0.007110 0.019980 0.897000
-0.014156 -0.036957 0.899000
-0.000095 -0.022082 0.896000
-0.013431 0.006712 0.900000
-0.003049 -0.026168 0.897000
0.001013 -0.037244 0.897000
0.005812 -0.040197 0.897000
0.003597 -0.044997 0.897000
-0.032585 -0.036505 0.897000
0.008737 0.035368 0.894000
-0.009716 -0.032147 0.899000
0.027778 0.017647 0.891000
0.029429 -0.004066 0.908000
0.004331 -0.018026 0.896000
0.020347 -0.020025 0.903000
0.018630 0.035656 0.892000
-0.021187 -0.008096 0.899000
-0.021245 -0.045904 0.886000
-0.014863 0.018135 0.897000
0.031848 0.013261 0.892000
-0.016395 -0.006623 0.900000
-0.015215 0.018852 0.896000
0.018630 0.037859 0.892000
-0.010479 -0.007001 0.901000
0.006897 0.038311 0.894000
0.009115 0.032829 0.895000
-0.034062 -0.026168 0.897000
-0.006379 -0.033589 0.898000
-0.036524 -0.019089 0.894000
0.001751 -0.014723 0.897000
-0.001945 -0.013276 0.899000
-0.003410 0.040564 0.895000
-0.022667 -0.005876 0.899000
-0.028651 -0.035185 0.901000
-0.015654 0.000785 0.900000
0.010220 -0.016901 0.895000
0.019338 -0.024620 0.908000
-0.013371 0.024384 0.896000
0.027778 0.026081 0.891000
-0.011949 0.005601 0.900000
-0.003475 -0.043497 0.912000
0.016795 0.034921 0.892000
-0.030472 -0.010698 0.900000
0.020489 -0.001794 0.893000
0.035073 0.024220 0.890000
0.018284 -0.004734 0.893000
0.029945 0.032279 0.890000
-0.017837 0.006697 0.898000
0.006920 -0.009555 0.897000
0.014543 -0.034864 0.912000
0.028145 0.025714 0.891000
-0.000465 0.015198 0.898000
0.026311 0.024981 0.891000
-0.020470 -0.042184 0.900000
0.010232 -0.032039 0.896000
-0.034138 -0.021786 0.899000
-0.030876 -0.019610 0.901000
0.006529 0.021385 0.894000
-0.022692 -0.012920 0.900000
-0.010075 -0.016588 0.898000
0.025211 0.031949 0.891000
0.011325 -0.002534 0.895000
0.025944 0.026815 0.891000
-0.025313 -0.029251 0.901000
-0.004856 0.044367 0.890000
0.005063 0.027672 0.895000
-0.029764 -0.036297 0.901000
0.028878 0.016913 0.891000
-0.028958 -0.006986 0.899000
0.036988 0.021338 0.892000
-0.031618 -0.027768 0.901000
0.008737 0.018074 0.894000
0.002118 -0.032777 0.896000
-0.003779 0.034302 0.895000
0.015693 0.037124 0.892000
0.024816 0.039605 0.890000
0.036539 0.026052 0.890000
0.026678 0.018380 0.891000
-0.018267 -0.020722 0.901000
0.012076 0.028809 0.896000
0.001753 0.015568 0.898000
-0.020447 -0.014756 0.899000
-0.034431 -0.027645 0.897000
-0.024081 -0.044658 0.883000
0.013167 0.030250 0.895000
0.008037 -0.001804 0.898000
-0.022223 0.001151 0.896000
-0.010363 0.037083 0.891000
-0.025684 -0.030735 0.901000
0.008756 -0.033883 0.896000
0.009863 -0.029458 0.896000
-0.003795 0.014845 0.899000
0.006209 -0.047422 0.901000
0.038867 0.023199 0.893000
0.028145 0.011412 0.891000
0.031883 0.012173 0.893000
0.013596 -0.031777 0.899000
-0.013771 -0.014740 0.898000
-0.019751 -0.027026 0.901000
0.024477 0.018013 0.891000
0.027105 0.002249 0.893000
0.014992 0.001148 0.894000
-0.029967 -0.039415 0.896000
-0.029566 -0.002903 0.895000
0.010957 -0.018006 0.895000
-0.019854 -0.046425 0.889000
0.004700 -0.020607 0.896000
0.003232 0.010763 0.898000
-0.006009 -0.015109 0.898000
0.012049 -0.014306 0.894000
-0.018227 -0.014386 0.899000
0.018860 -0.023370 0.903000
0.007289 0.013335 0.897000
0.011681 -0.009155 0.894000
0.003228 0.015919 0.897000
0.015693 0.033453 0.892000
-0.028651 -0.016643 0.901000
-0.017098 0.009654 0.898000
-0.026797 -0.027768 0.901000
0.032251 0.011805 0.893000
-0.024915 -0.017365 0.900000
-0.007487 -0.015848 0.898000
0.008397 0.008166 0.897000
0.025915 0.039971 0.890000
0.002118 -0.032408 0.896000
0.000644 -0.041305 0.897000
0.017607 -0.018763 0.896000
-0.012306 0.011145 0.899000
0.020550 -0.024354 0.912000
0.002859 -0.045735 0.897000
-0.011910 0.022565 0.897000
-0.030505 -0.016272 0.901000
-0.007118 -0.035807 0.898000
0.023036 0.011425 0.892000
0.032143 0.022755 0.890000
-0.015654 -0.021070 0.900000
0.019019 -0.007674 0.893000
-0.001572 -0.035398 0.897000
-0.030636 -0.040063 0.894000
0.031672 0.000419 0.908000
0.030643 0.038463 0.889000
-0.013061 0.005230 0.900000
0.000641 0.041255 0.894000
-0.029393 -0.017014 0.901000
-0.033693 -0.033183 0.897000
0.005443 0.032164 0.897000
0.008776 -0.038764 0.898000
0.042647 0.025317 0.903000
0.029272 0.039789 0.870000
0.019386 -0.000323 0.893000
-0.004900 -0.031372 0.898000
0.013152 -0.001428 0.894000
0.016813 0.030550 0.893000
0.006161 0.018074 0.894000
-0.004152 0.024384 0.896000
0.016889 -0.023215 0.897000
-0.016267 0.023199 0.893000
0.023403 0.009957 0.892000
0.013388 -0.037409 0.910000
-0.022000 -0.024086 0.902000
0.032143 0.031913 0.890000
-0.016006 -0.017346 0.899000
0.004689 0.020650 0.894000
0.015343 0.014378 0.893000
-0.030505 -0.029993 0.901000
0.027657 -0.003286 0.899000
0.020833 0.029415 0.892000
0.020833 0.024642 0.892000
-0.016006 -0.037697 0.899000
-0.024174 -0.019218 0.900000
0.004694 0.027303 0.895000
0.014240 0.012173 0.893000
-0.020840 -0.027367 0.900000
-0.031247 -0.028881 0.901000
0.032143 0.024220 0.890000
-0.028280 -0.028510 0.901000
-0.010456 -0.032147 0.899000
-0.007429 0.043317 0.891000
0.018651 0.004455 0.893000
0.012770 0.014746 0.893000
0.004700 -0.022082 0.896000
0.016446 -0.005101 0.893000
0.005806 -0.030933 0.896000
0.013138 0.032755 0.893000
-0.030101 -0.011068 0.900000
0.022302 0.020971 0.892000
0.009125 0.029915 0.896000
0.026311 0.011046 0.891000
0.013152 -0.017618 0.894000
-0.017136 -0.005882 0.900000
-0.017658 -0.047888 0.889000
-0.010097 -0.010698 0.900000
0.013138 0.035328 0.893000
-0.015283 -0.028849 0.900000
-0.030636 -0.005843 0.894000
0.008378 0.027303 0.895000
-0.014880 -0.047264 0.898000
0.016078 0.019891 0.893000
-0.024915 -0.021440 0.900000
0.002118 -0.034990 0.896000
-0.000832 0.019958 0.896000
0.002481 0.042359 0.894000
0.022033 -0.012125 0.896000
0.012417 0.011451 0.894000
0.019274 -0.023422 0.905000
-0.018967 -0.005876 0.899000
0.019829 0.043144 0.880000
0.017509 0.039283 0.891000
0.018997 0.017666 0.892000
0.020489 -0.002529 0.893000
0.023403 0.005551 0.892000
-0.008986 -0.008475 0.900000
0.022669 0.017666 0.892000
0.013167 0.005201 0.895000
-0.016304 0.016989 0.895000
0.025494 -0.008485 0.901000
0.031728 0.005225 0.899000
0.016078 0.004087 0.893000
0.009115 -0.021321 0.895000
0.007641 -0.017269 0.895000
0.005029 0.045415 0.889000
0.011694 -0.024268 0.895000
0.016813 0.010335 0.893000
-0.012988 0.026567 0.895000
-0.012334 -0.004035 0.901000
-0.030101 -0.010698 0.900000
-0.014847 0.018852 0.896000
-0.025656 -0.005141 0.900000
0.020833 0.032719 0.892000
0.008028 0.002629 0.897000
0.014992 0.005931 0.894000
0.019386 -0.002896 0.893000
-0.002313 0.018155 0.898000
-0.016006 -0.034367 0.899000
-0.016377 -0.040287 0.899000
0.011363 -0.033220 0.898000
-0.030808 -0.009576 0.899000
0.007633 0.016970 0.894000
0.033242 0.030814 0.890000
0.033316 0.016932 0.892000
-0.023459 -0.020351 0.901000
-0.018946 0.003740 0.898000
-0.004884 0.037249 0.895000
0.009135 0.011120 0.897000
-0.020817 -0.009946 0.899000
0.023744 0.033415 0.891000
0.010778 -0.043824 0.911000
0.033646 0.018380 0.891000
0.031883 0.010703 0.893000
-0.000831 0.036512 0.895000
0.002490 -0.014723 0.897000
-0.004895 0.019611 0.897000
0.007658 -0.038351 0.897000
0.008019 -0.033514 0.896000
-0.016006 -0.034737 0.899000
-0.000095 0.036881 0.895000
-0.011566 -0.038807 0.899000
0.002490 -0.038721 0.897000
0.007265 0.016970 0.894000
0.028878 0.011412 0.891000
-0.034801 -0.033552 0.897000
0.009135 0.011489 0.897000
0.026311 0.010312 0.891000
0.001012 -0.021345 0.896000
-0.033285 -0.039482 0.906000
0.010565 0.021362 0.893000
-0.020840 -0.028108 0.900000
-0.030135 -0.021093 0.901000
0.012785 0.011083 0.894000
-0.029764 -0.014047 0.901000
0.021935 0.016932 0.892000
-0.022297 -0.008096 0.899000
-0.008539 0.040428 0.892000
0.019710 0.039283 0.891000
0.028113 0.038873 0.890000
-0.034856 -0.014592 0.889000
0.025352 -0.005856 0.896000
-0.012306 0.010405 0.899000
0.015711 0.019524 0.893000
-0.031882 -0.011783 0.898000
-0.034239 -0.014641 0.892000
0.022302 0.001145 0.892000
0.003931 0.045781 0.889000
-0.005270 -0.032480 0.898000
-0.001941 -0.031337 0.897000
0.011668 0.019524 0.893000
0.023211 0.041986 0.871000
-0.009356 0.007453 0.900000
-0.027077 -0.003282 0.898000
0.000641 0.044517 0.893000
0.017916 -0.001059 0.893000
-0.023744 -0.044708 0.884000
0.022377 -0.008797 0.895000
-0.021951 -0.014032 0.900000
0.018848 0.041568 0.885000
0.021200 0.028680 0.892000
-0.027539 -0.019610 0.901000
-0.008966 0.017416 0.898000
-0.006386 0.012995 0.899000
-0.004525 -0.033921 0.897000
-0.013075 0.000786 0.901000
0.010600 -0.029089 0.896000
0.036703 0.018442 0.894000
0.001380 -0.018026 0.896000
-0.024572 -0.037410 0.901000
0.007297 -0.041351 0.898000
0.006544 -0.035727 0.896000
-0.017876 -0.028478 0.900000
0.020121 0.000412 0.893000
0.029978 0.016913 0.891000
0.013167 0.001149 0.895000
-0.009716 -0.011796 0.899000
-0.013802 0.003749 0.900000
-0.014156 -0.012906 0.899000
0.010232 -0.031302 0.896000
0.023403 0.009222 0.892000
-0.008615 -0.009216 0.900000
-0.013771 0.014828 0.898000
-0.020099 -0.042184 0.900000
0.027809 0.007020 0.892000
0.006544 -0.027245 0.896000
-0.024389 -0.045645 0.881000
-0.021187 -0.011426 0.899000
-0.022692 -0.011068 0.900000
-0.013771 -0.019175 0.898000
-0.001193 0.046565 0.890000
-0.019337 -0.014756 0.899000
0.037195 0.014960 0.906000
-0.011476 0.037491 0.892000
0.027809 0.008855 0.892000
-0.017857 -0.004396 0.899000
0.026311 0.022781 0.891000
-0.025313 -0.036668 0.901000
-0.000095 -0.025799 0.897000
-0.006733 0.030284 0.896000
-0.026250 -0.000693 0.895000
0.011681 0.032792 0.894000
0.019754 -0.003999 0.893000
-0.020863 -0.025914 0.901000
0.041394 0.024492 0.900000
0.008081 -0.045298 0.903000
0.016446 0.015848 0.893000
0.011668 0.039004 0.893000
0.016096 -0.015410 0.894000
-0.026026 -0.008846 0.900000
0.034509 0.008230 0.904000
0.021568 0.005551 0.892000
-0.004900 -0.028045 0.898000
-0.001941 -0.038721 0.897000
-0.007537 -0.040511 0.904000
0.013888 -0.004371 0.894000
-0.017545 -0.025571 0.902000
0.015728 0.029480 0.894000
0.017219 -0.017637 0.895000
0.008313 0.042806 0.888000
0.007273 -0.015796 0.895000
-0.018206 0.003740 0.898000
0.005419 0.041576 0.893000
0.031776 0.031180 0.890000
-0.016747 -0.044357 0.899000
0.026708 0.005551 0.892000
0.029278 0.011058 0.892000
-0.006364 0.037660 0.896000
-0.020701 0.007403 0.894000
-0.010838 -0.009587 0.900000
0.008737 0.020650 0.894000
-0.016377 -0.031407 0.899000
-0.009738 -0.008114 0.901000
-0.010064 0.019611 0.897000
-0.021187 -0.012906 0.899000
0.039279 0.023225 0.894000
0.027411 0.017647 0.891000
-0.009315 0.025121 0.896000
-0.009356 0.013380 0.900000
-0.012292 -0.018436 0.898000
0.005437 0.016270 0.896000
-0.015900 0.022464 0.893000
0.010754 -0.042980 0.909000
-0.018967 -0.002916 0.899000
-0.023830 -0.038152 0.901000
0.002856 -0.018395 0.896000
0.020076 0.042179 0.875000
0.017316 -0.024774 0.900000
0.012319 0.042392 0.887000
0.007658 -0.036875 0.897000
0.016593 -0.027026 0.901000
-0.010838 0.001156 0.900000
0.019365 0.032719 0.892000
-0.030876 -0.029993 0.901000
-0.016006 -0.016976 0.899000
0.023797 0.000044 0.893000
0.012116 -0.033627 0.899000
0.028113 0.035576 0.890000
-0.014896 -0.037327 0.899000
-0.032954 -0.037613 0.897000
-0.008577 0.022540 0.896000
-0.034062 -0.031706 0.897000
-0.031039 -0.039739 0.895000
-0.026397 -0.005512 0.900000
0.021984 -0.006947 0.894000
-0.000095 0.018504 0.897000
-0.016006 -0.030667 0.899000
0.002118 0.033234 0.896000
0.024111 0.034149 0.891000
0.019776 -0.008787 0.894000
0.020054 0.040338 0.890000
-0.031618 -0.022947 0.901000
0.025267 0.002249 0.893000
-0.029360 -0.010327 0.900000
-0.027168 -0.031476 0.901000
-0.016377 -0.039177 0.899000
0.006189 -0.002173 0.898000
0.023983 0.040645 0.873000
0.029376 0.003359 0.895000
0.022669 0.023540 0.892000
0.021935 0.022072 0.892000
0.039146 0.016115 0.908000
0.014256 -0.016882 0.894000
-0.011209 0.008194 0.900000
0.040090 0.019764 0.904000
0.028911 0.009957 0.892000
-0.022173 0.003724 0.894000
-0.003791 -0.015109 0.898000
-0.010086 0.014105 0.899000
0.010945 0.032424 0.894000
-0.000465 -0.013276 0.899000
0.006912 -0.033883 0.896000
0.007273 -0.015427 0.895000
-0.004938 -0.042046 0.905000
0.020443 0.035982 0.891000
0.033974 0.026052 0.890000
0.028713 -0.005941 0.909000
-0.017837 0.007436 0.898000
-0.019707 -0.044727 0.899000
0.020857 -0.000323 0.893000
0.001012 0.033234 0.896000
0.036946 0.023514 0.891000
-0.026055 -0.034814 0.901000
0.020466 0.014362 0.892000
-0.027909 -0.027026 0.901000
-0.025656 -0.021070 0.900000
-0.025898 -0.045748 0.883000
-0.017506 -0.029960 0.900000
-0.001568 0.038723 0.895000
-0.017718 -0.047316 0.892000
0.009874 0.002998 0.897000
-0.021210 -0.018847 0.900000
0.035113 0.020214 0.891000
-0.020333 0.009611 0.894000
-0.015989 0.009284 0.898000
-0.030876 -0.020351 0.901000
0.012062 -0.002166 0.895000
-0.012662 -0.018436 0.898000
-0.003422 -0.015848 0.898000
-0.031004 -0.006947 0.894000
0.025944 0.034882 0.891000
-0.019030 -0.023715 0.902000
-0.007866 0.016695 0.899000
0.006920 -0.037982 0.897000
-0.034335 -0.005420 0.885000
-0.028280 -0.025543 0.901000
0.021568 0.016198 0.892000
-0.001200 0.021409 0.895000
0.011681 0.032056 0.894000
-0.006016 0.014105 0.899000
0.004321 0.037943 0.894000
0.020099 0.033086 0.892000
0.009505 0.000783 0.897000
0.023430 -0.001059 0.893000
0.020121 -0.006939 0.893000
-0.025285 -0.015884 0.900000
0.008737 0.018810 0.894000
0.006154 0.042679 0.893000
-0.021805 0.005563 0.894000
0.021802 0.042752 0.872000
0.017058 -0.028668 0.906000
0.026311 0.016913 0.891000
0.003962 -0.018763 0.896000
-0.017117 0.001894 0.899000
-0.019707 -0.016976 0.899000
0.001749 -0.026876 0.896000
-0.008946 0.023277 0.896000
-0.010086 -0.031407 0.899000
0.008378 -0.012112 0.895000
0.021935 0.025376 0.892000
-0.026026 -0.019218 0.900000
-0.026397 -0.039591 0.900000
0.019040 -0.011362 0.894000
-0.023433 -0.012550 0.900000
-0.028047 -0.043518 0.882000
-0.021187 -0.004766 0.899000
-0.025229 -0.002543 0.898000
0.016464 -0.012098 0.894000
-0.031247 -0.016643 0.901000
0.026311 0.033782 0.891000
0.028878 0.025714 0.891000
0.014272 0.025461 0.895000
0.020489 -0.005469 0.893000
-0.024517 -0.002916 0.899000
-0.007134 -0.027367 0.900000
0.003593 -0.029089 0.896000
-0.025542 -0.001800 0.896000
0.020466 0.004450 0.892000
0.006536 0.026935 0.895000
0.006529 0.021018 0.894000
0.010380 -0.043728 0.909000
-0.025313 -0.030364 0.901000
-0.006393 -0.028478 0.900000
0.010506 0.042806 0.888000
0.010612 0.004475 0.897000
-0.011515 0.029513 0.895000
-0.027909 -0.027397 0.901000
-0.006733 0.024384 0.896000
0.037722 0.023173 0.892000
-0.027508 -0.008105 0.900000
0.020833 0.030149 0.892000
-0.007479 0.018504 0.897000
0.013536 -0.022426 0.895000
0.001749 0.018852 0.896000
0.024560 -0.002532 0.894000
-0.008245 0.008194 0.900000
-0.004867 0.045935 0.892000
-0.035327 -0.034443 0.901000
-0.015317 -0.024829 0.902000
-0.035308 -0.009395 0.882000
-0.024174 -0.040332 0.900000
-0.003429 -0.042554 0.900000
0.009462 0.037901 0.893000
0.005068 0.028440 0.896000
-0.003787 -0.027276 0.897000
0.012667 -0.040494 0.912000
0.017568 -0.015042 0.894000
-0.013446 -0.003664 0.901000
-0.017857 -0.010316 0.899000
-0.006733 0.033234 0.896000
-0.004889 0.021065 0.896000
-0.036801 -0.016311 0.883000
0.005819 0.011132 0.898000
0.011300 0.022097 0.893000
0.019386 0.026507 0.893000
-0.026767 -0.006253 0.900000
0.031094 -0.002961 0.913000
0.014543 -0.035614 0.912000
0.001387 -0.045518 0.900000
-0.010363 0.039283 0.891000
-0.017506 -0.039220 0.900000
0.021984 -0.007315 0.894000
-0.008615 0.006712 0.900000
0.006189 -0.043938 0.898000
-0.002673 0.040933 0.895000
0.014992 -0.002164 0.894000
0.040608 0.023355 0.899000
-0.003791 0.017416 0.898000
-0.010433 0.020719 0.897000
-0.000831 0.021778 0.895000
-0.002673 0.022515 0.895000
0.004710 -0.004021 0.898000
-0.033543 -0.013555 0.893000
0.028145 0.024614 0.891000
0.021910 0.039650 0.891000
0.030413 0.008130 0.893000
-0.024174 -0.018847 0.900000
0.013904 -0.023163 0.895000
0.008001 0.025433 0.894000
0.028447 0.039195 0.889000
0.013138 0.015113 0.893000
0.016813 -0.002529 0.893000
-0.013786 0.008925 0.899000
0.021200 0.012894 0.892000
0.030311 0.021656 0.890000
0.016813 0.009600 0.893000
0.020718 -0.019282 0.903000
0.010695 -0.040511 0.904000
-0.028958 -0.006246 0.899000
0.019754 0.023567 0.893000
-0.026767 -0.006994 0.900000
-0.032324 -0.023292 0.900000
0.001380 0.017746 0.896000
0.004331 -0.031302 0.896000
-0.007126 0.015955 0.899000
0.020833 0.002981 0.892000
0.022644 0.031215 0.891000
0.014624 -0.000324 0.894000
0.014976 0.020259 0.893000
0.025577 0.017280 0.891000
-0.028619 -0.007734 0.900000
0.029988 0.039789 0.870000
0.011325 0.031724 0.895000
-0.021187 -0.003656 0.899000
-0.035348 -0.011949 0.883000
0.007676 -0.041767 0.899000
-0.017737 0.017319 0.893000
-0.014510 0.010393 0.898000
0.002487 -0.032408 0.896000
-0.013061 -0.045147 0.900000
0.041624 0.022394 0.905000
-0.027539 -0.017756 0.901000
0.001010 0.028777 0.895000
0.010589 -0.015796 0.895000
-0.009684 0.027334 0.896000
-0.010075 -0.014740 0.898000
-0.018227 -0.015126 0.899000
-0.027290 -0.043831 0.881000
0.002467 0.045415 0.889000
-0.012306 0.011515 0.899000
0.002118 -0.022082 0.896000
0.008369 0.016970 0.894000
0.038824 0.024642 0.892000
0.031044 0.033744 0.890000
-0.010030 0.035368 0.894000
0.032569 0.038804 0.872000
0.007281 0.014795 0.896000
0.038175 0.021018 0.894000
0.006485 0.043902 0.888000
-0.033644 -0.009437 0.886000
0.003962 -0.019501 0.896000
-0.034062 -0.036136 0.897000
0.034012 0.020214 0.891000
-0.008986 0.010787 0.900000
-0.012676 0.012255 0.899000
0.008766 0.001890 0.897000
0.013064 0.040978 0.888000
0.014959 0.036023 0.892000
0.006912 0.014427 0.896000
0.005819 -0.042829 0.898000
-0.003049 -0.033552 0.897000
0.020121 -0.005469 0.893000
-0.025684 -0.034443 0.901000
-0.012648 0.019611 0.897000
0.021177 0.033782 0.891000
-0.032072 -0.009512 0.893000
0.017171 -0.031110 0.912000
-0.035539 -0.022476 0.897000
0.023403 0.003348 0.892000
0.035331 0.010113 0.906000
0.039970 0.025772 0.893000
-0.005281 -0.041443 0.900000
-0.030876 -0.022947 0.901000
-0.009996 0.040383 0.891000
0.023850 -0.006218 0.895000
-0.011196 -0.035847 0.899000
-0.014478 0.019958 0.896000
-0.007134 -0.026996 0.900000
0.010957 0.012937 0.895000
-0.013817 -0.005147 0.901000
0.019365 0.035289 0.892000
-0.030602 -0.005101 0.893000
-0.007126 -0.031407 0.899000
-0.016060 -0.024458 0.902000
-0.024572 -0.033701 0.901000
-0.008199 0.037986 0.895000
-0.005264 -0.016569 0.897000
0.003971 -0.009196 0.898000
0.001012 0.031022 0.896000
-0.015636 -0.010316 0.899000
0.020099 0.036757 0.892000
-0.028651 -0.016272 0.901000
0.021177 0.034149 0.891000
0.006905 -0.019848 0.895000
0.009227 -0.044330 0.906000
-0.010838 0.008194 0.900000
0.019754 0.001882 0.893000
0.014755 -0.031140 0.902000
0.019732 0.016932 0.892000
0.001743 0.043782 0.893000
0.023010 0.024981 0.891000
0.029978 0.017647 0.891000
0.010220 0.026567 0.895000
0.006536 0.017357 0.895000
0.012785 0.012187 0.894000
0.018304 0.028377 0.894000
0.011604 -0.044868 0.917000
0.027840 0.004455 0.893000
0.006912 -0.027983 0.896000
0.031811 -0.001081 0.912000
-0.028588 -0.039547 0.899000
0.018997 0.036023 0.892000
0.006905 -0.024636 0.895000
0.002856 -0.023926 0.896000
0.021910 0.034516 0.891000
0.005806 -0.026139 0.896000
-0.029731 -0.010327 0.900000
0.037237 0.014230 0.907000
0.007667 -0.000695 0.898000
-0.003418 -0.033183 0.897000
0.013888 -0.004003 0.894000
0.016870 -0.020238 0.896000
-0.006696 0.044050 0.891000
-0.008615 -0.006994 0.900000
-0.014156 -0.039177 0.899000
0.024111 0.019480 0.891000
0.016096 -0.011362 0.894000
-0.012676 -0.042507 0.899000
-0.037263 -0.021883 0.903000
0.035073 0.028616 0.890000
-0.020701 0.009243 0.894000
0.035041 0.037711 0.880000
-0.033435 -0.019588 0.900000
0.012251 -0.039613 0.909000
0.028911 0.010324 0.892000
0.024844 0.024247 0.891000
0.013447 -0.039831 0.914000
0.041298 0.021300 0.906000
-0.021805 0.004460 0.894000
-0.008966 -0.013631 0.898000
-0.026426 -0.034443 0.901000
0.003224 -0.020607 0.896000
0.017883 -0.028795 0.910000
-0.019987 0.007412 0.895000
0.017916 0.000779 0.893000
-0.003042 0.032092 0.895000
-0.003418 -0.031337 0.897000
-0.023433 -0.029589 0.900000
-0.026988 -0.042841 0.883000
-0.014156 -0.037697 0.899000
0.013904 0.006306 0.895000
0.021568 0.014362 0.892000
-0.019707 -0.015866 0.899000
-0.014559 -0.028139 0.901000
0.012417 -0.017250 0.894000
-0.032954 -0.037982 0.897000
0.026984 0.039927 0.889000
0.028113 0.031180 0.890000
-0.019337 -0.008096 0.899000
-0.008986 0.013380 0.900000
0.025577 0.014713 0.891000
0.019104 -0.018415 0.897000
-0.012334 -0.001810 0.901000
-0.014896 -0.019566 0.899000
0.031044 0.034843 0.890000
0.000644 0.013350 0.898000
-0.026397 -0.006994 0.900000
-0.000464 -0.018046 0.897000
0.018693 -0.014322 0.895000
0.019798 -0.012112 0.895000
0.011313 -0.006579 0.894000
0.016078 0.005190 0.893000
0.002487 -0.023557 0.896000
0.017181 -0.009880 0.893000
-0.035341 -0.017945 0.892000
0.022494 0.041986 0.871000
-0.015636 -0.042507 0.899000
-0.023063 -0.008105 0.900000
0.020466 0.020236 0.892000
-0.011579 0.005971 0.900000
0.023770 0.010691 0.892000
0.021935 0.019135 0.892000
-0.000095 -0.014740 0.898000
-0.014896 -0.018086 0.899000
-0.016728 0.010024 0.898000
-0.011936 -0.022156 0.899000
-0.007102 0.037291 0.896000
-0.027447 -0.004021 0.898000
-0.031212 -0.014402 0.900000
-0.005627 0.031759 0.896000
-0.020401 0.002998 0.897000
-0.024943 -0.032589 0.901000
0.016759 -0.031042 0.910000
-0.001575 -0.012906 0.899000
0.001012 -0.016919 0.896000
0.022669 0.007387 0.892000
-0.026426 -0.025543 0.901000
-0.011923 0.014459 0.898000
-0.032771 -0.010970 0.892000
0.017916 -0.004366 0.893000
-0.013416 -0.032517 0.899000
0.008756 0.030653 0.896000
-0.007134 -0.008475 0.900000
-0.023329 -0.000325 0.896000
0.012785 -0.008787 0.894000
0.013935 -0.027276 0.897000
-0.012334 -0.028510 0.901000
-0.015671 -0.003293 0.901000
-0.018638 -0.020722 0.901000
-0.025656 -0.013661 0.900000
-0.018247 -0.029219 0.900000
0.025318 -0.012288 0.908000
-0.016728 0.009654 0.898000
-0.018597 0.000414 0.899000
0.021935 0.008855 0.892000
0.016427 0.034554 0.892000
0.018284 -0.004366 0.893000
-0.013075 -0.001068 0.901000
-0.034801 -0.033183 0.897000
-0.029197 -0.003271 0.895000
-0.003414 0.023646 0.896000
-0.014494 0.014812 0.897000
0.016483 0.024356 0.895000
0.014992 -0.008787 0.894000
0.030311 0.026418 0.890000
0.006189 -0.043199 0.898000
0.020833 0.020603 0.892000
-0.007496 0.016325 0.899000
0.035400 0.034438 0.889000
0.021664 -0.011757 0.896000
0.029612 0.016913 0.891000
0.035058 0.012255 0.899000
0.005806 -0.035727 0.896000
0.016813 -0.004734 0.893000
-0.029328 -0.006246 0.899000
0.012049 -0.012466 0.894000
0.021177 0.034882 0.891000
0.008766 0.006690 0.897000
0.022644 0.026815 0.891000
0.001749 0.032865 0.896000
0.002865 -0.008466 0.899000
-0.027168 -0.038893 0.901000
0.013138 0.022097 0.893000
-0.021187 -0.011796 0.899000
0.016832 -0.012466 0.894000
-0.007504 -0.008846 0.900000
0.019430 -0.014690 0.895000
-0.019510 -0.046477 0.890000
0.031044 0.033012 0.890000
0.004705 -0.043151 0.897000
-0.026367 -0.040657 0.899000
0.035886 0.020971 0.892000
0.017200 0.023961 0.894000
0.035806 0.038479 0.881000
-0.017487 -0.009576 0.899000
-0.014575 -0.025200 0.902000
-0.018659 -0.023344 0.902000
-0.006009 -0.023980 0.898000
-0.004152 0.025121 0.896000
-0.031583 -0.013291 0.900000
-0.020054 0.001523 0.898000
-0.022591 -0.043840 0.896000
0.018509 -0.024512 0.904000
-0.034100 -0.018436 0.898000
-0.023433 -0.033664 0.900000
-0.009716 -0.031407 0.899000
0.026090 -0.004012 0.896000
-0.005264 -0.020999 0.897000
-0.031212 -0.014772 0.900000
0.004700 -0.036096 0.896000
0.008747 -0.022058 0.895000
0.015378 0.024356 0.895000
-0.022667 -0.004766 0.899000
-0.016747 -0.034737 0.899000
0.024844 0.035249 0.891000
0.015670 -0.034113 0.912000
-0.034431 -0.026537 0.897000
0.011681 0.014762 0.894000
0.033242 0.031180 0.890000
-0.011209 0.006712 0.900000
-0.022576 -0.046732 0.881000
-0.000095 -0.034290 0.897000
0.013138 0.014378 0.893000
-0.034582 -0.007580 0.882000
0.013197 -0.029491 0.897000
0.000644 -0.016938 0.897000
-0.001203 -0.038351 0.897000
0.006202 -0.046629 0.900000
0.005449 -0.003652 0.898000
0.017916 -0.006204 0.893000
0.026311 0.013979 0.891000
0.026678 0.022414 0.891000
0.028607 0.003724 0.894000
0.006889 0.040841 0.893000
0.008010 0.026935 0.895000
0.017181 -0.001426 0.893000
-0.020840 -0.040332 0.900000
0.001380 0.031759 0.896000
-0.000833 -0.032813 0.897000
-0.027539 -0.031847 0.901000
0.022440 0.041474 0.883000
-0.004152 0.023646 0.896000
-0.000095 0.041623 0.894000
0.010981 -0.032813 0.897000
0.008434 -0.043714 0.901000
0.007693 -0.044827 0.901000
0.016813 0.003720 0.893000
-0.018085 -0.046949 0.892000
0.003597 -0.014723 0.897000
-0.005627 0.025859 0.896000
0.003971 -0.012522 0.898000
-0.024544 -0.013661 0.900000
-0.017389 0.015130 0.894000
0.017936 -0.013938 0.894000
-0.016784 -0.022206 0.901000
0.008397 0.008536 0.897000
-0.013771 -0.013261 0.898000
0.009505 0.007797 0.897000
-0.029393 -0.028881 0.901000
0.009505 0.000044 0.897000
0.039850 0.017963 0.907000
-0.017857 -0.002176 0.899000
-0.017777 0.013674 0.895000
0.023504 0.041064 0.882000
-0.001205 -0.013276 0.899000
0.004326 0.018094 0.895000
0.011338 0.027703 0.896000
-0.025656 -0.012550 0.900000
0.005068 0.015533 0.896000
-0.011910 0.020350 0.897000
-0.031989 -0.024060 0.901000
-0.008986 0.004490 0.900000
0.026002 0.002984 0.893000
-0.028651 -0.030364 0.901000
-0.005620 0.040933 0.895000
0.013520 -0.004739 0.894000
-0.035308 -0.010121 0.882000
0.011759 -0.036257 0.900000
-0.005620 0.041670 0.895000
-0.021629 -0.023344 0.902000
0.030781 0.009233 0.893000
-0.025257 -0.003286 0.899000
0.014272 0.024356 0.895000
-0.013401 0.013350 0.898000
-0.007504 -0.026996 0.900000
-0.006733 0.035078 0.896000
-0.017117 -0.011426 0.899000
-0.013771 -0.015479 0.898000
0.008369 0.019914 0.894000
0.012049 0.012923 0.894000
0.014959 0.037491 0.892000
-0.029022 -0.024801 0.901000
0.021568 0.025743 0.892000
0.034012 0.021680 0.891000
0.029212 0.036308 0.890000
-0.035209 -0.033220 0.898000
0.010243 -0.034290 0.897000
0.022720 -0.006947 0.894000
-0.034801 -0.023584 0.897000
-0.001572 -0.033552 0.897000
0.010220 -0.019848 0.895000
0.026311 0.030115 0.891000
-0.020840 -0.018847 0.900000
0.010589 -0.007691 0.895000
-0.021927 -0.009206 0.899000
0.031846 -0.001458 0.913000
-0.018597 -0.000326 0.899000
0.009852 -0.020216 0.895000
0.003228 -0.041305 0.897000
-0.013046 -0.035477 0.899000
0.005080 -0.008087 0.898000
0.017916 -0.008042 0.893000
-0.014543 -0.028849 0.900000
0.008756 -0.031302 0.896000
-0.019553 -0.046214 0.892000
-0.014156 -0.038437 0.899000
-0.028651 -0.020351 0.901000
0.012799 0.030619 0.895000
0.008010 -0.017637 0.895000
-0.020840 -0.035887 0.900000
-0.011209 0.000785 0.900000
-0.018617 -0.029589 0.900000
-0.007134 0.011157 0.900000
-0.013386 0.015919 0.897000
-0.000835 -0.009576 0.899000
0.037934 0.018873 0.897000
-0.010097 0.007082 0.900000
-0.023566 -0.043962 0.891000
-0.030505 -0.018126 0.901000
-0.021851 -0.046732 0.881000
0.000274 0.033565 0.895000
-0.011221 -0.029251 0.901000
0.034958 0.010113 0.906000
-0.018638 -0.020351 0.901000
0.001382 -0.015092 0.897000
0.031776 0.024587 0.890000
-0.007848 0.020719 0.897000
0.031044 0.030081 0.890000
0.013520 0.030952 0.894000
-0.024572 -0.025543 0.901000
0.010589 -0.025741 0.895000
-0.003795 -0.014386 0.899000
0.023377 0.034149 0.891000
0.013167 0.005938 0.895000
0.015343 0.019524 0.893000
0.017549 -0.008409 0.893000
-0.022297 -0.001436 0.899000
0.011313 -0.016146 0.894000
0.028511 0.014346 0.891000
-0.028460 -0.002534 0.895000
-0.022371 -0.024086 0.902000
0.002862 0.011502 0.898000
0.001013 -0.032444 0.897000
0.012970 -0.036166 0.907000
0.020099 0.017299 0.892000
-0.019707 -0.001436 0.899000
-0.026250 -0.001061 0.895000
-0.010097 0.001526 0.900000
0.013152 -0.004003 0.894000
-0.004515 0.034671 0.895000
0.011694 0.030619 0.895000
-0.020515 -0.021488 0.902000
-0.024026 -0.046370 0.881000
-0.008956 0.018504 0.897000
0.004331 -0.022451 0.896000
0.032949 0.016565 0.892000
-0.010778 0.031355 0.895000
0.015970 0.040202 0.887000
0.015746 -0.017637 0.895000
0.002487 -0.018026 0.896000
-0.019641 0.007051 0.896000
0.009852 -0.009902 0.895000
0.022277 0.030115 0.891000
-0.009356 -0.009216 0.900000
-0.015249 0.012241 0.898000
-0.028651 -0.023689 0.901000
-0.021951 -0.040332 0.900000
0.007641 -0.023900 0.895000
0.012062 -0.025005 0.895000
-0.012279 0.019611 0.897000
-0.007857 -0.022132 0.898000
0.021676 -0.021726 0.912000
0.004331 -0.024664 0.896000
-0.019378 -0.047255 0.884000
0.016813 -0.001426 0.893000
-0.000831 0.027303 0.895000
-0.008976 0.015215 0.899000
-0.000460 0.046147 0.889000
0.035400 0.035170 0.889000
-0.002673 0.041301 0.895000
0.002123 -0.014000 0.898000
0.034707 0.027517 0.890000
0.008028 0.002998 0.897000
0.006161 0.038311 0.894000
0.016078 0.004455 0.893000
0.012417 -0.007315 0.894000
0.020099 0.034554 0.892000
-0.025684 -0.028510 0.901000
0.003217 0.039415 0.894000
0.017568 -0.011730 0.894000
-0.016024 -0.028108 0.900000
0.018284 0.022464 0.893000
0.010220 -0.026846 0.895000
-0.019380 -0.027026 0.901000
0.016464 -0.012466 0.894000
-0.033730 -0.017327 0.898000
-0.015283 -0.021440 0.900000
0.002859 0.031795 0.897000
-0.026797 -0.024431 0.901000
0.012785 -0.013570 0.894000
0.009298 -0.047678 0.913000
0.018284 0.006660 0.893000
-0.004873 0.043414 0.893000
-0.019663 0.005213 0.897000
0.030077 -0.001445 0.905000
-0.014188 -0.007372 0.901000
0.032151 0.000045 0.911000
0.003962 -0.016551 0.896000
0.016096 0.029113 0.894000
-0.021951 -0.013291 0.900000
-0.015266 0.005595 0.899000
0.031776 0.033744 0.890000
0.020833 0.030516 0.892000
0.040428 0.024725 0.895000
0.008010 -0.013217 0.895000
0.022669 0.012894 0.892000
0.020099 0.010324 0.892000
-0.014156 -0.031407 0.899000
0.011681 -0.007683 0.894000
0.008747 -0.026110 0.895000
-0.010468 0.008194 0.900000
0.027196 -0.002168 0.896000
-0.018473 0.014746 0.893000
0.029945 0.026784 0.890000
0.022302 0.013995 0.892000
-0.009336 -0.017696 0.898000
-0.010814 0.015198 0.898000
-0.003779 0.038723 0.895000
-0.027909 -0.025543 0.901000
0.010801 -0.044672 0.913000
0.026459 -0.003644 0.896000
-0.022297 -0.009946 0.899000
0.000643 0.031390 0.896000
0.028239 0.002988 0.894000
0.015326 0.033820 0.892000
0.016813 -0.003999 0.893000
-0.022653 -0.045436 0.884000
0.010140 0.042440 0.888000
-0.010075 -0.021023 0.898000
-0.003414 0.021433 0.896000
-0.007857 -0.015848 0.898000
-0.018617 -0.039591 0.900000
-0.020424 0.001892 0.898000
0.015378 -0.019479 0.895000
0.022644 0.030482 0.891000
0.000275 -0.011796 0.899000
0.015378 0.025830 0.895000
0.028246 -0.005549 0.906000
-0.026426 -0.029622 0.901000
0.018177 -0.026058 0.906000
-0.006016 -0.013646 0.899000
0.029645 0.009589 0.892000
-0.009336 -0.033220 0.898000
0.015009 -0.020216 0.895000
0.003962 -0.015813 0.896000
-0.022909 0.003724 0.894000
0.017391 0.041568 0.885000
-0.020099 -0.029589 0.900000
-0.013771 0.013350 0.898000
0.003953 0.025801 0.894000
-0.026397 -0.039961 0.900000
0.008388 0.013320 0.896000
0.009473 0.016234 0.894000
-0.003425 0.015955 0.899000
0.011325 -0.022794 0.895000
0.032875 0.023121 0.890000
0.009494 0.029915 0.896000
-0.000464 -0.027645 0.897000
0.027809 0.007387 0.892000
-0.030636 -0.043374 0.894000
0.016446 0.022097 0.893000
-0.003042 0.039091 0.895000
-0.007875 0.010416 0.900000
0.000274 -0.033183 0.897000
0.028277 -0.005928 0.907000
0.018955 0.039971 0.890000
-0.030135 -0.020351 0.901000
-0.002305 0.023251 0.895000
-0.010444 -0.018066 0.898000
0.008001 0.017706 0.894000
0.034165 0.012200 0.895000
-0.020863 -0.026285 0.901000
-0.011896 0.025121 0.896000
0.023377 0.022047 0.891000
0.033242 0.022389 0.890000
-0.010456 -0.012166 0.899000
-0.006718 0.041255 0.894000
0.039191 0.025743 0.892000
0.024917 -0.012648 0.907000
-0.011553 -0.016957 0.898000
0.002118 -0.018763 0.896000
0.005068 -0.037571 0.896000
-0.026797 -0.028881 0.901000
0.026678 0.028648 0.891000
-0.001200 0.038354 0.895000
-0.023225 -0.044012 0.892000
0.008001 0.022857 0.894000
0.016078 -0.005469 0.893000
0.013226 -0.031777 0.899000
-0.003800 -0.011068 0.900000
0.012742 0.040383 0.891000
0.003971 0.012980 0.898000
0.001743 0.044149 0.893000
0.004321 0.039047 0.894000
0.024900 0.000412 0.893000
-0.014896 -0.039547 0.899000
0.021153 0.041437 0.890000
0.032509 0.025685 0.890000
-0.009367 -0.027026 0.901000
0.017916 0.008865 0.893000
-0.016747 -0.018456 0.899000
0.020167 -0.011743 0.895000
0.009874 0.008166 0.897000
0.008766 0.011858 0.897000
0.020810 0.038183 0.891000
0.013505 0.022097 0.893000
0.019040 0.026537 0.894000
-0.006741 0.020350 0.897000
-0.009315 0.031022 0.896000
0.031812 0.018013 0.891000
-0.009662 0.036104 0.894000
-0.029764 -0.034814 0.901000
0.006168 -0.015427 0.895000
-0.024174 -0.016995 0.900000
-0.006733 0.028440 0.896000
-0.006741 0.019980 0.897000
0.016060 0.033086 0.892000
-0.014188 0.001899 0.901000
0.010028 -0.045324 0.911000
-0.020840 -0.041813 0.900000
0.017896 0.034921 0.892000
-0.021805 0.004092 0.894000
-0.011540 0.017396 0.897000
0.009885 -0.036546 0.898000
0.013888 0.030216 0.894000
0.022644 0.026448 0.891000
0.012799 -0.022058 0.895000
0.014256 -0.013570 0.894000
0.008037 -0.002173 0.898000
0.029040 0.001151 0.896000
-0.031618 -0.024431 0.901000
-0.006364 0.026965 0.896000
-0.029022 -0.019981 0.901000
-0.019143 -0.049408 0.890000
0.024111 0.032682 0.891000
-0.019030 -0.024458 0.902000
0.012799 0.025830 0.895000
0.010506 0.042440 0.888000
-0.007857 -0.021023 0.898000
-0.000463 0.027672 0.895000
0.005806 -0.015444 0.896000
0.004331 -0.034990 0.896000
0.032546 0.018747 0.891000
0.013520 -0.004003 0.894000
0.006905 -0.018742 0.895000
-0.010108 0.000786 0.901000
0.016078 0.006660 0.893000
0.023744 0.025348 0.891000
-0.004515 0.037617 0.895000
0.019386 0.027610 0.893000
-0.007504 -0.009216 0.900000
-0.009315 0.026965 0.896000
0.020466 0.002981 0.892000
-0.013786 -0.034737 0.899000
0.018997 0.010691 0.892000
0.031848 0.012894 0.892000
-0.023063 -0.029960 0.900000
0.000644 -0.015109 0.898000
0.016446 0.014011 0.893000
-0.011592 -0.026285 0.901000
0.039191 0.026110 0.892000
-0.029022 -0.021464 0.901000
-0.017117 -0.031777 0.899000
0.021592 -0.003631 0.893000
0.024477 0.038916 0.891000
0.009105 0.022857 0.894000
0.023036 0.013628 0.892000
0.014641 0.028408 0.895000
0.023744 0.024614 0.891000
0.009505 0.002629 0.897000
-0.033398 -0.031777 0.899000
0.012403 0.033123 0.893000
0.002868 -0.006623 0.900000
-0.033242 -0.007606 0.885000
-0.002310 -0.038351 0.897000
-0.005281 -0.009216 0.900000
-0.031618 -0.034072 0.901000
-0.017837 0.005958 0.898000
0.003589 0.036144 0.895000
0.005754 0.044267 0.888000
0.023824 -0.004371 0.894000
-0.009738 -0.009226 0.901000
0.019386 0.006292 0.893000
0.021248 -0.007683 0.894000
0.037891 0.019221 0.896000
0.007265 0.022121 0.894000
0.006858 0.043220 0.889000
0.031218 0.007043 0.895000
0.011955 -0.043263 0.915000
-0.031618 -0.029993 0.901000
-0.001941 -0.018415 0.897000
0.005806 -0.033146 0.896000
0.017804 -0.026804 0.906000
0.005449 -0.001804 0.898000
0.013123 0.039327 0.892000
0.029245 0.016546 0.891000
-0.005633 -0.020630 0.897000
-0.026767 -0.020329 0.900000
0.012076 0.005945 0.896000
-0.001941 -0.039090 0.897000
-0.002310 -0.034290 0.897000
-0.010814 -0.034698 0.898000
-0.031618 -0.020351 0.901000
0.009841 0.024329 0.894000
-0.020786 -0.048237 0.882000
0.000272 0.045415 0.889000
-0.016635 -0.048839 0.893000
0.017181 0.014011 0.893000
0.008388 -0.008069 0.896000
-0.003791 -0.014740 0.898000
0.009483 -0.013954 0.895000
-0.013416 -0.039177 0.899000
0.017162 0.034554 0.892000
-0.007102 0.033603 0.896000
-0.018105 0.014746 0.893000
-0.014930 -0.005889 0.901000
-0.021557 -0.007356 0.899000
0.025944 0.013613 0.891000
0.012785 -0.015410 0.894000
0.030311 0.025319 0.890000
-0.009705 -0.016218 0.898000
0.002856 -0.033146 0.896000
0.034341 0.025685 0.890000
-0.001200 0.039828 0.895000
0.000639 0.045100 0.890000
0.009874 0.006690 0.897000
-0.013401 -0.017327 0.898000
-0.004525 -0.017308 0.897000
-0.034431 -0.031337 0.897000
-0.014559 0.001528 0.901000
-0.009727 -0.030330 0.900000
-0.015900 0.021362 0.893000
-0.007866 -0.031037 0.899000
-0.013446 -0.007372 0.901000
0.015711 0.001514 0.893000
-0.004895 -0.019523 0.897000
-0.018638 -0.026656 0.901000
-0.013061 0.006342 0.900000
-0.006733 0.021433 0.896000
-0.011502 0.031688 0.894000
-0.019943 -0.049574 0.893000
-0.006741 0.019242 0.897000
0.010577 0.025065 0.894000
0.009483 -0.018006 0.895000
-0.000466 -0.044406 0.900000
-0.000095 0.014459 0.898000
0.032912 0.019113 0.891000
0.006912 -0.028352 0.896000
0.016464 -0.016146 0.894000
0.003221 0.019199 0.895000
0.016776 0.039283 0.891000
0.023403 0.002247 0.892000
0.003589 0.021041 0.895000
0.007633 0.021385 0.894000
-0.015266 -0.042877 0.899000
-0.001572 -0.042043 0.897000
-0.000095 0.025093 0.895000
-0.013802 -0.029219 0.900000
0.025692 -0.003639 0.895000
0.024477 0.021680 0.891000
0.018755 -0.029738 0.916000
0.011694 -0.019111 0.895000
-0.019707 -0.004026 0.899000
-0.020840 -0.026996 0.900000
-0.010108 -0.005518 0.901000
-0.023804 -0.015884 0.900000
-0.035248 -0.033997 0.899000
-0.026015 -0.043035 0.887000
0.020257 -0.018456 0.899000
-0.016006 -0.041767 0.899000
0.031044 0.035942 0.890000
0.008028 0.012228 0.897000
0.026311 0.016546 0.891000
0.023377 0.030848 0.891000
-0.032694 -0.023292 0.900000
0.010969 -0.030933 0.896000
0.033023 0.011819 0.894000
0.006558 -0.007348 0.898000
0.008028 0.011120 0.897000
0.001015 -0.010686 0.899000
-0.008227 -0.038394 0.898000
0.009473 0.025065 0.894000
-0.015971 0.014812 0.897000
0.008369 0.035736 0.894000
0.030850 0.005938 0.895000
0.008462 -0.044976 0.904000
0.019386 0.004087 0.893000
-0.035671 -0.007580 0.882000
0.019040 -0.009155 0.894000
0.021935 0.007387 0.892000
-0.022198 -0.044160 0.895000
0.025296 -0.002899 0.894000
0.012403 0.016216 0.893000
-0.026397 -0.014772 0.900000
-0.017876 -0.019588 0.900000
-0.024943 -0.022947 0.901000
-0.019729 -0.032182 0.900000
0.011376 -0.035847 0.899000
0.011824 -0.038693 0.905000
-0.024544 -0.040332 0.900000
0.016078 -0.002529 0.893000
-0.031618 -0.030735 0.901000
-0.015636 -0.043247 0.899000
0.028308 -0.006308 0.908000
0.038314 0.015333 0.906000
0.020489 -0.004734 0.893000
-0.016395 -0.028108 0.900000
0.006161 0.036840 0.894000
-0.021951 -0.013661 0.900000
0.001008 0.044149 0.893000
0.008756 0.028809 0.896000
-0.000095 -0.043889 0.897000
-0.034431 -0.026906 0.897000
-0.023277 0.000412 0.894000
0.041105 0.019146 0.910000
0.010577 0.024697 0.894000
0.003962 -0.018026 0.896000
-0.016765 -0.041073 0.900000
-0.032694 -0.024774 0.900000
-0.017467 0.008545 0.898000
0.011300 0.034961 0.893000
0.000642 0.035039 0.895000
-0.018617 -0.029960 0.900000
0.021802 0.042034 0.872000
-0.005646 -0.027336 0.899000
0.015360 -0.005843 0.894000
-0.013416 -0.031407 0.899000
-0.030876 -0.016643 0.901000
-0.000833 -0.016569 0.897000
0.010957 -0.008060 0.895000
0.030413 0.009600 0.893000
0.028370 -0.007071 0.910000
0.011300 0.021362 0.893000
-0.007462 0.039828 0.895000
-0.035222 -0.005810 0.889000
0.019732 0.036023 0.892000
-0.033028 -0.025856 0.899000
0.034668 0.035902 0.889000
-0.013771 0.012241 0.898000
-0.012648 0.016658 0.897000
0.018325 0.026567 0.895000
-0.009705 -0.019175 0.898000
0.002487 0.030284 0.896000
0.026678 0.033049 0.891000
0.003593 -0.033883 0.896000
-0.001943 0.017416 0.898000
0.021200 0.026845 0.892000
0.032251 0.011438 0.893000
0.003601 0.014089 0.898000
0.000274 0.020673 0.895000
-0.035170 -0.030598 0.897000
-0.032661 -0.008372 0.889000
-0.027386 -0.040890 0.896000
0.006943 -0.044777 0.900000
-0.006741 -0.021369 0.897000
0.006920 -0.010662 0.897000
0.000274 -0.023189 0.896000
0.035599 0.016602 0.894000
0.020489 -0.006939 0.893000
-0.010479 -0.027397 0.901000
0.022277 0.040750 0.891000
0.005074 -0.039828 0.897000
0.013888 -0.004739 0.894000
-0.034413 -0.012369 0.887000
0.009095 0.038269 0.893000
-0.001937 0.035407 0.895000
0.022277 0.035249 0.891000
-0.028280 -0.032218 0.901000
-0.011540 0.021826 0.897000
0.005068 -0.015813 0.896000
-0.002673 0.040564 0.895000
-0.020077 -0.002546 0.899000
