-0.018125 0.026169 0.894000
0.013079 0.016509 0.889000
-0.000833 -0.011031 0.897000
0.001003 0.033668 0.888000
0.000644 -0.014723 0.897000
-0.025766 0.032682 0.891000
0.017916 -0.010982 0.893000
0.027136 -0.026449 0.894000
0.018955 0.012865 0.890000
0.017085 -0.047469 0.888000
-0.017902 -0.031574 0.883000
-0.007487 -0.039503 0.898000
0.017162 -0.003627 0.892000
0.026370 -0.022376 0.893000
0.008313 0.025628 0.888000
-0.017718 0.015831 0.892000
-0.011830 0.019847 0.891000
0.013197 -0.040936 0.897000
-0.005576 0.037689 0.888000
-0.029867 0.019891 0.893000
-0.024721 0.006660 0.893000
0.030549 -0.009185 0.897000
0.010994 -0.043568 0.898000
0.007633 0.006667 0.894000
0.009074 0.011046 0.891000
0.006544 -0.024664 0.896000
-0.013017 -0.008447 0.897000
-0.010959 0.045680 0.880000
-0.021999 -0.028432 0.887000
0.002859 -0.011031 0.897000
0.008756 -0.009544 0.896000
-0.000094 0.034034 0.888000
-0.011171 -0.024691 0.897000
0.012699 0.023069 0.888000
0.013551 -0.030933 0.896000
0.014225 -0.003627 0.892000
0.018345 -0.037571 0.896000
0.002467 0.021632 0.889000
0.009409 0.023435 0.888000
-0.014863 -0.001432 0.897000
0.019408 -0.019089 0.894000
-0.011553 -0.035437 0.898000
-0.000095 -0.034328 0.898000
-0.012253 0.046539 0.869000
-0.022883 0.015848 0.893000
0.031218 -0.016164 0.895000
-0.020106 0.038247 0.884000
-0.028732 0.023173 0.892000
-0.010433 -0.018784 0.897000
-0.018146 -0.004376 0.895000
0.001368 0.033668 0.888000
0.015869 0.043480 0.902000
-0.007979 0.046646 0.871000
-0.020678 0.012541 0.893000
-0.027017 0.002257 0.896000
0.002465 0.028917 0.888000
-0.015811 0.039151 0.888000
-0.027631 0.010324 0.892000
-0.012690 -0.041073 0.900000
0.031586 -0.019848 0.895000
0.004705 -0.009924 0.897000
0.002852 -0.048948 0.895000
-0.016691 -0.005119 0.896000
-0.021413 0.011438 0.893000
-0.019742 0.039702 0.884000
-0.031821 0.032134 0.886000
-0.019143 0.034477 0.890000
0.009399 0.032900 0.887000
-0.007778 0.035170 0.889000
0.026738 -0.003631 0.893000
0.033060 -0.028320 0.895000
0.009852 -0.012480 0.895000
-0.019992 -0.030708 0.879000
0.019083 -0.038677 0.896000
0.027596 0.000413 0.897000
-0.001204 -0.028045 0.898000
0.012458 -0.038721 0.897000
0.022771 0.015902 0.896000
-0.019553 0.017666 0.892000
-0.006688 0.021656 0.890000
0.012699 0.036592 0.888000
0.036196 -0.018287 0.909000
0.035035 -0.017520 0.908000
-0.010802 -0.002540 0.897000
0.002498 -0.029960 0.900000
0.029119 0.006038 0.910000
0.002113 0.013658 0.894000
-0.005969 0.029415 0.892000
0.019430 0.026198 0.895000
-0.015900 0.028345 0.893000
0.009483 0.000413 0.895000
-0.003791 -0.033959 0.898000
-0.013967 0.040932 0.887000
-0.004152 -0.047528 0.896000
-0.006002 -0.025430 0.897000
0.014992 -0.020193 0.894000
0.016889 -0.041305 0.897000
-0.013357 0.011464 0.895000
-0.018840 -0.019068 0.893000
0.028239 -0.008419 0.894000
0.006106 -0.052103 0.886000
0.009874 -0.047581 0.897000
0.005080 -0.036546 0.898000
0.013888 0.044199 0.894000
-0.013342 -0.035647 0.894000
-0.015341 -0.038073 0.882000
0.023403 0.006285 0.892000
0.019710 0.017280 0.891000
-0.006748 -0.030632 0.898000
0.009135 -0.038721 0.897000
-0.033682 0.031440 0.887000
0.030079 -0.025713 0.894000
-0.028142 0.034647 0.885000
-0.014332 0.040567 0.887000
0.018955 0.015063 0.890000
0.026708 -0.010603 0.892000
0.002852 -0.016901 0.895000
-0.030935 0.022072 0.892000
0.002127 -0.030701 0.900000
-0.001189 0.042027 0.887000
-0.004835 0.047085 0.886000
0.023534 0.014073 0.897000
-0.023277 0.005563 0.894000
0.020009 -0.046738 0.888000
-0.012535 0.037731 0.889000
0.008406 -0.040981 0.898000
0.003605 -0.043617 0.899000
-0.012169 0.034438 0.889000
-0.008481 0.046720 0.886000
0.026094 0.015010 0.909000
-0.001192 0.024193 0.889000
-0.007848 -0.016200 0.897000
0.029811 -0.006970 0.897000
-0.013920 0.043704 0.884000
-0.001934 0.012555 0.894000
0.026606 0.007090 0.901000
-0.023225 0.022072 0.892000
0.019191 -0.048347 0.884000
0.032576 -0.012207 0.902000
0.032323 -0.019479 0.895000
-0.013046 -0.040657 0.899000
0.006843 0.033265 0.887000
0.013197 -0.040566 0.897000
0.017836 0.017607 0.889000
-0.019251 -0.014322 0.895000
-0.019165 0.030115 0.891000
-0.009629 0.016913 0.891000
-0.018840 -0.015393 0.893000
-0.014125 0.002998 0.897000
0.001734 0.034765 0.888000
-0.026499 0.031949 0.891000
0.026032 -0.026816 0.894000
-0.001186 0.049582 0.885000
-0.011817 0.032645 0.890000
0.008737 0.004092 0.894000
-0.006308 0.038054 0.888000
0.027105 -0.015393 0.893000
-0.033720 0.019780 0.888000
-0.025737 0.034111 0.890000
-0.015182 0.011819 0.894000
-0.018882 0.005201 0.895000
-0.016907 0.038420 0.888000
-0.017370 0.011805 0.893000
-0.001186 0.049217 0.885000
0.019343 -0.000323 0.891000
0.028975 -0.012834 0.894000
0.000271 0.048544 0.886000
0.021959 -0.017965 0.893000
-0.018452 0.014729 0.892000
-0.025399 0.028281 0.891000
-0.008227 -0.011044 0.898000
0.020535 -0.026846 0.895000
-0.017797 0.001151 0.896000
-0.005576 0.039516 0.888000
0.002101 0.023827 0.889000
-0.006002 -0.015831 0.897000
-0.016249 0.014362 0.892000
-0.033682 0.029615 0.887000
0.000275 -0.031442 0.900000
0.019321 0.007004 0.890000
-0.019575 0.012908 0.893000
-0.018431 0.030482 0.891000
0.010871 0.024531 0.888000
0.006835 0.043803 0.886000
0.012049 -0.016882 0.894000
-0.029834 0.027946 0.892000
-0.008606 -0.035477 0.899000
0.008010 -0.001429 0.895000
-0.026191 0.019156 0.893000
-0.025824 0.008130 0.893000
0.013430 0.035130 0.888000
-0.020678 0.025772 0.893000
-0.012648 -0.018415 0.897000
-0.016322 -0.005119 0.896000
-0.010041 0.011832 0.895000
-0.009232 0.035861 0.888000
0.010883 0.015046 0.889000
0.011224 0.033631 0.887000
0.031183 -0.027552 0.894000
-0.006371 -0.023584 0.897000
-0.030201 0.029047 0.892000
-0.023986 0.015481 0.893000
0.004710 -0.039133 0.898000
0.030481 -0.014690 0.895000
0.019386 0.024669 0.893000
-0.006009 -0.033589 0.898000
0.012333 0.035861 0.888000
0.022277 0.007745 0.891000
-0.019229 -0.006211 0.894000
-0.005608 0.015481 0.893000
0.010896 0.009934 0.890000
0.017142 -0.001790 0.891000
0.002865 -0.045467 0.899000
0.011325 -0.008060 0.895000
0.003224 -0.016182 0.896000
0.003966 -0.012508 0.897000
-0.007421 0.032645 0.890000
0.001728 0.050674 0.885000
0.021959 -0.016863 0.893000
-0.019553 -0.022718 0.892000
0.006936 -0.028447 0.899000
0.025635 -0.001794 0.893000
0.015026 -0.023926 0.896000
-0.014494 -0.000694 0.897000
-0.027050 0.035376 0.885000
-0.015080 -0.035408 0.888000
0.017956 -0.029793 0.895000
0.001012 -0.023926 0.896000
-0.003406 0.011451 0.894000
-0.015198 0.011095 0.895000
0.018902 0.036175 0.905000
-0.011830 0.031582 0.891000
0.006492 0.020900 0.889000
0.011968 0.037689 0.888000
0.012785 -0.018721 0.894000
-0.027998 0.025743 0.892000
0.009830 0.004455 0.893000
-0.014109 -0.015813 0.896000
0.019408 -0.019457 0.894000
0.008659 0.043803 0.886000
-0.002661 0.017280 0.891000
-0.005627 -0.042365 0.896000
-0.025033 0.029382 0.891000
0.011351 -0.033552 0.897000
-0.019531 -0.024159 0.891000
0.007590 0.018705 0.889000
0.023010 0.005178 0.891000
0.028208 -0.023846 0.893000
0.010220 -0.001061 0.895000
0.021592 -0.046266 0.893000
0.011325 -0.007691 0.895000
-0.022858 0.019502 0.892000
0.012022 0.000778 0.892000
0.010945 -0.012466 0.894000
0.015763 -0.029827 0.896000
0.006558 -0.040612 0.898000
0.015026 -0.034252 0.896000
-0.008596 -0.005869 0.898000
-0.018882 0.002991 0.895000
0.026370 -0.005837 0.893000
-0.017757 -0.011730 0.894000
-0.012634 0.007051 0.896000
0.012699 0.039151 0.888000
0.005034 0.017260 0.890000
0.005864 -0.001445 0.905000
0.004297 0.023827 0.889000
-0.016598 -0.029660 0.891000
-0.008856 0.042757 0.887000
0.018976 -0.000323 0.891000
0.019798 -0.027952 0.895000
-0.036035 0.027181 0.891000
0.019232 0.032007 0.903000
0.022923 0.020092 0.902000
-0.011923 -0.025088 0.898000
-0.009232 0.040978 0.888000
-0.003032 0.016565 0.892000
-0.004900 -0.030632 0.898000
-0.017737 0.028712 0.893000
0.023372 0.020904 0.905000
-0.017409 -0.010638 0.895000
0.000274 -0.009555 0.897000
0.001014 -0.039872 0.898000
0.019732 0.020971 0.892000
-0.018105 0.027610 0.893000
0.006558 -0.039133 0.898000
0.024872 -0.008767 0.892000
-0.007094 0.011832 0.895000
0.015781 -0.042412 0.897000
-0.003049 -0.024691 0.897000
0.010232 -0.007331 0.896000
0.009473 0.001884 0.894000
-0.026470 0.005539 0.890000
0.015552 -0.048347 0.884000
-0.006379 -0.031372 0.898000
0.014526 0.025262 0.888000
-0.007126 -0.035107 0.899000
-0.004495 0.018380 0.891000
-0.019208 0.013276 0.893000
-0.008172 0.030883 0.892000
-0.018125 -0.009523 0.894000
0.000275 -0.014000 0.898000
-0.019920 0.019869 0.892000
-0.015463 -0.033619 0.889000
-0.003753 0.033706 0.889000
-0.030866 0.031913 0.890000
-0.019597 0.027273 0.894000
0.021224 -0.015393 0.893000
-0.011553 -0.006608 0.898000
-0.004147 0.010358 0.895000
-0.006688 0.023854 0.890000
-0.010433 -0.019154 0.897000
0.004326 0.005201 0.895000
-0.000094 0.046720 0.886000
0.013873 -0.013187 0.893000
0.015763 -0.034621 0.896000
0.012008 0.007012 0.891000
0.019798 -0.026110 0.895000
0.018345 -0.037940 0.896000
-0.010386 0.029080 0.893000
-0.019619 0.004465 0.895000
0.013826 0.007004 0.890000
0.005449 -0.042829 0.898000
-0.006308 0.035861 0.888000
0.023403 0.005551 0.892000
0.004365 0.003390 0.903000
0.016969 -0.048237 0.882000
0.013445 0.015046 0.889000
0.012049 -0.017618 0.894000
0.018735 -0.039459 0.897000
0.012022 0.001880 0.892000
-0.027662 0.019891 0.893000
0.001736 0.022729 0.889000
0.011237 0.027090 0.888000
0.027503 -0.026449 0.894000
0.023010 -0.002890 0.891000
0.013430 0.021242 0.888000
0.020489 -0.019436 0.893000
-0.012279 -0.011770 0.897000
0.000638 0.027852 0.889000
-0.000460 0.026754 0.889000
-0.020356 0.002254 0.895000
-0.035668 0.022414 0.891000
0.009786 0.018339 0.889000
0.005012 0.044168 0.886000
0.014909 0.020168 0.889000
0.011681 -0.001428 0.894000
0.023062 -0.015393 0.893000
-0.015971 0.001152 0.897000
0.022669 -0.008767 0.892000
-0.022099 -0.003990 0.891000
0.022302 0.011058 0.892000
-0.007487 -0.012522 0.898000
0.007297 -0.042460 0.898000
0.012417 -0.013938 0.894000
0.009105 0.002252 0.894000
-0.003011 0.047450 0.886000
-0.010363 0.024614 0.891000
0.000275 -0.042877 0.899000
0.008037 -0.030632 0.898000
0.017876 -0.003623 0.891000
0.011363 -0.041351 0.898000
0.012222 -0.049577 0.880000
0.000269 0.051719 0.878000
-0.007496 -0.037697 0.899000
-0.004161 -0.030632 0.898000
0.024571 0.019852 0.908000
0.005819 -0.040242 0.898000
0.001734 0.031841 0.888000
-0.001917 0.048544 0.886000
-0.014797 0.026507 0.893000
0.006851 -0.052586 0.888000
-0.027662 0.014746 0.893000
0.021713 0.020742 0.898000
-0.013401 -0.030263 0.898000
-0.012265 0.010001 0.896000
-0.008227 -0.008456 0.898000
0.001753 -0.033959 0.898000
0.030850 -0.016532 0.895000
0.009473 -0.014674 0.894000
-0.012292 -0.035068 0.898000
0.018589 0.017260 0.890000
-0.034047 0.030345 0.887000
-0.004119 0.034072 0.889000
-0.023277 0.004460 0.894000
-0.021437 0.008507 0.894000
-0.014093 0.011095 0.895000
-0.010409 0.009990 0.895000
-0.003038 0.013658 0.894000
0.020076 0.015813 0.891000
-0.021732 0.031215 0.891000
0.022745 -0.029793 0.895000
-0.012662 -0.003652 0.898000
0.015274 0.026754 0.889000
-0.002313 -0.012152 0.898000
0.007289 -0.035398 0.897000
-0.029834 0.023173 0.892000
-0.016467 -0.034521 0.884000
-0.001919 0.042392 0.887000
-0.006741 -0.016200 0.897000
-0.030831 0.032609 0.889000
0.026400 -0.024241 0.894000
-0.018125 0.009611 0.894000
0.019710 0.001511 0.891000
-0.029235 0.035012 0.885000
-0.020333 0.007403 0.894000
-0.004495 0.019113 0.891000
0.003192 0.034361 0.887000
0.022644 0.002244 0.891000
0.005068 0.001888 0.896000
-0.016249 0.016198 0.892000
0.007641 0.002254 0.895000
0.016372 0.016143 0.889000
-0.016616 0.023908 0.892000
0.019040 0.026537 0.894000
-0.030465 0.014314 0.889000
-0.010075 -0.012892 0.898000
0.019083 -0.045684 0.896000
0.017200 -0.017618 0.894000
-0.014478 -0.013969 0.896000
-0.012239 0.045771 0.868000
0.015378 -0.023900 0.895000
0.008313 0.044998 0.888000
-0.017718 0.021705 0.892000
-0.015549 -0.030864 0.894000
-0.001203 -0.015462 0.897000
-0.019400 -0.027275 0.885000
0.008294 0.039792 0.886000
-0.008976 -0.037327 0.899000
-0.019553 0.018768 0.892000
-0.017841 -0.035451 0.880000
-0.025824 0.019524 0.893000
-0.030935 0.022439 0.892000
0.019842 -0.043889 0.897000
-0.016340 -0.022845 0.897000
0.009399 0.030345 0.887000
-0.012592 -0.039283 0.893000
0.033877 -0.016007 0.907000
-0.007062 0.026081 0.891000
0.001734 0.029648 0.888000
-0.010444 -0.030632 0.898000
-0.020333 -0.011730 0.894000
-0.014847 -0.009913 0.896000
-0.029099 0.022806 0.892000
0.014161 0.027090 0.888000
-0.008966 -0.029524 0.898000
-0.021413 0.015113 0.893000
-0.009284 0.014378 0.893000
0.027871 -0.029392 0.894000
0.014288 -0.034621 0.896000
0.013842 0.002244 0.891000
0.031551 -0.021665 0.894000
0.000644 -0.015092 0.897000
0.015043 -0.040566 0.897000
-0.013999 0.035902 0.889000
0.029711 -0.025713 0.894000
-0.012662 -0.027676 0.898000
0.006522 0.011070 0.893000
-0.005229 0.027181 0.891000
0.013064 0.037689 0.888000
-0.019057 0.038333 0.886000
0.016501 -0.046422 0.896000
0.022644 -0.004357 0.891000
-0.005264 -0.025799 0.897000
0.012458 -0.036136 0.897000
0.036908 -0.028817 0.899000
0.013430 0.020876 0.888000
-0.019294 -0.017677 0.897000
0.015658 0.009202 0.890000
-0.016616 0.019502 0.892000
-0.003414 -0.020976 0.896000
-0.002310 -0.025799 0.897000
-0.008227 -0.039133 0.898000
-0.000095 -0.044727 0.899000
0.028271 -0.032740 0.895000
0.011733 -0.029893 0.898000
0.008037 -0.046895 0.898000
0.015763 -0.030933 0.896000
0.032901 -0.005954 0.911000
0.001004 0.027120 0.889000
-0.020242 0.032279 0.890000
-0.011910 -0.000694 0.897000
-0.003380 0.040567 0.887000
0.012727 0.009934 0.890000
-0.026133 0.030482 0.891000
0.022327 0.014746 0.893000
0.017258 -0.043520 0.897000
-0.025824 0.014746 0.893000
-0.014030 0.023147 0.891000
0.033428 -0.029793 0.895000
0.021935 0.014362 0.892000
0.026032 -0.026449 0.894000
0.013079 0.017973 0.889000
-0.019987 0.000413 0.895000
0.002462 0.040202 0.887000
0.006168 -0.020953 0.895000
-0.007110 -0.018046 0.897000
-0.019898 -0.024159 0.891000
-0.030568 0.027946 0.892000
0.029343 -0.012834 0.894000
0.008331 0.013231 0.890000
-0.028732 0.022806 0.892000
0.018955 0.017627 0.890000
0.026577 0.006712 0.900000
0.019321 0.004440 0.890000
0.011224 0.029980 0.887000
0.021910 0.000777 0.891000
-0.031821 0.033593 0.886000
-0.014109 0.005207 0.896000
-0.013401 -0.027306 0.898000
0.008388 -0.006594 0.896000
0.028208 -0.020538 0.893000
0.013182 0.047616 0.896000
-0.001188 0.045626 0.886000
0.017490 0.004440 0.890000
-0.010328 0.042075 0.888000
0.022302 -0.013540 0.892000
0.017765 0.038740 0.904000
-0.004161 -0.010304 0.898000
0.009764 0.035821 0.887000
-0.020794 -0.034328 0.898000
0.025123 0.012282 0.901000
-0.002292 0.030081 0.890000
-0.029132 0.019891 0.893000
0.015326 -0.005830 0.892000
-0.005223 0.022755 0.890000
0.011954 0.031075 0.887000
-0.010409 0.012569 0.895000
-0.011843 0.016932 0.892000
0.011681 -0.013938 0.894000
0.014304 -0.045735 0.897000
0.010981 -0.035029 0.897000
-0.003015 0.043853 0.887000
0.014925 0.005172 0.890000
0.038610 -0.023253 0.913000
0.023036 -0.012438 0.892000
-0.015602 0.004105 0.897000
0.002473 0.016180 0.891000
0.019321 0.011399 0.890000
-0.015165 -0.032300 0.893000
0.023456 -0.022769 0.894000
0.018222 0.020191 0.890000
0.038025 -0.025368 0.908000
0.004689 0.010715 0.894000
0.028575 -0.011717 0.893000
0.010506 0.025262 0.888000
-0.002290 0.024193 0.889000
-0.016983 0.023540 0.892000
-0.013371 -0.013232 0.896000
0.012347 -0.048254 0.889000
-0.010814 -0.008456 0.898000
-0.006748 -0.015109 0.898000
-0.004884 -0.045265 0.895000
0.019343 -0.004357 0.891000
-0.017175 -0.033755 0.883000
-0.026559 0.011805 0.893000
0.032169 -0.011451 0.901000
-0.005646 -0.038067 0.899000
0.013079 0.015046 0.889000
-0.019943 -0.006572 0.893000
-0.016691 -0.001062 0.896000
0.020535 -0.032740 0.895000
0.007289 -0.011031 0.897000
-0.010802 -0.014723 0.897000
-0.022123 0.027579 0.892000
-0.003757 0.019458 0.890000
-0.003391 0.026784 0.890000
0.020857 -0.015025 0.893000
0.021592 -0.018701 0.893000
-0.001190 0.035130 0.888000
0.017675 -0.048183 0.881000
-0.029834 0.016198 0.892000
0.015274 0.015046 0.889000
-0.004856 0.023121 0.890000
0.015274 0.025657 0.889000
0.009146 -0.046156 0.898000
0.020558 -0.035358 0.896000
0.020099 -0.007666 0.892000
-0.030133 0.014696 0.890000
0.011325 -0.020216 0.895000
0.017490 0.026784 0.890000
-0.011923 -0.004391 0.898000
0.018630 -0.008033 0.892000
-0.009336 -0.010304 0.898000
0.012361 0.045100 0.890000
-0.001937 -0.047475 0.895000
0.006874 0.013613 0.891000
0.018923 0.036961 0.906000
0.002484 -0.017637 0.895000
-0.012279 -0.009924 0.897000
0.030652 -0.007364 0.900000
0.010636 -0.027336 0.899000
-0.018024 0.035170 0.889000
-0.009651 0.028712 0.893000
0.013920 -0.023557 0.896000
-0.001943 -0.036546 0.898000
-0.005955 0.021290 0.890000
0.009054 0.020534 0.889000
0.009775 0.028552 0.888000
-0.023173 0.034843 0.890000
-0.028029 0.019524 0.893000
0.006485 0.028186 0.888000
0.009483 -0.019848 0.895000
0.002123 -0.038394 0.898000
0.005449 -0.032480 0.898000
-0.000094 0.028218 0.889000
0.015799 0.041070 0.898000
0.017568 -0.018354 0.894000
0.024192 0.009243 0.894000
-0.006726 0.010727 0.895000
-0.026191 0.016584 0.893000
0.012102 -0.026197 0.898000
-0.011196 -0.032887 0.899000
-0.008529 0.025714 0.891000
-0.012945 0.015831 0.892000
-0.004142 0.014762 0.894000
0.018955 0.020191 0.890000
-0.031669 0.026110 0.892000
0.014288 -0.033883 0.896000
0.013064 0.025628 0.888000
0.029711 -0.029392 0.894000
0.007658 -0.033921 0.897000
-0.025456 0.013276 0.893000
0.009125 -0.010282 0.896000
0.022644 0.002978 0.891000
-0.007023 0.046720 0.886000
0.024872 -0.003994 0.892000
0.004340 -0.047634 0.898000
0.015412 -0.038351 0.897000
0.011313 -0.001796 0.894000
0.024560 -0.023873 0.894000
0.020857 -0.013555 0.893000
0.011300 0.000412 0.893000
0.011733 -0.041351 0.898000
-0.020288 -0.011337 0.892000
-0.015971 -0.022845 0.897000
0.038230 -0.029349 0.904000
0.003601 -0.026936 0.898000
-0.022148 -0.001059 0.893000
0.021959 -0.016495 0.893000
0.010553 0.005551 0.892000
0.022277 0.002244 0.891000
0.011615 0.016509 0.889000
-0.001941 -0.026168 0.897000
-0.000824 0.042027 0.887000
-0.007429 0.026081 0.891000
0.005449 -0.033959 0.898000
0.009146 -0.030263 0.898000
0.016501 -0.028352 0.896000
-0.025795 0.022439 0.892000
0.012049 -0.015778 0.894000
-0.022148 -0.002161 0.893000
-0.019229 -0.008051 0.894000
0.025664 -0.024609 0.894000
0.027127 0.009740 0.906000
0.005449 -0.042090 0.898000
0.012713 0.017607 0.889000
-0.015148 0.024275 0.892000
-0.002646 0.045262 0.886000
-0.018146 0.007043 0.895000
-0.017021 0.009611 0.894000
-0.029834 0.027579 0.892000
0.000636 0.039107 0.887000
0.023692 0.018256 0.903000
0.007257 0.009600 0.893000
0.004731 0.002272 0.902000
0.011249 0.018705 0.889000
-0.012292 -0.006239 0.898000
-0.015232 0.003736 0.897000
0.008019 -0.006225 0.896000
0.001757 -0.031812 0.900000
-0.023566 0.031582 0.891000
-0.009673 0.012569 0.895000
0.013904 -0.021321 0.895000
0.007200 0.040886 0.886000
-0.015480 0.031913 0.890000
0.019798 -0.030898 0.895000
0.006492 0.024193 0.889000
0.012827 -0.040197 0.897000
-0.019165 0.030848 0.891000
-0.019965 0.007771 0.894000
-0.005211 0.035861 0.888000
0.025606 -0.005463 0.892000
0.030447 -0.025713 0.894000
0.009852 -0.021689 0.895000
-0.026191 0.011070 0.893000
0.011287 0.001880 0.892000
0.000275 -0.041767 0.899000
-0.017737 0.013643 0.893000
-0.008936 0.012200 0.895000
-0.027631 0.026845 0.892000
0.017568 -0.020193 0.894000
0.020420 0.006637 0.890000
0.018243 0.002611 0.891000
0.022745 -0.029425 0.895000
0.024192 -0.023873 0.894000
0.013152 -0.015778 0.894000
0.021713 0.021112 0.898000
-0.009694 -0.018415 0.897000
-0.024666 0.029748 0.891000
0.020167 -0.026846 0.895000
0.024532 -0.021641 0.893000
-0.018473 -0.019803 0.893000
-0.014416 0.045519 0.870000
-0.002315 -0.042507 0.899000
-0.030133 0.031913 0.890000
-0.019229 0.025433 0.894000
0.004694 -0.020953 0.895000
-0.016560 0.034072 0.889000
0.013826 0.009202 0.890000
-0.018146 0.008148 0.895000
0.025267 0.001514 0.893000
0.026797 0.001518 0.895000
-0.008217 -0.016938 0.897000
0.002118 -0.024295 0.896000
-0.013327 -0.036343 0.893000
0.005080 -0.047634 0.898000
-0.000464 -0.022082 0.896000
0.003214 0.013276 0.893000
-0.028764 0.018054 0.893000
0.012770 -0.003631 0.893000
0.023824 0.009979 0.894000
0.027840 -0.013923 0.893000
0.018366 -0.044258 0.897000
0.009409 0.027821 0.888000
-0.015249 -0.025458 0.898000
0.006905 -0.014322 0.895000
0.007590 0.023095 0.889000
0.023088 -0.024241 0.894000
-0.007118 -0.012522 0.898000
0.013430 0.030014 0.888000
0.026002 -0.003264 0.893000
-0.011553 -0.025458 0.898000
0.006500 0.016894 0.890000
0.013182 -0.047159 0.896000
0.006195 -0.043987 0.899000
-0.001201 -0.024295 0.896000
0.021200 -0.010603 0.892000
-0.000095 -0.009565 0.898000
0.010506 0.028186 0.888000
0.019061 -0.027215 0.895000
-0.020060 -0.027183 0.882000
-0.007831 -0.042318 0.895000
0.032692 -0.022058 0.895000
-0.021756 0.027946 0.892000
-0.014478 -0.012125 0.896000
0.003962 -0.021714 0.896000
0.013445 0.014680 0.889000
0.025664 0.004460 0.894000
-0.021413 0.010703 0.893000
0.013064 0.032206 0.888000
0.007565 0.044532 0.886000
-0.024135 0.037926 0.885000
0.020121 0.022097 0.893000
0.008028 -0.033921 0.897000
-0.012959 0.014378 0.893000
0.014690 -0.044308 0.898000
0.007573 0.036916 0.887000
-0.007496 -0.036217 0.899000
-0.003791 -0.033220 0.898000
0.015009 -0.022058 0.895000
0.011249 0.020168 0.889000
0.020833 0.017299 0.892000
-0.002302 0.011819 0.894000
-0.015584 0.006313 0.896000
-0.002670 0.012187 0.894000
0.014925 0.006271 0.890000
0.009874 -0.032444 0.897000
0.007208 0.036916 0.887000
-0.012251 0.010727 0.895000
0.027105 -0.023846 0.893000
0.009033 0.030345 0.887000
-0.021756 0.019869 0.892000
0.032692 -0.021689 0.895000
0.001757 -0.028849 0.900000
0.020787 0.008835 0.890000
0.002859 -0.009555 0.897000
-0.001204 -0.038394 0.898000
0.015676 0.002978 0.891000
0.002467 0.024559 0.889000
0.011262 0.010301 0.890000
0.007667 -0.043568 0.898000
0.005754 0.026724 0.888000
0.007929 0.041615 0.886000
-0.007421 0.024587 0.890000
0.005401 0.017627 0.890000
0.026002 -0.016128 0.893000
-0.009325 -0.015831 0.897000
0.006133 0.017627 0.890000
0.014892 0.024897 0.888000
0.004658 0.026359 0.888000
-0.012563 0.017647 0.891000
0.020099 -0.008400 0.892000
0.006905 0.000781 0.895000
0.014909 0.013582 0.889000
-0.015584 -0.012863 0.896000
0.011981 0.013948 0.889000
0.026783 0.011617 0.907000
0.017200 -0.018354 0.894000
0.017627 -0.042412 0.897000
0.009115 -0.020216 0.895000
-0.011540 -0.018415 0.897000
0.004345 -0.032147 0.899000
-0.029466 0.022439 0.892000
0.008303 0.033631 0.887000
0.022669 -0.007666 0.892000
-0.014847 0.008895 0.896000
0.018714 -0.032039 0.896000
0.002495 -0.044727 0.899000
-0.023932 0.031215 0.891000
0.006161 0.009979 0.894000
-0.010802 -0.017677 0.897000
0.005413 0.013995 0.892000
0.003971 -0.038764 0.898000
0.010129 0.038376 0.887000
0.006492 0.024559 0.889000
0.014575 0.003711 0.891000
-0.018840 0.012908 0.893000
0.029311 -0.022008 0.893000
-0.017059 -0.024295 0.896000
-0.028764 0.021729 0.893000
0.002109 0.015464 0.892000
0.027840 -0.023846 0.893000
0.015728 -0.020561 0.894000
0.012699 0.025628 0.888000
-0.030568 0.027212 0.892000
-0.001559 0.020191 0.890000
0.016132 -0.030195 0.896000
0.002125 -0.043617 0.899000
0.005819 -0.041351 0.898000
-0.025004 0.034477 0.890000
0.004282 0.044168 0.886000
-0.017797 0.004838 0.896000
0.004647 0.042344 0.886000
0.019776 -0.021665 0.894000
-0.033026 0.018705 0.889000
-0.014780 -0.039239 0.892000
-0.011527 0.008157 0.896000
-0.016322 -0.018026 0.896000
0.020581 -0.043151 0.897000
-0.026162 0.023540 0.892000
0.016132 -0.030564 0.896000
-0.018514 -0.008060 0.895000
-0.004900 -0.014740 0.898000
0.030481 -0.012849 0.895000
-0.014880 -0.025458 0.898000
0.031551 -0.030864 0.894000
0.023403 -0.013907 0.892000
-0.010444 -0.042090 0.898000
0.008388 -0.012125 0.896000
-0.022541 0.005931 0.894000
0.009775 0.024897 0.888000
0.002101 0.026754 0.889000
-0.007479 -0.023584 0.897000
0.017104 0.022364 0.889000
0.003971 -0.026936 0.898000
0.025324 0.006675 0.895000
-0.006002 -0.022845 0.897000
-0.005646 -0.038437 0.899000
-0.013386 -0.021738 0.897000
-0.002682 -0.012522 0.898000
0.010494 0.038376 0.887000
-0.014780 0.018768 0.892000
-0.020288 -0.024187 0.892000
-0.012954 0.045414 0.868000
0.008275 -0.049802 0.884000
-0.000460 0.022022 0.890000
-0.005445 0.047860 0.867000
0.022644 0.003711 0.891000
0.001367 0.038742 0.887000
0.008600 -0.051026 0.880000
-0.001573 -0.027676 0.898000
0.014741 -0.049882 0.879000
-0.031302 0.025743 0.892000
0.023824 0.010347 0.894000
-0.003757 0.019825 0.890000
-0.011121 0.014011 0.893000
-0.001205 -0.029557 0.899000
0.007565 0.041250 0.886000
-0.021365 -0.007290 0.891000
-0.014462 -0.032372 0.895000
0.022644 -0.003623 0.891000
-0.023592 0.022439 0.892000
0.013064 0.034765 0.888000
0.009023 0.041250 0.886000
-0.011437 0.034072 0.889000
0.013138 0.045987 0.893000
0.010529 0.013964 0.890000
-0.005438 0.048874 0.866000
0.022669 -0.013540 0.892000
-0.020632 0.030115 0.891000
0.011589 0.029980 0.887000
-0.023173 0.034111 0.890000
0.015676 -0.047263 0.891000
-0.009336 -0.037655 0.898000
0.008331 0.013964 0.890000
-0.002664 0.016198 0.892000
0.024138 -0.010236 0.892000
0.033130 -0.012648 0.907000
0.002484 -0.048948 0.895000
-0.001919 0.043487 0.887000
0.031253 -0.013232 0.896000
-0.007462 0.009990 0.895000
0.009885 -0.045786 0.898000
0.029343 -0.028288 0.894000
-0.006009 -0.010674 0.898000
-0.008199 0.009990 0.895000
0.005080 -0.038764 0.898000
-0.004124 0.021656 0.890000
0.010494 0.035821 0.887000
-0.018514 0.003359 0.895000
-0.007039 0.036958 0.888000
0.003927 0.027455 0.888000
0.011681 -0.015042 0.894000
0.021616 -0.024609 0.894000
0.009874 -0.033552 0.897000
-0.030900 0.029748 0.891000
0.031427 -0.008485 0.901000
0.005437 -0.013969 0.896000
-0.001190 0.036592 0.888000
0.015658 0.031180 0.890000
0.031551 -0.031968 0.894000
-0.031669 0.025376 0.892000
-0.003391 0.031180 0.890000
-0.018756 0.035902 0.889000
-0.013371 0.008526 0.896000
0.027903 -0.031635 0.895000
0.002125 -0.046577 0.899000
0.017529 -0.005463 0.892000
0.017490 0.007370 0.890000
0.003597 -0.009924 0.897000
-0.014698 0.040202 0.887000
0.005401 0.017993 0.890000
0.005012 0.042344 0.886000
0.023824 -0.023873 0.894000
0.024505 0.003348 0.892000
-0.028764 0.021362 0.893000
0.006889 0.010703 0.893000
0.028183 0.004509 0.904000
-0.001915 0.049217 0.885000
-0.008539 0.031250 0.892000
0.003553 0.041980 0.886000
0.008688 0.019436 0.889000
0.004652 0.035821 0.887000
0.010981 -0.037613 0.897000
0.024505 -0.001792 0.892000
0.007947 0.030379 0.888000
-0.001204 -0.014370 0.898000
0.009775 0.026724 0.888000
0.029877 -0.005136 0.899000
-0.005969 0.016565 0.892000
0.019688 0.006271 0.890000
-0.029867 0.021729 0.893000
-0.008227 -0.027306 0.898000
-0.004530 -0.011783 0.898000
0.004668 0.016161 0.890000
0.009125 -0.006225 0.896000
0.018222 0.019092 0.890000
0.013566 -0.036505 0.897000
0.026032 -0.024241 0.894000
0.028208 -0.023479 0.893000
-0.032036 0.021705 0.892000
0.024872 -0.014274 0.892000
0.020512 -0.024977 0.894000
-0.005576 0.035496 0.888000
0.020903 -0.033109 0.895000
-0.007822 0.013290 0.894000
0.011325 -0.004376 0.895000
-0.015686 0.041743 0.881000
0.024138 0.003348 0.892000
-0.019208 -0.020538 0.893000
0.017996 -0.042412 0.897000
0.012333 0.027090 0.888000
-0.008976 -0.034737 0.899000
-0.001917 0.046720 0.886000
-0.016579 -0.030360 0.890000
0.011733 -0.025088 0.898000
0.028575 -0.016863 0.893000
0.015274 0.025291 0.889000
-0.009705 -0.026936 0.898000
0.014256 -0.016146 0.894000
0.006928 -0.042460 0.898000
-0.007102 -0.019870 0.896000
0.007257 0.010703 0.893000
0.014161 0.024897 0.888000
0.031183 -0.020193 0.894000
-0.025061 0.024275 0.892000
-0.005205 0.043122 0.887000
-0.027935 0.008103 0.890000
0.004321 0.009243 0.894000
-0.001196 0.016565 0.892000
-0.005264 -0.028383 0.897000
0.027840 -0.023111 0.893000
-0.007866 -0.037697 0.899000
0.027780 0.004504 0.903000
0.013826 0.008469 0.890000
-0.017718 0.018033 0.892000
0.005761 0.023461 0.889000
0.023430 -0.018701 0.893000
0.007289 -0.010293 0.897000
-0.025089 0.016216 0.893000
-0.010790 0.008895 0.896000
-0.033101 0.016546 0.891000
0.019386 0.025037 0.893000
-0.011463 0.031582 0.891000
-0.018545 -0.033964 0.879000
0.000272 0.020923 0.890000
0.026429 -0.033109 0.895000
0.008993 -0.049746 0.883000
0.022644 0.001144 0.891000
-0.012521 0.040613 0.888000
-0.005633 -0.022476 0.897000
0.012458 -0.037613 0.897000
-0.009304 0.009253 0.895000
0.010612 -0.035029 0.897000
-0.018369 0.038420 0.888000
0.006843 0.032170 0.887000
-0.018861 0.025801 0.894000
0.027105 -0.012452 0.893000
-0.016907 0.038054 0.888000
-0.018861 0.008139 0.894000
0.023797 0.007027 0.893000
-0.005589 0.020191 0.890000
-0.026470 0.006271 0.890000
0.024872 -0.009501 0.892000
0.017607 -0.045315 0.896000
0.010152 0.015777 0.889000
0.006471 0.043074 0.886000
-0.012292 -0.024349 0.898000
-0.003045 -0.018395 0.896000
0.009830 0.003352 0.893000
0.021543 0.011412 0.891000
0.007582 0.027090 0.888000
0.013811 0.036268 0.889000
-0.013740 0.010001 0.896000
0.003953 0.008139 0.894000
-0.016635 0.012173 0.893000
-0.018105 -0.019068 0.893000
0.015640 0.012484 0.889000
0.020144 -0.023137 0.894000
0.020076 0.017647 0.891000
0.010254 -0.045047 0.898000
-0.016340 -0.020630 0.897000
0.012842 -0.026197 0.898000
0.017239 -0.031671 0.896000
0.007641 -0.013585 0.895000
0.026754 0.010486 0.906000
0.003944 0.015096 0.892000
-0.007078 0.015113 0.893000
0.001380 -0.024295 0.896000
-0.017777 -0.005113 0.895000
-0.000825 0.031476 0.888000
0.007582 0.025993 0.888000
-0.017718 0.015096 0.892000
0.029711 -0.015042 0.894000
0.008786 -0.026596 0.899000
-0.017428 0.005945 0.896000
-0.011476 0.015096 0.892000
-0.013999 0.038463 0.889000
0.025973 -0.010236 0.892000
-0.017409 -0.006218 0.895000
-0.013999 -0.037277 0.889000
0.028208 -0.016495 0.893000
0.007929 0.040886 0.886000
0.025607 0.013454 0.905000
-0.018514 0.006675 0.895000
-0.023147 0.035536 0.889000
0.011589 0.035091 0.887000
0.002470 0.018359 0.890000
-0.008936 0.012937 0.895000
-0.014125 0.000413 0.897000
-0.024326 0.023173 0.892000
0.016262 -0.048292 0.883000
-0.008520 0.033012 0.890000
0.019061 -0.025741 0.895000
0.018589 0.008103 0.890000
-0.001201 -0.018763 0.896000
0.014177 0.014314 0.889000
-0.014413 0.015464 0.892000
0.002827 0.039107 0.887000
0.016132 -0.046053 0.896000
0.016464 -0.019825 0.894000
0.016096 -0.022033 0.894000
0.012361 0.008835 0.890000
0.035389 -0.024719 0.898000
-0.019619 -0.002166 0.895000
0.020787 0.009202 0.890000
-0.024721 0.014378 0.893000
-0.013756 -0.031337 0.897000
-0.003757 0.020923 0.890000
-0.022465 0.030482 0.891000
-0.005205 0.041662 0.887000
-0.012156 0.040613 0.888000
-0.016267 0.025037 0.893000
-0.004156 -0.028383 0.897000
-0.011803 0.033340 0.889000
0.002465 0.030014 0.888000
0.030815 -0.031968 0.894000
0.007565 0.038333 0.886000
0.013551 -0.031671 0.896000
0.018672 -0.019457 0.894000
0.028208 -0.013555 0.893000
0.020787 0.008469 0.890000
-0.007761 0.046043 0.887000
-0.028397 0.016216 0.893000
-0.008946 -0.018763 0.896000
-0.004156 -0.024322 0.897000
-0.019208 -0.019436 0.893000
0.012347 0.016509 0.889000
-0.017718 0.019502 0.892000
0.011733 -0.025828 0.898000
0.010232 -0.008069 0.896000
0.015009 -0.023163 0.895000
0.031160 -0.005908 0.904000
0.024532 0.006292 0.893000
0.028152 0.003761 0.903000
0.020420 0.008835 0.890000
0.010197 0.004087 0.893000
0.007289 -0.035029 0.897000
0.027534 -0.032004 0.895000
-0.013017 -0.023215 0.897000
0.031955 -0.019479 0.895000
0.009033 0.032535 0.887000
-0.032734 0.025714 0.891000
0.024560 0.007403 0.894000
0.016738 0.021632 0.889000
-0.022148 0.016584 0.893000
-0.025061 0.020971 0.892000
0.013064 0.023800 0.888000
-0.014413 0.023908 0.892000
-0.009673 0.011464 0.895000
0.019083 -0.037571 0.896000
-0.016560 0.036268 0.889000
0.016132 -0.025401 0.896000
-0.010694 0.041344 0.888000
0.005437 -0.008069 0.896000
0.016870 -0.030933 0.896000
0.027903 0.007511 0.907000
0.009797 0.013964 0.890000
0.015412 -0.037613 0.897000
-0.010075 -0.010674 0.898000
0.034363 -0.011191 0.910000
-0.001188 0.047450 0.886000
0.024807 0.014539 0.903000
0.017509 0.027548 0.891000
0.007641 -0.017269 0.895000
0.015781 -0.043520 0.897000
0.009146 -0.045416 0.898000
-0.003757 0.032645 0.890000
0.028397 -0.000326 0.899000
0.012062 -0.021689 0.895000
-0.005287 -0.047052 0.901000
0.008756 -0.006594 0.896000
-0.010041 0.011464 0.895000
-0.025004 0.002608 0.890000
-0.007462 0.011832 0.895000
-0.008135 0.041344 0.888000
0.007607 -0.049096 0.891000
-0.025824 0.018054 0.893000
-0.005205 0.040567 0.887000
-0.004480 0.036592 0.888000
0.000273 0.015831 0.892000
0.020167 0.023988 0.895000
0.008046 -0.029187 0.899000
0.014925 -0.047576 0.890000
-0.013371 -0.014338 0.896000
0.020054 0.004440 0.890000
0.020076 0.016913 0.891000
0.008397 -0.033921 0.897000
-0.000834 -0.033959 0.898000
0.010577 -0.016882 0.894000
0.016372 0.019802 0.889000
0.001363 0.050674 0.885000
-0.007848 -0.025799 0.897000
-0.003025 0.023121 0.890000
0.014992 -0.021665 0.894000
0.023904 0.012966 0.897000
-0.003399 0.016198 0.892000
-0.022516 0.014746 0.893000
-0.008966 -0.007717 0.898000
0.009399 0.036551 0.887000
-0.017737 -0.026051 0.893000
-0.027998 0.023540 0.892000
-0.011096 0.021314 0.891000
0.007938 0.037281 0.887000
0.019104 -0.042043 0.897000
0.013197 -0.036136 0.897000
0.014177 0.035902 0.889000
0.014177 0.034072 0.889000
-0.014780 0.030149 0.892000
-0.006329 0.027181 0.891000
0.024138 -0.011704 0.892000
0.002865 -0.028447 0.899000
0.022745 -0.032372 0.895000
0.016132 -0.029827 0.896000
-0.015165 0.027977 0.893000
0.029745 -0.009902 0.895000
0.016832 -0.019089 0.894000
-0.008135 0.035496 0.888000
0.013138 -0.004366 0.893000
-0.011540 0.000783 0.897000
0.009483 -0.011375 0.895000
-0.017409 -0.004008 0.895000
0.010129 0.035456 0.887000
0.014543 0.015777 0.889000
0.002859 -0.014354 0.897000
-0.014062 0.013276 0.893000
-0.013756 0.001521 0.897000
-0.025257 0.035781 0.886000
0.014992 -0.016882 0.894000
-0.005942 0.036958 0.888000
-0.010433 -0.020630 0.897000
-0.013633 0.038463 0.889000
0.023403 -0.013173 0.892000
-0.027233 0.027915 0.891000
0.003206 0.016913 0.891000
-0.011553 -0.029893 0.898000
-0.006748 -0.008826 0.898000
0.006168 -0.019479 0.895000
-0.009315 -0.040152 0.896000
0.031367 -0.001453 0.910000
0.001745 0.010715 0.894000
0.016060 -0.002526 0.892000
-0.006379 -0.011413 0.898000
-0.011910 -0.013246 0.897000
0.000636 0.041662 0.887000
-0.015584 -0.004012 0.896000
-0.036035 0.026815 0.891000
0.002492 -0.038394 0.898000
0.035428 -0.024006 0.899000
-0.019619 -0.003639 0.895000
-0.010363 0.022047 0.891000
0.014177 0.015777 0.889000
0.015274 0.030413 0.889000
0.007956 0.023461 0.889000
0.018304 -0.023505 0.894000
0.001382 -0.013616 0.897000
-0.001193 0.022389 0.890000
-0.023645 0.008875 0.894000
0.016006 0.015777 0.889000
0.022652 0.024283 0.906000
0.010529 0.013231 0.890000
0.009505 -0.038351 0.897000
-0.028365 0.024275 0.892000
0.023797 -0.020906 0.893000
-0.029235 0.035376 0.885000
-0.010778 -0.039371 0.895000
0.012062 -0.022794 0.895000
0.014304 -0.036875 0.897000
0.010553 0.005184 0.892000
0.017856 0.007736 0.890000
-0.018840 -0.019803 0.893000
0.031288 -0.012139 0.897000
-0.005252 -0.045265 0.895000
0.000272 0.033668 0.888000
-0.019553 -0.008400 0.892000
-0.000464 -0.018763 0.896000
0.009494 -0.009913 0.896000
0.015763 0.039135 0.896000
0.009764 0.033631 0.887000
-0.009694 -0.015831 0.897000
0.004340 -0.034328 0.898000
-0.014062 0.028345 0.893000
-0.018146 0.007412 0.895000
0.009399 0.034726 0.887000
0.005023 0.027455 0.888000
0.007667 -0.046156 0.898000
0.001014 -0.035437 0.898000
0.021910 0.006278 0.891000
-0.000095 -0.028076 0.899000
-0.018105 -0.019436 0.893000
0.021959 -0.015393 0.893000
-0.005633 -0.023953 0.897000
-0.025428 0.004817 0.892000
-0.001203 -0.015831 0.897000
0.020167 -0.029057 0.895000
-0.010730 0.018013 0.891000
0.018955 0.008469 0.890000
0.020212 -0.042043 0.897000
0.017745 0.033865 0.903000
-0.024326 0.020236 0.892000
-0.011553 -0.011413 0.898000
-0.013371 0.004838 0.896000
0.030815 -0.019825 0.894000
0.021568 0.015464 0.892000
0.006851 0.026359 0.888000
-0.015953 -0.010282 0.896000
-0.008568 0.012569 0.895000
-0.027202 0.004806 0.890000
0.005431 0.004096 0.895000
0.011694 -0.052632 0.895000
0.002492 -0.040242 0.898000
0.000636 0.040932 0.887000
-0.018514 -0.001798 0.895000
-0.003028 0.017647 0.891000
0.024246 0.010739 0.896000
0.020054 0.005539 0.890000
0.035718 -0.028752 0.897000
0.002125 -0.032517 0.899000
-0.012945 0.016198 0.892000
0.003199 0.021266 0.889000
-0.016322 -0.002906 0.896000
0.028397 -0.033257 0.899000
0.001377 0.013658 0.894000
-0.006350 0.014026 0.894000
0.015640 0.021998 0.889000
-0.000835 -0.028447 0.899000
0.007281 -0.009913 0.896000
0.014272 -0.022794 0.895000
-0.000094 0.032937 0.888000
-0.011109 0.030516 0.892000
-0.011171 -0.013616 0.897000
0.014240 -0.005101 0.893000
-0.019186 0.018401 0.892000
-0.012279 -0.010293 0.897000
0.018651 -0.013923 0.893000
0.029343 -0.025713 0.894000
-0.028732 0.024642 0.892000
0.020810 -0.002156 0.891000
0.011615 0.019802 0.889000
-0.014847 -0.007700 0.896000
-0.033392 0.028584 0.889000
-0.014332 -0.038654 0.887000
0.005741 0.043438 0.886000
-0.028029 0.018789 0.893000
0.026032 -0.024977 0.894000
-0.007787 0.022755 0.890000
-0.017963 -0.029494 0.886000
0.001003 0.030379 0.888000
-0.026470 0.003707 0.890000
-0.009211 0.045991 0.886000
-0.004520 -0.021714 0.896000
0.012472 -0.044677 0.898000
-0.006002 -0.023953 0.897000
0.000644 -0.014354 0.897000
-0.023199 0.029748 0.891000
-0.013401 -0.032111 0.898000
0.017856 0.023488 0.890000
0.010981 -0.035767 0.897000
-0.014598 0.042831 0.881000
-0.020310 0.010335 0.893000
0.036538 -0.031037 0.899000
0.017896 -0.008033 0.892000
-0.013017 0.003736 0.897000
-0.003045 -0.018763 0.896000
0.033540 -0.010419 0.908000
-0.014413 0.017299 0.892000
0.015676 -0.000323 0.891000
0.032612 -0.011105 0.903000
-0.003418 -0.015831 0.897000
-0.008866 0.038785 0.888000
-0.005962 0.016913 0.891000
0.017529 -0.005830 0.892000
-0.018204 -0.036176 0.880000
0.018222 0.014696 0.890000
0.007938 0.032170 0.887000
0.009441 0.009945 0.891000
-0.012507 0.042392 0.887000
-0.031337 0.012173 0.893000
-0.030499 0.031546 0.890000
0.016078 -0.015025 0.893000
0.002498 -0.029589 0.900000
0.005023 0.031476 0.888000
-0.016709 0.002998 0.897000
0.002123 -0.033589 0.898000
-0.014847 -0.005487 0.896000
0.018881 0.035391 0.904000
0.022377 -0.031635 0.895000
0.027105 -0.013187 0.893000
-0.008886 0.023854 0.890000
0.001382 -0.012877 0.897000
-0.014413 0.017666 0.892000
-0.016340 0.001890 0.897000
0.013094 0.009202 0.890000
0.015395 -0.034990 0.896000
-0.026866 0.007745 0.891000
0.014161 0.026724 0.888000
-0.010802 -0.017308 0.897000
-0.012916 0.032645 0.890000
0.013566 -0.039459 0.897000
-0.026559 0.019156 0.893000
-0.008491 0.045678 0.887000
-0.007848 -0.021369 0.897000
0.013197 -0.024691 0.897000
-0.013756 -0.004755 0.897000
0.013935 -0.024691 0.897000
0.005761 0.021266 0.889000
-0.010814 -0.036546 0.898000
-0.008956 -0.017308 0.897000
-0.021805 0.008507 0.894000
0.021910 0.008112 0.891000
0.018714 -0.036096 0.896000
-0.020310 0.011070 0.893000
0.009420 0.021998 0.889000
-0.008966 -0.005869 0.898000
0.001012 -0.017288 0.896000
-0.000465 -0.033627 0.899000
-0.005639 -0.031372 0.898000
0.022720 -0.023137 0.894000
-0.019876 0.034111 0.890000
-0.018882 0.006675 0.895000
-0.004156 -0.027276 0.897000
0.015763 -0.025033 0.896000
-0.003795 -0.010316 0.899000
0.013123 -0.047683 0.892000
0.005029 0.025291 0.889000
-0.005223 0.022389 0.890000
-0.009705 -0.030632 0.898000
0.007929 0.040156 0.886000
0.028208 -0.010247 0.893000
0.021568 -0.009868 0.892000
0.027196 0.001151 0.896000
0.020880 -0.022769 0.894000
0.007224 0.023095 0.889000
-0.016340 0.004844 0.897000
0.010197 0.002984 0.893000
-0.000823 0.048544 0.886000
0.018806 -0.047929 0.883000
0.004345 -0.045467 0.899000
-0.019575 0.015113 0.893000
0.017996 -0.040197 0.897000
-0.009996 0.021314 0.891000
0.003228 -0.009185 0.897000
-0.011910 -0.036875 0.897000
-0.001552 0.046356 0.886000
0.021543 0.009212 0.891000
0.009033 0.033631 0.887000
-0.011146 -0.039003 0.895000
0.028555 0.003393 0.904000
-0.007487 -0.030263 0.898000
0.026768 -0.029024 0.894000
-0.006300 0.044948 0.887000
-0.013267 0.034438 0.889000
-0.000834 -0.013261 0.898000
0.007224 0.023827 0.889000
0.010994 -0.025458 0.898000
0.005425 0.008139 0.894000
0.024872 -0.003627 0.892000
-0.019575 0.014011 0.893000
-0.013386 -0.000325 0.897000
0.015274 0.011753 0.889000
-0.001551 0.049946 0.885000
0.027473 -0.019803 0.893000
-0.013740 -0.014338 0.896000
0.015326 -0.004729 0.892000
0.008028 -0.047950 0.897000
-0.012945 -0.037770 0.892000
-0.022148 0.011805 0.893000
-0.025456 0.015113 0.893000
0.016813 -0.011350 0.893000
-0.016304 -0.027952 0.895000
-0.012662 -0.025828 0.898000
0.003966 -0.025061 0.897000
0.029343 -0.028656 0.894000
-0.020655 0.022439 0.892000
0.003971 -0.035437 0.898000
0.026768 -0.024977 0.894000
-0.019630 -0.031070 0.879000
-0.020356 0.002623 0.895000
-0.003380 0.044218 0.887000
0.030481 -0.012480 0.895000
0.001016 -0.032182 0.900000
-0.024693 0.020236 0.892000
0.015274 0.032243 0.889000
-0.001556 0.035130 0.888000
0.007208 0.034726 0.887000
-0.005589 0.021656 0.890000
-0.008199 0.011464 0.895000
0.030079 -0.027184 0.894000
0.009874 -0.033921 0.897000
-0.019208 0.012541 0.893000
-0.000458 0.046356 0.886000
0.023797 -0.017965 0.893000
0.003971 -0.034328 0.898000
0.014909 0.020534 0.889000
-0.021197 0.038611 0.884000
0.020810 0.012146 0.891000
-0.005639 -0.012892 0.898000
0.008294 0.043803 0.886000
0.015043 -0.038721 0.897000
0.014592 -0.005463 0.892000
-0.002682 -0.030263 0.898000
0.017607 -0.037202 0.896000
-0.001554 0.040202 0.887000
0.002868 -0.031071 0.900000
-0.011830 0.020214 0.891000
0.014909 0.033706 0.889000
-0.010433 -0.003648 0.897000
-0.014125 -0.022107 0.897000
0.005799 -0.017269 0.895000
0.033097 -0.020238 0.896000
-0.031598 0.017993 0.890000
-0.026927 0.017319 0.893000
0.025296 -0.025713 0.894000
0.002094 0.046720 0.886000
0.030992 -0.000330 0.910000
0.030079 -0.021665 0.894000
0.022745 -0.032004 0.895000
0.030079 -0.015042 0.894000
-0.016983 0.016932 0.892000
0.003601 -0.048373 0.898000
0.005754 0.030745 0.888000
0.007667 -0.042090 0.898000
0.004652 0.037281 0.887000
0.008766 -0.036875 0.897000
-0.031634 0.019847 0.891000
0.013460 0.012498 0.890000
0.003224 -0.021714 0.896000
-0.023932 0.030482 0.891000
0.022033 -0.044947 0.896000
-0.025485 0.011451 0.894000
-0.018125 -0.020929 0.894000
-0.002655 0.026023 0.889000
-0.007761 0.044948 0.887000
-0.007070 0.015464 0.892000
-0.016635 0.024669 0.893000
0.019191 -0.047983 0.884000
0.020167 -0.027215 0.895000
-0.011540 -0.001802 0.897000
-0.007770 0.038785 0.888000
-0.025737 0.002242 0.890000
0.013505 -0.011717 0.893000
-0.006386 -0.037697 0.899000
-0.017292 0.035902 0.889000
0.000638 0.024925 0.889000
-0.013983 0.038785 0.888000
0.018609 -0.003623 0.891000
-0.028029 0.016584 0.893000
-0.020333 0.004828 0.894000
0.009819 0.007387 0.892000
0.013920 -0.023926 0.896000
-0.002308 -0.020238 0.896000
-0.005489 0.050045 0.874000
0.014240 -0.014658 0.893000
-0.012224 0.014746 0.893000
-0.029466 0.025376 0.892000
0.023770 -0.009501 0.892000
0.029343 -0.026081 0.894000
0.013920 -0.031302 0.896000
0.014608 -0.009880 0.893000
-0.018105 -0.024949 0.893000
0.013445 0.037365 0.889000
0.021137 0.028726 0.905000
0.005443 -0.009555 0.897000
0.002097 0.040932 0.887000
-0.008520 0.022022 0.890000
0.028277 0.006391 0.907000
-0.019987 0.002254 0.895000
0.015640 -0.047523 0.889000
-0.007848 -0.017677 0.897000
-0.000465 -0.043987 0.899000
-0.001197 0.015848 0.893000
0.031991 -0.017288 0.896000
0.004340 -0.036916 0.898000
0.013811 0.036634 0.889000
0.017123 0.006637 0.890000
0.006551 -0.011031 0.897000
-0.006726 0.012937 0.895000
-0.017370 0.012173 0.893000
0.003593 -0.022820 0.896000
0.021319 -0.043520 0.897000
-0.011553 -0.009565 0.898000
-0.015567 0.010358 0.895000
-0.005270 -0.040981 0.898000
0.019986 -0.047416 0.887000
-0.009294 0.014026 0.894000
-0.002679 -0.023953 0.897000
0.010945 -0.013570 0.894000
0.009399 0.035091 0.887000
-0.027569 0.008835 0.890000
0.025239 -0.015743 0.892000
-0.018928 -0.035451 0.880000
-0.004878 0.013290 0.894000
-0.025456 0.012908 0.893000
0.009388 0.040521 0.886000
0.005819 -0.046895 0.898000
-0.018125 -0.038591 0.894000
-0.023407 0.036833 0.885000
-0.023199 0.030115 0.891000
0.017568 -0.021665 0.894000
-0.028397 0.020994 0.893000
-0.030465 0.013216 0.889000
0.012264 -0.051563 0.883000
-0.015148 0.017299 0.892000
-0.019553 -0.023085 0.892000
-0.010730 0.019847 0.891000
-0.007796 0.019847 0.891000
0.003192 0.035821 0.887000
-0.004895 -0.016938 0.897000
0.029678 -0.019436 0.893000
-0.010444 -0.026567 0.898000
0.009797 0.013597 0.890000
-0.025766 0.005178 0.891000
-0.025061 0.026477 0.892000
0.010589 -0.019479 0.895000
-0.005589 0.025319 0.890000
-0.012493 0.044897 0.886000
-0.015232 -0.029491 0.897000
-0.013664 0.022781 0.891000
-0.000826 0.027120 0.889000
-0.015232 0.001890 0.897000
-0.030465 0.015046 0.889000
0.009819 0.005918 0.892000
0.008369 0.004092 0.894000
0.008776 -0.046525 0.898000
0.022898 0.019699 0.901000
0.009483 -0.002534 0.895000
0.001005 0.017993 0.890000
0.012417 -0.004003 0.894000
0.025239 -0.009134 0.892000
-0.010340 0.033706 0.889000
-0.012183 0.033012 0.890000
-0.024693 0.025009 0.892000
-0.010802 -0.015092 0.897000
-0.003791 -0.036546 0.898000
0.011720 -0.039090 0.897000
0.009786 0.017973 0.889000
-0.022123 0.020603 0.892000
0.014320 0.045505 0.898000
0.013108 0.001511 0.891000
-0.029433 0.030115 0.891000
-0.031302 0.022072 0.892000
0.016464 -0.017618 0.894000
0.017142 -0.001423 0.891000
-0.023932 0.029382 0.891000
0.009420 0.019436 0.889000
-0.012197 0.019480 0.891000
-0.018452 -0.012806 0.892000
-0.022806 0.034477 0.890000
-0.024354 0.014011 0.893000
-0.017350 0.020603 0.892000
0.006478 0.036186 0.887000
-0.002673 -0.048580 0.895000
-0.032404 0.023173 0.892000
0.002862 -0.038394 0.898000
0.014161 0.026359 0.888000
-0.015953 -0.010650 0.896000
-0.021805 0.005931 0.894000
0.001382 -0.012508 0.897000
-0.010706 0.036634 0.889000
-0.021046 0.027610 0.893000
0.031657 -0.012877 0.897000
0.009452 0.006285 0.892000
-0.013003 -0.015813 0.896000
-0.028635 0.009557 0.889000
0.012333 0.033668 0.888000
0.005455 -0.028076 0.899000
0.000274 -0.023557 0.896000
0.010129 0.035091 0.887000
0.007676 -0.028447 0.899000
0.020076 0.001144 0.891000
0.025635 0.000412 0.893000
-0.020608 0.031546 0.890000
0.014526 0.026359 0.888000
0.023403 0.008121 0.892000
-0.009629 0.020580 0.891000
0.010945 -0.017618 0.894000
-0.002253 0.051542 0.875000
0.017996 -0.042782 0.897000
-0.020678 0.024302 0.893000
-0.025766 0.029382 0.891000
0.002865 -0.043617 0.899000
0.018222 0.009202 0.890000
-0.008587 -0.019523 0.897000
-0.013771 -0.024719 0.898000
0.023010 -0.002156 0.891000
0.021568 0.014362 0.892000
-0.009336 -0.038024 0.898000
0.011363 -0.045416 0.898000
0.018117 0.036095 0.903000
0.000272 0.031841 0.888000
-0.014062 0.027242 0.893000
0.026032 -0.026081 0.894000
0.009135 -0.032813 0.897000
0.006905 -0.017637 0.895000
0.006189 -0.046895 0.898000
0.010243 -0.033921 0.897000
0.009863 -0.006225 0.896000
0.017856 0.008103 0.890000
0.003975 -0.046577 0.899000
0.009764 0.042027 0.887000
0.025039 0.009654 0.898000
-0.021389 0.018033 0.892000
-0.005223 0.025685 0.890000
0.017200 -0.023137 0.894000
-0.002292 0.028982 0.890000
-0.004895 -0.017677 0.897000
0.023770 -0.013907 0.892000
0.019688 0.007736 0.890000
0.015746 0.038723 0.895000
-0.014429 0.027610 0.893000
-0.009694 -0.039459 0.897000
0.009764 0.040202 0.887000
0.006558 -0.039503 0.898000
0.017856 0.004806 0.890000
0.025893 0.010439 0.902000
0.024138 -0.012438 0.892000
0.007641 -0.013217 0.895000
0.013873 -0.009880 0.893000
-0.015232 -0.000325 0.897000
0.028239 -0.025713 0.894000
0.024900 -0.021273 0.893000
-0.030568 0.021338 0.892000
-0.008153 0.032645 0.890000
-0.007421 0.024220 0.890000
0.005419 0.012908 0.893000
-0.010802 -0.018415 0.897000
-0.004475 0.041662 0.887000
0.012347 0.042854 0.889000
0.009885 -0.026197 0.898000
0.021200 -0.046582 0.892000
-0.012279 0.000783 0.897000
-0.026321 0.036469 0.885000
-0.003410 0.011095 0.895000
-0.003660 0.049287 0.867000
0.010883 0.017241 0.889000
-0.031563 0.016143 0.889000
0.011720 -0.039459 0.897000
-0.012521 0.038054 0.888000
