-0.015921 -0.003914 0.874000
0.047665 0.009450 0.879000
-0.032604 -0.004244 0.868000
-0.005761 0.007839 0.861000
-0.035170 -0.022476 0.897000
0.042424 0.013618 0.868000
0.011210 0.018759 0.858000
-0.011146 -0.023163 0.895000
0.041995 -0.005124 0.897000
-0.001565 -0.009144 0.893000
-0.011425 -0.009093 0.888000
0.017162 -0.025288 0.892000
-0.038585 0.006046 0.858000
0.035270 -0.014322 0.895000
-0.034817 -0.013114 0.888000
0.020133 0.029135 0.862000
0.031304 0.000409 0.887000
0.033023 -0.002532 0.894000
0.002836 -0.030360 0.890000
-0.026648 -0.023189 0.896000
-0.024463 -0.018784 0.897000
-0.027755 -0.023926 0.896000
-0.025871 0.009930 0.858000
-0.032216 -0.020999 0.897000
0.031767 0.018802 0.860000
0.026119 -0.009555 0.897000
0.010971 0.004325 0.867000
0.026780 0.017013 0.859000
0.022695 0.034932 0.865000
-0.026927 -0.030094 0.893000
-0.042215 0.005352 0.860000
0.003461 0.007502 0.863000
0.018651 -0.022744 0.893000
0.008727 -0.007307 0.893000
-0.027724 -0.026846 0.895000
0.047719 0.019240 0.880000
0.006920 -0.015092 0.897000
0.025944 -0.024893 0.891000
-0.010064 -0.013985 0.897000
0.008747 -0.018374 0.895000
0.007650 -0.017657 0.896000
0.045334 0.020787 0.869000
-0.048685 -0.006483 0.881000
0.041440 -0.018333 0.893000
-0.039383 0.002520 0.860000
-0.035613 0.000753 0.863000
-0.035013 -0.031565 0.893000
0.034364 0.015671 0.863000
-0.007525 0.009245 0.860000
0.039691 -0.013954 0.895000
0.017996 -0.010293 0.897000
0.024716 0.025557 0.861000
0.004171 0.008567 0.863000
-0.023752 0.007811 0.858000
-0.022247 -0.020261 0.897000
-0.008606 0.005364 0.862000
-0.002295 -0.030027 0.891000
-0.013357 -0.022058 0.895000
-0.005053 0.015281 0.861000
0.048972 0.008039 0.883000
-0.017062 0.008174 0.859000
0.029440 0.003645 0.875000
0.008303 -0.002147 0.887000
0.007641 -0.019848 0.895000
-0.029677 -0.002452 0.866000
-0.010537 -0.004278 0.875000
-0.004128 -0.031127 0.891000
-0.046251 -0.011949 0.883000
0.019919 0.000044 0.884000
-0.045056 0.002184 0.867000
0.024565 0.002582 0.881000
-0.018044 -0.010945 0.890000
0.039059 0.001507 0.889000
0.048333 0.011607 0.878000
0.033376 0.013571 0.865000
-0.037502 -0.015358 0.891000
-0.038055 0.010331 0.862000
0.037807 -0.016146 0.894000
0.003966 -0.015092 0.897000
0.032943 0.002222 0.882000
0.003174 -0.005765 0.882000
-0.019628 0.003950 0.863000
-0.016225 -0.002108 0.871000
-0.030779 0.009213 0.857000
0.022847 -0.027706 0.899000
0.034941 -0.012125 0.896000
-0.013234 0.004660 0.863000
0.018976 -0.025260 0.891000
-0.043377 0.002881 0.862000
0.023245 0.022316 0.859000
0.007624 -0.023111 0.893000
-0.008577 -0.013232 0.896000
0.001749 -0.018763 0.896000
-0.025869 -0.009395 0.882000
-0.042684 -0.017211 0.892000
0.012917 -0.001402 0.878000
-0.040522 -0.008259 0.877000
0.004876 0.009977 0.862000
0.011641 -0.027827 0.891000
-0.025911 -0.024295 0.896000
-0.011064 0.013139 0.860000
0.017876 -0.026726 0.891000
-0.027264 -0.033365 0.892000
-0.030602 -0.015025 0.893000
-0.004369 0.001825 0.866000
-0.017389 -0.012834 0.894000
-0.035094 0.002871 0.859000
-0.029934 -0.025373 0.895000
-0.028301 -0.012777 0.890000
0.014389 0.015227 0.858000
0.016832 -0.019089 0.894000
0.006882 -0.025288 0.892000
0.005040 -0.030394 0.891000
-0.038585 0.009577 0.858000
0.028334 -0.006601 0.897000
-0.003395 -0.030760 0.891000
0.035034 0.018846 0.862000
0.013536 -0.007323 0.895000
0.009878 0.007163 0.865000
-0.033318 -0.003887 0.868000
0.035559 -0.017598 0.893000
0.000971 0.012431 0.860000
0.015801 0.019465 0.858000
0.022695 0.034576 0.865000
0.044773 0.011887 0.872000
-0.025911 -0.022820 0.896000
-0.012945 -0.030795 0.892000
0.016959 0.030945 0.863000
-0.003025 -0.031458 0.890000
0.006182 -0.015092 0.897000
0.038954 -0.013217 0.895000
0.044719 0.023894 0.878000
0.017628 0.012800 0.861000
0.020857 -0.020171 0.893000
0.015967 0.008964 0.867000
0.048861 0.009834 0.881000
-0.010790 -0.019501 0.896000
-0.033910 -0.031932 0.893000
-0.036196 -0.017269 0.895000
-0.025448 -0.007925 0.880000
0.040887 -0.005863 0.897000
0.003865 0.002561 0.874000
0.037564 -0.004017 0.897000
0.019941 -0.000321 0.885000
-0.007086 -0.010994 0.894000
0.040853 0.020692 0.865000
-0.026931 0.012049 0.858000
0.020868 0.004018 0.878000
-0.001507 0.013847 0.860000
-0.007708 -0.006483 0.881000
0.012652 0.022342 0.860000
-0.000464 -0.019501 0.896000
0.009643 0.000404 0.876000
-0.011121 -0.028257 0.893000
-0.030779 0.008860 0.857000
-0.009315 -0.020976 0.896000
-0.003296 0.002535 0.865000
0.021148 0.023758 0.860000
0.039746 0.002237 0.888000
0.017627 -0.008447 0.897000
0.033569 0.010427 0.870000
0.037206 0.017447 0.863000
0.008028 -0.013246 0.897000
0.026002 -0.020538 0.893000
-0.016304 -0.013585 0.895000
0.033797 -0.015427 0.895000
-0.010344 0.011710 0.859000
0.025809 0.005079 0.874000
-0.031641 -0.006410 0.871000
0.002859 -0.012877 0.897000
-0.018085 -0.030061 0.892000
-0.007796 -0.030394 0.891000
0.021224 -0.004734 0.893000
0.026857 -0.008078 0.897000
-0.013312 -0.030428 0.892000
-0.018313 0.000757 0.868000
-0.019251 0.004655 0.862000
-0.012126 0.013139 0.860000
-0.000830 -0.025684 0.893000
-0.009637 0.009942 0.859000
-0.036237 -0.025401 0.896000
0.021105 -0.001784 0.888000
-0.002310 -0.014723 0.897000
0.030126 0.004360 0.874000
-0.003049 -0.015462 0.897000
-0.041443 -0.015324 0.889000
0.010186 -0.026022 0.892000
-0.019165 -0.032961 0.891000
0.032966 0.008307 0.873000
0.012403 -0.006572 0.893000
0.007885 -0.004308 0.881000
-0.019810 -0.000674 0.871000
0.033872 -0.006970 0.897000
-0.036071 0.008860 0.857000
-0.046044 -0.013813 0.886000
-0.004873 -0.026419 0.893000
-0.001865 0.006429 0.862000
0.012089 -0.014723 0.897000
0.020866 0.012119 0.863000
0.008453 0.005027 0.865000
0.008727 -0.023479 0.893000
-0.044493 0.004660 0.863000
-0.026232 -0.009758 0.882000
-0.031443 -0.025033 0.896000
0.025635 -0.019068 0.893000
0.001681 0.009965 0.861000
0.004870 0.015635 0.861000
-0.016249 -0.011704 0.892000
0.031767 0.020572 0.860000
0.015628 0.007902 0.868000
0.033337 0.013911 0.864000
-0.043098 -0.008629 0.878000
0.027809 -0.021250 0.892000
0.040247 -0.023426 0.891000
0.007343 0.015971 0.860000
0.028935 0.016325 0.860000
-0.000801 0.008203 0.862000
-0.043732 0.006783 0.862000
0.012976 0.021231 0.858000
-0.028524 -0.022476 0.897000
-0.015445 -0.009459 0.888000
-0.038983 0.003224 0.859000
0.031848 -0.020515 0.892000
0.023952 0.015599 0.859000
-0.016020 0.006768 0.860000
0.006551 -0.012139 0.897000
0.011287 -0.026022 0.892000
0.021689 0.001496 0.882000
-0.018514 -0.023900 0.895000
-0.010363 -0.031861 0.891000
0.016939 0.011750 0.862000
0.038672 -0.004386 0.897000
-0.029756 0.005339 0.858000
0.023708 0.029879 0.863000
0.033466 -0.012494 0.896000
-0.022123 -0.032631 0.892000
-0.012251 -0.023163 0.895000
-0.022960 -0.023926 0.896000
-0.027042 -0.005347 0.873000
0.023141 0.001859 0.882000
0.013197 -0.011031 0.897000
-0.032734 -0.014258 0.891000
0.021830 0.022670 0.859000
-0.022223 -0.016182 0.896000
-0.010778 -0.022058 0.895000
-0.024841 0.012417 0.859000
0.033466 -0.012863 0.896000
0.044974 0.005858 0.883000
0.026558 -0.000321 0.887000
0.000273 -0.009155 0.894000
0.021830 0.022316 0.859000
0.002859 -0.013616 0.897000
0.040059 -0.012480 0.895000
0.025750 -0.009185 0.897000
0.047502 0.011941 0.876000
0.036416 -0.011019 0.896000
0.042495 -0.019047 0.892000
-0.016635 -0.012085 0.893000
0.021248 -0.018721 0.894000
0.024900 -0.020171 0.893000
0.028818 0.001850 0.878000
-0.043418 -0.017211 0.892000
0.024203 0.009331 0.868000
0.020122 0.004014 0.877000
-0.030109 0.010283 0.858000
0.020122 0.004375 0.877000
0.034495 -0.016514 0.894000
0.014439 0.025912 0.861000
0.016211 0.025557 0.861000
-0.050789 -0.009946 0.899000
0.003181 -0.006505 0.884000
0.034611 -0.009185 0.897000
0.000272 -0.031494 0.891000
-0.041105 0.007113 0.859000
-0.032954 -0.022107 0.897000
-0.002676 -0.018026 0.896000
0.031622 -0.012125 0.896000
-0.023698 -0.021714 0.896000
-0.019920 -0.031162 0.892000
-0.008181 -0.026051 0.893000
-0.005633 -0.015831 0.897000
0.000639 -0.030760 0.891000
0.019104 -0.011031 0.897000
-0.023566 -0.012424 0.891000
0.022427 -0.012877 0.897000
-0.033455 -0.010109 0.881000
0.001009 -0.009155 0.894000
-0.027935 -0.013143 0.890000
-0.022883 -0.030829 0.893000
0.040462 -0.024512 0.904000
-0.023355 -0.018046 0.897000
0.030079 -0.003267 0.894000
0.006997 0.015989 0.861000
0.042682 0.016082 0.866000
0.000617 0.013847 0.860000
0.019558 0.035768 0.868000
-0.029067 -0.037361 0.891000
-0.028839 -0.007143 0.873000
-0.035064 -0.002455 0.867000
-0.008961 0.005010 0.862000
-0.001867 0.006081 0.863000
0.031804 0.022722 0.861000
0.009878 0.006807 0.865000
0.038760 0.009756 0.874000
-0.017078 -0.020261 0.897000
-0.045992 -0.013069 0.885000
0.017258 -0.009185 0.897000
0.026843 0.026620 0.861000
-0.028475 0.002881 0.862000
0.036457 -0.008816 0.897000
-0.018186 0.004655 0.862000
-0.033720 -0.012748 0.888000
0.012976 0.019112 0.858000
0.022571 0.006158 0.874000
0.013485 0.006473 0.868000
0.026488 -0.012139 0.897000
-0.013679 -0.011337 0.892000
-0.026993 0.003936 0.860000
-0.009284 -0.026051 0.893000
-0.024487 0.012063 0.859000
0.036294 -0.001794 0.893000
0.033608 0.010081 0.871000
0.007983 -0.027124 0.892000
-0.035380 -0.016128 0.893000
-0.024472 -0.009052 0.884000
-0.033138 -0.036302 0.892000
-0.017997 -0.000673 0.870000
0.040107 0.010810 0.872000
0.027873 0.024112 0.860000
0.030046 -0.002896 0.893000
0.008378 -0.019479 0.895000
-0.033026 -0.013494 0.889000
-0.023073 0.005699 0.859000
0.020144 -0.027920 0.894000
0.030351 0.018094 0.860000
0.002035 0.015635 0.861000
-0.030739 -0.019154 0.897000
-0.027935 -0.012777 0.890000
0.023708 0.029524 0.863000
-0.032180 -0.023557 0.896000
-0.018821 -0.003198 0.875000
0.038760 0.009396 0.874000
0.017085 -0.002515 0.888000
0.012888 0.000043 0.876000
-0.040014 -0.001739 0.866000
-0.006272 -0.008315 0.883000
0.045744 0.014724 0.870000
0.024119 0.011791 0.865000
-0.017817 -0.017677 0.897000
0.007249 -0.006931 0.892000
0.031551 -0.002899 0.894000
-0.022223 -0.022451 0.896000
0.022511 0.019818 0.858000
0.008707 -0.027093 0.891000
0.015043 -0.011401 0.897000
-0.027734 0.003232 0.861000
-0.019943 -0.013187 0.893000
0.028556 0.006130 0.870000
0.000973 0.008912 0.862000
-0.022957 0.000400 0.868000
-0.024040 -0.024636 0.895000
0.013686 -0.002495 0.881000
-0.016340 -0.016200 0.897000
0.002473 -0.028193 0.891000
0.020464 0.013154 0.861000
0.014019 0.017326 0.857000
-0.016672 -0.013217 0.895000
-0.042264 0.003232 0.861000
0.043914 -0.020859 0.891000
0.002035 0.011382 0.861000
-0.048816 -0.013876 0.890000
0.006092 -0.006142 0.884000
-0.009694 -0.018784 0.897000
-0.010537 -0.004639 0.875000
-0.039791 -0.017230 0.893000
-0.025253 0.003941 0.861000
0.020189 -0.015444 0.896000
0.014272 -0.016901 0.895000
-0.044087 -0.001745 0.869000
0.033872 -0.007339 0.897000
-0.025518 0.009577 0.858000
0.011351 -0.012877 0.897000
0.005780 -0.025288 0.892000
-0.022422 -0.003198 0.875000
0.028543 -0.026022 0.892000
-0.007840 -0.019501 0.896000
-0.020771 -0.019892 0.897000
-0.013880 0.008881 0.859000
-0.031563 -0.013128 0.889000
-0.036843 -0.011599 0.884000
0.030695 0.001492 0.880000
0.006905 -0.019111 0.895000
-0.007869 0.010649 0.859000
-0.014587 0.007820 0.859000
0.027596 -0.006601 0.897000
0.020770 0.022316 0.859000
0.014225 -0.024187 0.892000
-0.030109 0.010636 0.858000
-0.012834 0.007122 0.860000
0.035766 0.005839 0.880000
0.036580 0.014639 0.865000
0.022891 0.015245 0.859000
0.019621 -0.001782 0.887000
0.025799 0.000408 0.886000
0.019842 -0.012508 0.897000
-0.027786 -0.018784 0.897000
0.027544 0.005427 0.872000
-0.025201 -0.020261 0.897000
0.006642 0.011028 0.861000
-0.007329 0.000767 0.879000
-0.023426 0.005699 0.859000
0.012902 -0.000679 0.877000
0.016757 -0.003619 0.890000
-0.033126 0.001108 0.863000
-0.041083 -0.001739 0.866000
0.012827 -0.009185 0.897000
0.012827 -0.011031 0.897000
0.014965 0.004703 0.871000
-0.029532 -0.029024 0.894000
-0.032023 0.001816 0.862000
0.007641 -0.018374 0.895000
-0.041603 0.001107 0.862000
-0.027895 0.000399 0.866000
0.020511 0.030234 0.863000
0.012827 -0.011770 0.897000
-0.047502 -0.013084 0.886000
-0.028365 -0.032998 0.892000
0.010528 0.012431 0.860000
-0.005608 -0.010247 0.893000
0.021177 -0.026360 0.891000
0.040887 -0.006970 0.897000
-0.025621 -0.010167 0.886000
-0.020006 0.003599 0.864000
0.017175 0.005079 0.874000
-0.028343 0.011696 0.858000
-0.000448 0.002538 0.866000
0.024844 -0.025260 0.891000
0.023952 0.015952 0.859000
0.003940 -0.028193 0.891000
0.009841 -0.007315 0.894000
-0.000445 0.014926 0.861000
0.017547 0.017679 0.857000
0.017219 -0.018374 0.895000
0.018161 -0.001782 0.887000
-0.030851 0.004285 0.859000
0.020716 -0.001416 0.887000
0.016900 0.024820 0.860000
0.034640 0.005832 0.879000
-0.008062 -0.006838 0.880000
0.046926 0.019065 0.872000
0.029612 -0.023426 0.891000
-0.022465 -0.033327 0.891000
-0.014764 -0.031494 0.891000
-0.010778 -0.021689 0.895000
0.039383 0.018890 0.864000
0.023139 -0.005856 0.896000
-0.048014 -0.010121 0.882000
0.019919 0.000407 0.884000
0.015736 0.003640 0.874000
0.015801 0.019818 0.858000
0.002111 -0.025316 0.893000
-0.011445 0.005719 0.862000
0.002859 -0.012139 0.897000
0.023218 0.016287 0.858000
0.019046 0.026975 0.861000
0.008028 -0.011401 0.897000
-0.026444 -0.007176 0.877000
-0.005633 -0.013246 0.897000
0.012827 -0.010662 0.897000
-0.013633 -0.009469 0.889000
0.005437 -0.016919 0.896000
0.014540 0.008250 0.867000
-0.028893 -0.018415 0.897000
-0.024708 -0.037617 0.906000
-0.007179 0.014926 0.861000
-0.028409 0.003582 0.860000
-0.019641 -0.022082 0.896000
-0.039749 -0.003172 0.868000
-0.040199 -0.004254 0.870000
-0.010380 0.004300 0.862000
0.018757 0.032758 0.864000
0.001380 -0.010650 0.896000
0.017258 -0.013246 0.897000
-0.018961 0.002891 0.865000
-0.031598 -0.013509 0.890000
-0.037834 0.006744 0.857000
-0.010002 0.007830 0.860000
0.036946 -0.023059 0.891000
0.006536 -0.018374 0.895000
0.022796 -0.009924 0.897000
0.038084 0.009047 0.875000
0.008378 -0.019111 0.895000
-0.040230 0.000043 0.863000
-0.048685 -0.006846 0.881000
0.011341 0.004330 0.868000
0.023139 -0.012863 0.896000
0.004547 0.003254 0.867000
0.002481 -0.023505 0.894000
-0.015882 -0.029326 0.892000
0.012623 0.016993 0.858000
0.023036 -0.024187 0.892000
-0.035420 -0.016514 0.894000
0.036076 0.011501 0.870000
0.010163 0.018781 0.859000
-0.028700 -0.034061 0.891000
0.004876 0.009267 0.862000
0.002849 -0.022769 0.894000
0.010072 -0.004313 0.882000
0.021543 -0.024893 0.891000
0.040614 -0.023059 0.891000
0.024983 -0.013969 0.896000
-0.011909 -0.002105 0.870000
0.011328 0.005039 0.867000
-0.020904 -0.009813 0.887000
-0.031478 -0.021369 0.897000
0.027938 0.014234 0.862000
-0.035760 0.010636 0.858000
-0.023225 -0.013173 0.892000
-0.022074 -0.011678 0.890000
-0.024804 -0.023189 0.896000
0.025602 0.009321 0.867000
0.016150 -0.012139 0.897000
0.038272 0.018158 0.863000
0.001374 -0.027124 0.892000
0.030919 0.012518 0.866000
-0.021509 -0.016938 0.897000
-0.010790 -0.020976 0.896000
0.014607 0.034816 0.871000
0.008492 0.002904 0.869000
0.036851 0.019578 0.863000
0.009753 -0.005426 0.886000
-0.034974 -0.015375 0.892000
0.002481 -0.009155 0.894000
-0.013386 -0.019523 0.897000
-0.007171 0.008538 0.860000
-0.042785 -0.009001 0.879000
-0.020645 -0.003562 0.876000
0.002038 0.009622 0.862000
-0.042656 -0.002818 0.869000
0.017813 0.007563 0.870000
-0.006463 0.014201 0.860000
-0.009263 -0.031127 0.891000
0.034863 -0.016146 0.894000
-0.041338 -0.009363 0.879000
-0.013756 -0.016200 0.897000
-0.011096 -0.032594 0.891000
-0.017737 -0.012452 0.893000
-0.032216 -0.021369 0.897000
-0.023724 -0.018784 0.897000
-0.021317 -0.010933 0.889000
-0.028610 -0.008981 0.877000
0.003214 -0.024214 0.893000
-0.006809 0.011710 0.859000
0.010186 -0.025655 0.892000
0.026043 0.020171 0.858000
0.031815 0.007571 0.871000
0.018366 -0.008078 0.897000
0.013082 0.009299 0.865000
-0.020608 -0.035488 0.890000
0.022033 -0.015076 0.896000
-0.024864 -0.009427 0.885000
-0.024832 -0.019523 0.897000
-0.012553 0.000755 0.865000
-0.018186 -0.015462 0.897000
-0.025312 0.002884 0.863000
-0.017698 -0.011324 0.891000
-0.031423 -0.001025 0.865000
-0.027729 -0.005340 0.872000
0.020420 -0.003253 0.890000
-0.004359 0.003243 0.864000
-0.033543 -0.031197 0.893000
0.013937 0.001122 0.874000
0.042222 -0.015410 0.894000
-0.011870 -0.026081 0.894000
0.011563 0.020524 0.858000
0.000264 0.007147 0.863000
-0.001568 -0.021689 0.895000
0.041579 -0.010650 0.896000
0.023299 0.026620 0.861000
0.022998 0.012830 0.863000
0.026437 0.006137 0.871000
0.005063 -0.020216 0.895000
0.025927 0.002934 0.878000
-0.016001 0.009588 0.859000
-0.030320 0.001465 0.864000
0.028581 0.016325 0.860000
-0.041479 -0.011210 0.882000
0.030348 -0.014063 0.902000
0.039164 0.009047 0.875000
-0.014125 -0.018046 0.897000
-0.046456 -0.003216 0.880000
0.002487 -0.017657 0.896000
0.012755 0.007180 0.867000
0.000272 -0.028927 0.891000
-0.000800 0.009256 0.861000
0.040976 0.005132 0.883000
0.033860 0.001504 0.887000
0.002120 -0.013985 0.897000
0.017254 0.024466 0.860000
0.031079 -0.024893 0.891000
-0.013648 -0.010213 0.890000
0.023114 -0.016532 0.895000
0.007522 -0.003220 0.881000
0.005057 -0.021665 0.894000
0.039027 0.021023 0.864000
-0.030311 -0.007871 0.874000
0.017038 0.009321 0.867000
0.037561 0.019223 0.863000
-0.031039 -0.025373 0.895000
0.029811 -0.006232 0.897000
-0.032808 -0.015760 0.893000
-0.028997 -0.002812 0.867000
0.017535 0.005079 0.874000
0.029643 0.016325 0.860000
0.003807 0.014217 0.861000
0.003453 0.015281 0.861000
-0.013602 -0.008718 0.887000
-0.002994 -0.006483 0.881000
0.005231 0.010331 0.862000
0.037853 0.007271 0.878000
0.020443 -0.024893 0.891000
-0.001200 -0.020584 0.895000
-0.032256 -0.009352 0.878000
-0.042445 -0.004982 0.872000
-0.007577 0.001112 0.866000
0.001749 -0.010650 0.896000
0.039880 -0.023426 0.891000
-0.027862 0.000755 0.865000
0.009144 0.009278 0.863000
0.022642 0.030589 0.863000
0.021172 0.025557 0.861000
-0.035012 0.009566 0.857000
-0.006463 0.012431 0.860000
-0.003277 0.012077 0.860000
0.043694 -0.013570 0.894000
0.013666 0.018031 0.857000
-0.042264 0.002877 0.861000
0.016192 0.024112 0.860000
-0.029197 -0.026110 0.895000
-0.019898 -0.011691 0.891000
-0.001196 -0.026756 0.892000
0.016192 0.023758 0.860000
-0.032954 -0.020261 0.897000
-0.016322 -0.014707 0.896000
0.040337 0.008345 0.877000
0.033721 -0.018701 0.893000
0.006434 -0.004308 0.881000
-0.018125 -0.029760 0.894000
0.009135 -0.013246 0.897000
-0.043369 -0.016825 0.891000
-0.031527 -0.012748 0.888000
0.025635 -0.020906 0.893000
-0.026470 -0.036587 0.890000
-0.032256 -0.009714 0.878000
0.028767 -0.014016 0.899000
-0.038232 -0.001383 0.866000
0.002852 -0.009533 0.895000
-0.050727 0.000044 0.885000
-0.049886 -0.001410 0.883000
0.004181 0.004315 0.865000
0.015781 -0.009555 0.897000
0.024677 0.000772 0.885000
0.022491 0.000044 0.885000
-0.038050 -0.003896 0.870000
-0.034542 -0.009747 0.881000
-0.008153 -0.032557 0.890000
0.040059 -0.012849 0.895000
-0.017440 -0.005016 0.878000
-0.024135 -0.009063 0.885000
-0.033910 -0.015760 0.893000
0.042781 -0.006608 0.898000
-0.007879 0.012431 0.860000
0.012062 -0.018006 0.895000
0.027809 -0.022718 0.892000
-0.034547 0.001108 0.863000
-0.051160 -0.007726 0.899000
-0.004895 -0.013246 0.897000
-0.032098 0.001109 0.864000
-0.038531 -0.010109 0.881000
-0.001930 -0.026756 0.892000
0.043224 0.008706 0.877000
0.014304 -0.008816 0.897000
0.023062 -0.020538 0.893000
-0.020401 -0.017308 0.897000
0.021877 0.005445 0.875000
-0.022264 -0.007952 0.883000
0.012022 -0.029326 0.892000
0.029171 0.009678 0.867000
-0.045058 -0.011197 0.881000
0.025484 0.013185 0.863000
0.041514 0.007641 0.879000
0.023770 -0.023452 0.892000
-0.004510 -0.024609 0.894000
-0.020053 0.002181 0.866000
0.020915 0.034220 0.865000
-0.035188 -0.008639 0.879000
0.040965 0.009407 0.875000
-0.026529 -0.032263 0.892000
0.033466 -0.003644 0.896000
0.023456 -0.019457 0.894000
0.023036 -0.023085 0.892000
0.001013 -0.012877 0.897000
-0.003770 -0.026051 0.893000
-0.004515 -0.020584 0.895000
-0.036093 -0.001027 0.866000
-0.001201 -0.019501 0.896000
0.000641 -0.024581 0.893000
-0.030001 -0.022107 0.897000
0.022720 -0.017618 0.894000
0.002109 -0.027858 0.892000
0.016813 -0.021273 0.893000
0.017258 -0.010293 0.897000
-0.046042 -0.008639 0.879000
-0.050534 -0.004707 0.888000
0.005267 0.002901 0.868000
0.025899 0.031372 0.865000
-0.003410 -0.021689 0.895000
0.036936 0.004763 0.882000
-0.044138 0.005371 0.863000
0.027934 -0.012494 0.896000
0.044698 -0.019047 0.892000
0.016813 -0.005469 0.893000
0.011668 -0.022008 0.893000
0.028327 0.004000 0.874000
-0.034700 0.004280 0.858000
0.018672 -0.019825 0.894000
0.014774 -0.001770 0.881000
-0.043521 -0.003905 0.872000
-0.033472 -0.006058 0.872000
-0.001906 -0.005033 0.881000
0.047572 0.006229 0.884000
-0.011759 0.011710 0.859000
-0.027724 -0.025005 0.895000
0.001679 0.013493 0.860000
0.031168 0.014250 0.863000
-0.013043 -0.004274 0.874000
0.044824 0.011541 0.873000
0.016719 -0.002880 0.888000
-0.002272 -0.006491 0.882000
-0.009304 -0.022794 0.895000
0.003597 -0.013616 0.897000
0.013469 0.007536 0.867000
0.021200 -0.003994 0.892000
0.013345 0.023023 0.859000
0.022511 0.019112 0.858000
-0.020032 -0.018784 0.897000
0.027014 -0.001788 0.890000
-0.012466 0.012063 0.859000
0.018046 0.033470 0.864000
0.012049 -0.019825 0.894000
-0.006109 0.008891 0.860000
-0.028971 -0.008981 0.877000
-0.024610 -0.011665 0.889000
-0.013710 -0.026081 0.894000
-0.014655 0.004660 0.863000
0.000978 0.002894 0.866000
0.014879 0.009310 0.866000
0.026457 0.015263 0.860000
-0.027047 -0.021369 0.897000
0.020133 0.028070 0.862000
0.002490 -0.015462 0.897000
0.007633 -0.020929 0.894000
-0.008606 0.006429 0.862000
0.042357 0.010475 0.874000
-0.009211 -0.009073 0.886000
0.009522 0.005739 0.865000
-0.020574 0.007811 0.858000
0.032026 -0.007339 0.897000
-0.031462 -0.008970 0.876000
0.011173 -0.004318 0.883000
-0.031132 0.006744 0.857000
0.014845 0.010355 0.864000
0.047719 0.009098 0.880000
0.000637 -0.007631 0.888000
0.023980 0.023050 0.860000
0.043546 0.013634 0.869000
-0.032771 -0.032998 0.892000
-0.035460 -0.027583 0.895000
-0.014698 -0.008718 0.887000
-0.030167 -0.013891 0.891000
-0.035708 -0.015743 0.892000
-0.028121 0.002881 0.862000
0.026163 0.000044 0.886000
0.005443 -0.013985 0.897000
0.005934 0.012800 0.861000
-0.021659 0.012063 0.859000
0.022642 0.029879 0.863000
0.005812 -0.013616 0.897000
0.040518 -0.004017 0.897000
0.004726 -0.031476 0.901000
0.025061 0.006151 0.873000
0.003905 -0.006135 0.883000
-0.031337 -0.030094 0.893000
-0.019868 0.009224 0.858000
-0.003395 -0.031494 0.891000
-0.010710 0.008891 0.860000
0.016483 -0.016901 0.895000
-0.025637 0.003590 0.862000
-0.031205 0.004285 0.859000
0.009505 -0.011770 0.897000
0.047556 0.010872 0.877000
0.030381 0.006496 0.871000
0.018316 0.023758 0.860000
0.013551 -0.015076 0.896000
0.019112 0.011422 0.864000
0.030447 -0.003267 0.894000
-0.021659 0.012417 0.859000
0.003807 0.014926 0.861000
0.026488 0.026620 0.861000
0.009866 0.008933 0.864000
0.039027 0.017823 0.864000
-0.033779 -0.009374 0.880000
-0.029368 0.009919 0.857000
0.033222 0.018470 0.861000
0.037523 -0.012125 0.896000
-0.024326 -0.013173 0.892000
-0.010344 0.009235 0.859000
0.000618 0.010319 0.861000
-0.029756 0.011343 0.858000
-0.022516 -0.013555 0.893000
-0.043175 -0.014194 0.887000
0.005709 -0.004670 0.881000
-0.018493 -0.035647 0.894000
0.013888 -0.020929 0.894000
0.013520 -0.021297 0.894000
0.014992 -0.020193 0.894000
0.043865 0.029349 0.890000
0.033930 0.019533 0.861000
0.015556 0.034181 0.864000
0.036350 0.012547 0.868000
0.022339 0.003661 0.879000
-0.010014 0.007484 0.861000
0.037564 -0.009924 0.897000
-0.023539 -0.012044 0.890000
-0.023752 0.007458 0.858000
0.014657 -0.016182 0.896000
-0.015584 -0.021345 0.896000
0.020305 -0.000321 0.885000
0.025366 0.016306 0.859000
-0.036237 -0.024664 0.896000
0.024334 0.024466 0.860000
0.011641 -0.005457 0.891000
0.033242 -0.000322 0.890000
0.022158 0.020171 0.858000
-0.021999 -0.009813 0.887000
-0.024812 0.011343 0.858000
-0.027017 -0.023926 0.896000
-0.024948 -0.011286 0.888000
0.020039 0.015580 0.858000
0.031205 0.005439 0.874000
0.016042 -0.004357 0.891000
-0.015215 -0.013600 0.896000
0.006874 -0.027827 0.891000
0.012327 0.029844 0.862000
0.010981 -0.011770 0.897000
-0.033601 0.006744 0.857000
0.042277 0.016776 0.865000
0.006529 -0.022769 0.894000
-0.021528 0.000757 0.868000
-0.008172 -0.029326 0.892000
0.022202 -0.001784 0.888000
0.036496 0.017447 0.863000
-0.049466 -0.004313 0.882000
-0.011146 -0.022426 0.895000
-0.043679 -0.001386 0.868000
-0.000832 -0.018026 0.896000
0.011380 0.002194 0.871000
-0.019378 -0.007597 0.884000
-0.030779 0.008508 0.857000
-0.021485 -0.023189 0.896000
0.039970 -0.018333 0.893000
0.005407 -0.030394 0.891000
-0.038011 0.001460 0.861000
0.034840 0.013231 0.866000
-0.034355 -0.026478 0.895000
0.026843 0.025203 0.861000
-0.012648 -0.014723 0.897000
-0.004862 -0.031494 0.891000
-0.008232 0.014201 0.860000
0.012180 0.028198 0.877000
0.043752 0.019290 0.866000
-0.036385 -0.005347 0.873000
-0.009705 0.001111 0.865000
0.014828 0.030234 0.863000
-0.010030 -0.011730 0.894000
-0.020032 -0.019154 0.897000
-0.009792 -0.034634 0.906000
-0.042134 -0.005347 0.873000
-0.004500 -0.028592 0.892000
0.030241 0.011105 0.867000
-0.015953 -0.020607 0.896000
-0.010386 -0.010982 0.893000
-0.015971 -0.017308 0.897000
-0.008916 -0.010982 0.893000
-0.006733 -0.020607 0.896000
0.013842 -0.026360 0.891000
0.021577 0.012119 0.863000
0.014590 0.005056 0.870000
0.007241 -0.028193 0.891000
0.039602 -0.017230 0.893000
-0.002679 -0.015831 0.897000
-0.022986 -0.016938 0.897000
0.036785 -0.011388 0.896000
-0.024067 -0.022451 0.896000
-0.013250 0.001821 0.864000
-0.042972 0.007130 0.861000
0.033654 0.014961 0.863000
0.014623 0.003273 0.872000
-0.009263 -0.032227 0.891000
0.013197 -0.013985 0.897000
0.019710 -0.027093 0.891000
0.012623 0.021231 0.858000
0.032582 -0.021250 0.892000
-0.012183 0.002176 0.864000
0.001745 -0.022401 0.894000
0.021881 0.026266 0.861000
0.035910 0.022141 0.866000
-0.016709 0.010649 0.859000
0.040981 -0.021592 0.891000
-0.032061 0.001463 0.863000
0.026708 -0.021617 0.892000
-0.045203 -0.016825 0.891000
0.028935 0.015971 0.860000
-0.045420 -0.000317 0.874000
-0.019143 -0.010945 0.890000
-0.002569 0.014201 0.860000
-0.037996 -0.017250 0.894000
-0.030779 0.008155 0.857000
-0.006848 0.002532 0.864000
-0.028397 -0.029727 0.893000
-0.014830 -0.012849 0.895000
-0.015455 -0.001029 0.868000
0.012156 -0.030026 0.902000
0.038456 -0.020515 0.892000
0.022212 0.006518 0.874000
-0.023121 -0.010555 0.888000
0.010197 -0.023479 0.893000
0.011223 0.013124 0.859000
-0.043756 -0.012691 0.884000
0.041183 0.011528 0.872000
0.032867 0.020242 0.861000
0.017549 -0.021641 0.893000
-0.012408 -0.007563 0.880000
0.026648 -0.001788 0.890000
-0.031067 -0.001381 0.865000
-0.023698 -0.015813 0.896000
-0.010409 -0.012112 0.895000
-0.028707 -0.004607 0.869000
0.010243 -0.013616 0.897000
-0.034827 -0.004254 0.870000
-0.003639 0.005719 0.862000
0.016464 -0.020561 0.894000
0.016409 -0.004357 0.891000
0.002035 0.014572 0.861000
0.006281 0.014201 0.860000
-0.011515 -0.022794 0.895000
-0.031197 -0.013128 0.889000
0.016154 0.021231 0.858000
0.023877 -0.006594 0.896000
-0.031337 -0.015393 0.893000
0.006168 -0.019479 0.895000
0.016813 -0.020906 0.893000
-0.018907 -0.005022 0.879000
0.015017 0.002561 0.874000
0.037637 0.009745 0.873000
0.002487 -0.010282 0.896000
0.029047 0.004000 0.874000
0.017547 0.017326 0.857000
-0.044132 -0.006093 0.877000
0.011604 0.011382 0.861000
-0.003770 -0.009512 0.893000
0.015783 0.017679 0.857000
-0.007822 -0.024609 0.894000
-0.014300 0.004305 0.863000
-0.026774 -0.006807 0.876000
0.014742 0.020171 0.858000
-0.027786 -0.021369 0.897000
0.009455 0.015599 0.859000
0.027248 0.004360 0.874000
-0.012998 -0.002825 0.871000
-0.018431 -0.033694 0.891000
-0.028872 -0.007511 0.874000
0.013138 -0.022008 0.893000
0.013873 -0.023111 0.893000
-0.017409 -0.013585 0.895000
-0.000461 -0.030027 0.891000
-0.043783 0.002174 0.863000
0.016211 0.026620 0.861000
0.015592 0.009310 0.866000
0.032251 -0.002529 0.893000
0.008079 0.008922 0.863000
-0.004709 0.005015 0.863000
0.022745 -0.015796 0.895000
0.024630 0.017346 0.858000
-0.017350 -0.030428 0.892000
-0.015232 -0.015831 0.897000
0.014209 -0.027460 0.891000
-0.019362 0.001827 0.867000
-0.021925 -0.008325 0.884000
0.000972 0.009965 0.861000
0.011668 -0.022376 0.893000
0.041027 -0.019781 0.892000
0.015781 -0.013985 0.897000
-0.003399 -0.009134 0.892000
-0.027464 -0.006799 0.875000
0.020214 0.002219 0.881000
0.001010 -0.020953 0.895000
0.014035 0.020524 0.858000
-0.027634 -0.003176 0.869000
0.035237 0.012889 0.867000
0.002487 -0.016919 0.896000
0.005780 -0.026389 0.892000
0.000274 -0.021689 0.895000
-0.017042 0.010636 0.858000
-0.012495 0.014217 0.861000
-0.034307 0.008155 0.857000
0.019473 -0.011031 0.897000
0.005074 -0.011770 0.897000
-0.008242 0.006776 0.861000
-0.032989 -0.012748 0.888000
0.037195 -0.008447 0.897000
-0.032881 -0.027583 0.895000
0.014793 0.026620 0.861000
0.031059 0.021280 0.860000
-0.035788 -0.029024 0.894000
0.039191 -0.000323 0.892000
0.048223 0.014465 0.876000
-0.033986 -0.027583 0.895000
-0.033138 -0.033365 0.892000
-0.035819 -0.002458 0.868000
0.033316 -0.020148 0.892000
0.003585 -0.021297 0.894000
-0.000095 -0.013246 0.897000
0.013746 0.011396 0.862000
0.047141 0.011220 0.876000
0.044923 0.006215 0.882000
-0.017078 -0.017677 0.897000
-0.035170 -0.021369 0.897000
-0.031875 0.010990 0.858000
-0.036108 -0.031140 0.902000
-0.041507 0.003936 0.860000
-0.047457 -0.016477 0.892000
0.021984 -0.027552 0.894000
-0.027443 0.002529 0.863000
0.021957 0.031692 0.864000
-0.027325 -0.027552 0.894000
0.014673 -0.013616 0.897000
-0.009648 0.009245 0.860000
-0.033101 -0.035894 0.891000
0.020581 -0.012877 0.897000
0.007624 -0.024581 0.893000
0.029609 0.019841 0.859000
0.035270 -0.013585 0.895000
0.009544 0.004325 0.867000
-0.035217 0.001462 0.862000
-0.025201 -0.018046 0.897000
0.014959 -0.024187 0.892000
-0.021851 -0.006846 0.881000
0.010243 -0.014723 0.897000
-0.041989 -0.003896 0.870000
0.008051 0.013493 0.860000
-0.002295 -0.030760 0.891000
0.021983 0.034576 0.865000
0.035910 0.013587 0.866000
0.025352 -0.013600 0.896000
0.040883 0.006208 0.881000
0.022158 0.019818 0.858000
-0.018064 -0.032594 0.891000
-0.032896 0.006744 0.857000
0.023904 -0.008447 0.897000
0.042910 -0.016495 0.893000
-0.006357 -0.021689 0.895000
-0.036196 -0.027215 0.895000
-0.033559 0.000043 0.865000
-0.045576 -0.002122 0.877000
0.024984 0.001497 0.883000
0.042814 -0.021226 0.891000
-0.013357 -0.002466 0.871000
-0.027570 -0.001385 0.867000
0.019378 0.024112 0.860000
-0.004339 0.014555 0.860000
0.002817 -0.006505 0.884000
-0.027284 0.010990 0.858000
-0.039644 0.005693 0.858000
0.040887 -0.003648 0.897000
0.014896 0.008250 0.867000
-0.033212 -0.028656 0.894000
0.040149 -0.005124 0.897000
-0.031423 -0.001381 0.865000
0.016604 0.032010 0.863000
0.041183 0.011169 0.872000
0.023115 0.002582 0.881000
0.033576 0.019887 0.861000
0.013551 -0.016551 0.896000
-0.038408 -0.003538 0.870000
-0.024435 -0.022082 0.896000
-0.022339 -0.009802 0.886000
-0.017420 -0.004288 0.877000
-0.007462 -0.011375 0.895000
-0.014062 -0.026786 0.893000
0.013037 0.029844 0.862000
0.037807 -0.016882 0.894000
-0.007831 -0.021321 0.895000
-0.017059 -0.014338 0.896000
-0.025428 -0.032631 0.892000
-0.042215 0.006414 0.860000
0.042543 -0.017965 0.893000
-0.030739 -0.019523 0.897000
-0.031895 -0.009714 0.878000
-0.025086 -0.007200 0.880000
-0.004709 0.003950 0.863000
0.005592 0.006791 0.863000
0.031493 0.006862 0.872000
0.011210 0.016993 0.858000
-0.040751 0.003931 0.859000
-0.010897 -0.004639 0.875000
0.012062 -0.018742 0.895000
-0.024611 -0.004644 0.876000
0.040705 -0.017965 0.893000
0.034785 -0.021250 0.892000
-0.005989 -0.022058 0.895000
0.014608 -0.022744 0.893000
0.002040 0.005726 0.863000
-0.037302 -0.018006 0.895000
-0.012924 0.000399 0.866000
-0.028730 0.004639 0.859000
0.027565 -0.005856 0.896000
0.042793 0.005495 0.883000
-0.010405 0.001821 0.864000
0.040614 -0.023426 0.891000
-0.021244 -0.001032 0.871000
-0.023808 -0.002472 0.873000
-0.021781 -0.013555 0.893000
0.024917 0.008617 0.868000
0.013391 0.028780 0.862000
-0.040384 -0.006432 0.874000
0.006529 -0.020929 0.894000
0.015412 -0.008447 0.897000
0.008737 -0.007683 0.894000
0.015095 0.015227 0.858000
-0.021022 -0.012438 0.892000
-0.008232 0.013139 0.860000
-0.008529 -0.030394 0.891000
0.021319 -0.009924 0.897000
-0.004485 -0.008738 0.889000
0.008759 0.013493 0.860000
-0.017564 -0.036006 0.903000
0.042814 -0.020859 0.891000
0.009112 0.012077 0.860000
0.027841 0.021962 0.859000
0.034242 -0.008816 0.897000
0.031812 -0.024526 0.891000
0.023653 0.026266 0.861000
-0.029934 -0.027215 0.895000
-0.001200 -0.020216 0.895000
-0.007897 0.004300 0.862000
0.001007 -0.028225 0.892000
0.039739 0.016045 0.864000
0.016060 -0.023819 0.892000
0.037638 0.000410 0.890000
0.005068 -0.018026 0.896000
-0.039124 -0.003896 0.870000
-0.017062 0.012417 0.859000
-0.026309 -0.021369 0.897000
-0.010525 -0.003914 0.874000
0.011338 -0.016551 0.896000
-0.046456 -0.009011 0.880000
0.008698 -0.029261 0.890000
0.031989 0.012874 0.866000
-0.035489 0.002520 0.860000
-0.002676 -0.019132 0.896000
0.021084 0.007221 0.872000
0.018025 0.031655 0.863000
0.008766 -0.011770 0.897000
-0.020716 -0.005022 0.879000
-0.030853 -0.004964 0.869000
0.004516 0.013863 0.861000
0.019408 -0.020193 0.894000
0.032815 0.010773 0.869000
0.023736 0.012489 0.864000
-0.023752 0.010636 0.858000
-0.001937 -0.021689 0.895000
0.008397 -0.013985 0.897000
0.042277 0.017132 0.865000
-0.036828 -0.006439 0.875000
0.017258 -0.010662 0.897000
-0.042205 -0.011573 0.882000
0.046049 0.018641 0.869000
0.043039 0.016082 0.866000
-0.021429 0.002888 0.864000
-0.045680 -0.007554 0.879000
-0.011540 -0.017308 0.897000
0.009855 0.009988 0.863000
0.022302 -0.024187 0.892000
-0.034141 -0.009374 0.880000
-0.019378 -0.007961 0.884000
-0.021140 -0.019523 0.897000
-0.017935 0.001827 0.867000
0.034863 -0.002532 0.894000
0.039235 -0.016863 0.893000
0.020039 0.017346 0.858000
0.026874 0.014234 0.862000
-0.038677 -0.002458 0.868000
0.013904 -0.019111 0.895000
0.034044 0.009026 0.873000
0.002487 -0.011019 0.896000
-0.009629 -0.031494 0.891000
0.021477 0.022316 0.859000
-0.047651 -0.010484 0.882000
0.020099 -0.023452 0.892000
0.028847 0.007545 0.868000
0.026468 0.005785 0.872000
0.019333 0.017699 0.858000
-0.003999 0.004305 0.863000
-0.022858 -0.032631 0.892000
0.026311 -0.002523 0.891000
-0.027693 -0.029024 0.894000
0.019820 -0.015444 0.896000
0.032756 0.005097 0.877000
0.005237 0.008567 0.863000
-0.026113 -0.007545 0.878000
-0.008940 0.014555 0.860000
0.038867 -0.001059 0.893000
0.019964 -0.001050 0.886000
0.041761 -0.020148 0.892000
0.002856 -0.010650 0.896000
-0.016507 0.000400 0.867000
-0.023180 0.003239 0.863000
0.015783 0.016973 0.857000
0.035718 -0.008816 0.897000
-0.025824 -0.030094 0.893000
-0.037865 -0.005712 0.874000
0.032026 -0.009924 0.897000
0.026427 0.021255 0.859000
-0.015063 -0.008718 0.887000
-0.016598 -0.010958 0.891000
0.004321 -0.020929 0.894000
0.029962 0.020902 0.859000
0.022389 0.002219 0.881000
0.036208 -0.025144 0.900000
-0.010393 0.002884 0.863000
-0.028577 -0.008610 0.876000
-0.019742 -0.007597 0.884000
0.020328 -0.000686 0.886000
0.020487 0.012460 0.862000
0.009455 0.017013 0.859000
-0.004142 -0.023873 0.894000
0.032891 0.009364 0.871000
0.033279 -0.024526 0.891000
0.045751 0.009789 0.877000
0.022008 -0.005850 0.895000
0.021200 -0.022351 0.892000
-0.014030 -0.034428 0.891000
0.007616 -0.024921 0.892000
-0.031039 -0.026846 0.895000
-0.011772 0.013847 0.860000
-0.002629 0.001492 0.880000
0.020212 -0.008447 0.897000
0.038089 -0.000690 0.892000
-0.035543 -0.003538 0.870000
0.032395 -0.005124 0.897000
-0.004709 0.004305 0.863000
0.015034 0.001844 0.875000
-0.038559 -0.014975 0.890000
0.030345 -0.001790 0.891000
-0.014234 0.008881 0.859000
-0.012224 -0.028257 0.893000
0.026340 -0.022718 0.892000
-0.023399 0.008518 0.858000
-0.035448 0.002871 0.859000
0.021977 0.003661 0.879000
0.014456 0.029490 0.862000
-0.033693 -0.022476 0.897000
-0.032954 -0.019154 0.897000
0.036375 -0.002903 0.895000
0.012284 0.021255 0.859000
-0.026577 0.009930 0.858000
-0.000463 -0.023505 0.894000
-0.044341 -0.003914 0.874000
0.021984 -0.019089 0.894000
0.003958 -0.020953 0.895000
0.042543 -0.018333 0.893000
-0.035228 -0.009011 0.880000
0.000272 -0.030760 0.891000
0.025549 -0.002154 0.890000
0.005947 0.008212 0.863000
-0.005539 -0.007580 0.882000
-0.013173 0.009235 0.859000
-0.000461 -0.029294 0.891000
0.024956 -0.016164 0.895000
0.023245 0.014891 0.859000
-0.046456 -0.003578 0.880000
0.013904 -0.017637 0.895000
-0.023301 -0.006846 0.881000
-0.027998 -0.032263 0.892000
0.029474 0.002928 0.876000
0.018672 -0.018721 0.894000
-0.000832 -0.018763 0.896000
0.016900 0.023404 0.860000
0.003533 -0.004670 0.881000
0.002473 -0.029294 0.891000
-0.032808 -0.030829 0.893000
0.001007 -0.027491 0.892000
-0.033753 -0.004970 0.870000
-0.019356 -0.007225 0.883000
-0.016285 -0.026449 0.894000
-0.007848 -0.017308 0.897000
-0.020927 0.008871 0.858000
-0.000461 -0.030394 0.891000
0.046888 0.009439 0.878000
-0.016355 0.012770 0.859000
-0.012466 0.008881 0.859000
-0.015739 0.003243 0.864000
-0.036744 -0.004987 0.873000
-0.003631 0.012077 0.860000
0.020076 -0.025260 0.891000
0.030695 0.001130 0.880000
-0.021341 -0.035488 0.890000
-0.015935 -0.013217 0.895000
0.044719 0.024255 0.878000
0.030850 -0.003639 0.895000
-0.009325 -0.015462 0.897000
-0.025911 -0.022082 0.896000
-0.015148 -0.031162 0.892000
0.008350 -0.026022 0.892000
-0.027966 -0.035894 0.891000
0.009588 0.001835 0.871000
0.027906 0.014926 0.861000
-0.010710 0.008538 0.860000
0.029278 -0.022351 0.892000
-0.004878 -0.010259 0.894000
-0.027631 -0.031529 0.892000
0.019104 -0.007709 0.897000
0.025973 -0.023085 0.892000
0.015095 0.014521 0.858000
-0.035539 -0.023584 0.897000
-0.035549 -0.008278 0.879000
-0.019079 -0.009448 0.887000
0.029954 0.007196 0.869000
-0.014482 -0.004633 0.874000
0.023824 -0.004371 0.894000
0.026134 0.026620 0.861000
0.042732 0.015030 0.867000
0.025750 -0.008447 0.897000
-0.016691 -0.015076 0.896000
0.004526 0.006791 0.863000
0.021932 0.031300 0.863000
-0.043049 -0.007537 0.877000
0.039691 -0.013217 0.895000
0.006154 -0.024214 0.893000
0.012270 0.020171 0.858000
-0.027600 -0.013158 0.891000
-0.035548 -0.013114 0.888000
-0.003787 -0.012508 0.897000
0.020099 -0.022718 0.892000
-0.008916 -0.025684 0.893000
0.042958 -0.022769 0.894000
-0.026255 0.005346 0.859000
-0.030739 -0.022845 0.897000
0.022642 0.030945 0.863000
0.014759 0.023023 0.859000
0.015754 0.002924 0.875000
0.008116 0.003611 0.867000
0.004307 -0.027827 0.891000
-0.027150 0.001111 0.865000
0.032323 -0.003271 0.895000
-0.036268 -0.032024 0.906000
0.017628 0.027329 0.861000
-0.030636 -0.029760 0.894000
0.020903 -0.015796 0.895000
-0.043736 -0.016825 0.891000
-0.028397 -0.030829 0.893000
-0.019987 -0.013954 0.895000
0.040659 0.000044 0.892000
-0.012210 -0.010970 0.892000
0.041853 0.012232 0.871000
0.021099 0.018406 0.858000
0.019400 0.027329 0.861000
0.033872 -0.005863 0.897000
-0.022173 -0.013938 0.894000
-0.034239 -0.033365 0.892000
0.027134 0.017013 0.859000
-0.011813 0.003595 0.863000
-0.027433 -0.006432 0.874000
-0.032321 -0.005686 0.870000
-0.015428 -0.008718 0.887000
0.010504 0.018052 0.858000
-0.028092 -0.015796 0.895000
0.014742 0.015580 0.858000
-0.002998 -0.006854 0.882000
-0.047234 -0.010472 0.881000
-0.026794 0.001111 0.865000
0.007241 -0.027827 0.891000
0.029643 0.023758 0.860000
-0.003783 -0.018026 0.896000
0.041161 0.018179 0.864000
-0.037571 -0.011235 0.884000
-0.021801 -0.005745 0.879000
0.017214 0.014874 0.858000
0.025886 -0.001420 0.889000
-0.038138 -0.004623 0.872000
-0.026927 -0.030462 0.893000
0.010243 -0.009924 0.897000
0.017996 -0.012139 0.897000
0.015412 -0.012139 0.897000
0.042553 -0.023689 0.901000
0.036826 -0.005124 0.897000
0.011236 0.012077 0.860000
0.038532 0.007623 0.877000
0.029962 0.019134 0.859000
-0.005620 -0.022794 0.895000
-0.011896 -0.013969 0.896000
-0.027047 -0.018415 0.897000
0.041152 0.007279 0.879000
-0.039428 0.001106 0.861000
0.025336 0.019818 0.858000
-0.043806 -0.013069 0.885000
0.027292 0.013200 0.864000
-0.012959 -0.028257 0.893000
0.033721 -0.019068 0.893000
0.019334 0.005799 0.874000
0.027596 -0.008816 0.897000
-0.031776 -0.016532 0.895000
-0.016469 0.003247 0.865000
-0.001507 0.013139 0.860000
-0.009996 -0.009857 0.891000
-0.029433 -0.035161 0.891000
0.035923 0.008686 0.875000
-0.029151 0.003232 0.861000
0.014215 0.005766 0.869000
0.017567 0.020877 0.858000
-0.034393 -0.024664 0.896000
0.020237 0.001133 0.882000
0.021060 0.007571 0.871000
-0.040743 -0.006432 0.874000
-0.033618 -0.026846 0.895000
0.020770 0.015245 0.859000
-0.014429 -0.027889 0.893000
-0.040184 0.000397 0.862000
0.002487 -0.017288 0.896000
0.036375 -0.013217 0.895000
-0.050875 -0.006579 0.894000
-0.029466 -0.031896 0.892000
-0.018102 0.008871 0.858000
0.017195 0.004365 0.875000
0.013935 -0.009555 0.897000
0.030741 0.015281 0.861000
0.023184 0.008637 0.870000
0.021568 -0.023819 0.892000
0.022537 0.014891 0.859000
-0.016560 -0.009835 0.889000
0.037680 -0.023793 0.891000
0.026843 0.025912 0.861000
-0.023754 -0.001391 0.871000
-0.024555 -0.010543 0.887000
0.041347 -0.023059 0.891000
-0.044570 -0.017965 0.893000
-0.019663 -0.017677 0.897000
-0.005058 0.006429 0.862000
0.036210 0.004400 0.882000
-0.016709 -0.018415 0.897000
0.020464 0.026975 0.861000
-0.046826 -0.013829 0.887000
-0.030779 0.006744 0.857000
-0.044900 0.004310 0.864000
0.023790 0.011092 0.866000
-0.046199 -0.011210 0.882000
0.012089 -0.014354 0.897000
0.038824 -0.019047 0.892000
0.023623 0.006870 0.873000
-0.019553 -0.031162 0.892000
0.011563 0.018759 0.858000
0.022918 0.024466 0.860000
-0.012238 -0.026081 0.894000
-0.036116 -0.016128 0.893000
-0.010270 -0.008679 0.883000
-0.024832 -0.018784 0.897000
-0.001566 -0.009891 0.894000
0.010920 -0.006197 0.892000
-0.001568 -0.020216 0.895000
-0.033817 -0.010109 0.881000
0.028295 0.004714 0.873000
-0.008217 -0.016200 0.897000
0.010577 -0.019825 0.894000
0.014811 0.011750 0.862000
0.020818 0.026975 0.861000
-0.015131 -0.032594 0.891000
-0.032581 0.011343 0.858000
-0.015648 0.009235 0.859000
0.002808 -0.004308 0.881000
0.001751 -0.016569 0.897000
-0.012538 0.002532 0.864000
-0.009325 -0.016569 0.897000
0.024642 -0.012139 0.897000
0.037680 -0.000323 0.891000
-0.000091 0.014201 0.860000
0.025507 0.004009 0.876000
-0.004349 0.005364 0.862000
-0.024334 -0.006107 0.879000
0.030555 0.003649 0.876000
0.018273 0.020171 0.858000
0.024956 -0.016901 0.895000
-0.010030 -0.024609 0.894000
0.032026 -0.008447 0.897000
0.023531 0.001497 0.883000
-0.003032 -0.027124 0.892000
-0.019537 0.011710 0.859000
0.007289 -0.010293 0.897000
-0.012849 0.006067 0.861000
0.009125 -0.016551 0.896000
-0.013542 0.006768 0.860000
0.029811 -0.008816 0.897000
0.031622 -0.004381 0.896000
0.023272 0.024820 0.860000
0.017567 0.015934 0.858000
0.032728 -0.013232 0.896000
-0.016322 -0.014338 0.896000
0.022184 0.022670 0.859000
0.041808 -0.017965 0.893000
-0.002930 0.008203 0.862000
0.007741 0.005739 0.865000
-0.039210 -0.000669 0.864000
0.042175 -0.016495 0.893000
0.022752 0.002582 0.881000
-0.002926 0.009256 0.861000
0.022944 0.026620 0.861000
0.008766 -0.009924 0.897000
-0.001930 -0.028592 0.892000
-0.027294 -0.014290 0.893000
-0.037018 -0.003900 0.871000
0.027596 -0.014354 0.897000
-0.019876 -0.034755 0.890000
0.041579 -0.009544 0.896000
0.017854 0.006503 0.872000
-0.018840 -0.030462 0.893000
-0.025061 -0.031529 0.892000
0.006897 -0.022401 0.894000
0.042543 -0.016128 0.893000
0.024844 -0.024893 0.891000
-0.009500 -0.005383 0.879000
0.025304 0.007912 0.869000
-0.000461 -0.031494 0.891000
0.010882 0.012077 0.860000
0.017962 0.024112 0.860000
-0.006741 -0.014723 0.897000
0.001689 0.003959 0.865000
-0.019854 -0.010933 0.889000
0.011338 -0.015444 0.896000
-0.017963 -0.008708 0.886000
-0.002670 -0.023505 0.894000
-0.031929 -0.013128 0.889000
0.009863 -0.016551 0.896000
-0.013558 0.006067 0.861000
-0.025201 -0.020630 0.897000
-0.024105 0.010636 0.858000
-0.016691 -0.020607 0.896000
-0.030533 0.003228 0.860000
0.024447 0.012489 0.864000
0.028457 0.002212 0.878000
-0.023879 -0.011665 0.889000
0.010612 -0.009924 0.897000
0.015183 0.030945 0.863000
-0.013234 0.004305 0.863000
0.028334 -0.010662 0.897000
-0.044189 -0.002466 0.871000
0.020076 0.005445 0.875000
0.036496 0.017802 0.863000
-0.033326 0.003578 0.859000
-0.028964 -0.002096 0.866000
0.018046 0.033114 0.864000
-0.024093 -0.017677 0.897000
0.033723 0.007957 0.874000
-0.006681 -0.009103 0.889000
0.043964 -0.020148 0.892000
0.036496 0.020289 0.863000
0.008079 0.008567 0.863000
-0.051630 0.004064 0.888000
-0.047543 -0.007200 0.880000
-0.027761 -0.006065 0.873000
-0.007078 -0.010247 0.893000
0.012180 -0.001040 0.877000
0.002392 0.009622 0.862000
-0.002676 -0.019501 0.896000
-0.017618 0.000043 0.869000
-0.034239 -0.034466 0.892000
0.039429 0.021760 0.865000
0.028935 0.016679 0.860000
0.011563 0.017346 0.858000
0.023403 -0.021984 0.892000
0.013152 -0.020193 0.894000
-0.039337 0.009588 0.859000
0.008097 0.005739 0.865000
0.004705 -0.012508 0.897000
-0.006741 -0.014354 0.897000
0.010293 0.002550 0.870000
-0.019898 -0.033694 0.891000
-0.019186 -0.031162 0.892000
-0.039568 -0.014210 0.888000
0.009852 -0.019479 0.895000
0.034127 -0.015778 0.894000
0.010996 0.003262 0.869000
-0.023592 -0.013173 0.892000
0.019430 -0.017269 0.895000
0.009852 -0.019848 0.895000
-0.033641 0.010990 0.858000
-0.022960 -0.022820 0.896000
-0.022806 -0.011678 0.890000
0.042093 0.009417 0.876000
0.024277 0.019818 0.858000
-0.039755 -0.007168 0.876000
0.030229 0.002931 0.877000
-0.043783 0.002529 0.863000
0.015517 -0.001408 0.882000
0.007633 -0.021297 0.894000
0.036088 -0.006970 0.897000
-0.013912 0.006421 0.861000
-0.024105 0.010283 0.858000
0.006154 -0.007674 0.893000
0.023353 0.029879 0.863000
-0.013664 -0.031494 0.891000
-0.010037 0.003239 0.863000
0.012375 -0.005457 0.891000
0.009808 -0.028193 0.891000
-0.011538 -0.001388 0.869000
0.002109 -0.027124 0.892000
-0.031570 -0.010448 0.879000
-0.031740 -0.029024 0.894000
-0.029328 -0.038067 0.899000
-0.011096 -0.010224 0.891000
0.024246 -0.014338 0.896000
-0.035052 -0.030496 0.894000
0.002490 -0.016569 0.897000
-0.009263 -0.030760 0.891000
-0.026162 -0.037036 0.892000
-0.019206 0.006060 0.860000
0.030608 0.000044 0.888000
0.004186 0.003607 0.866000
-0.024573 0.003590 0.862000
0.002846 -0.024214 0.893000
-0.005975 -0.009880 0.893000
0.000263 0.013847 0.860000
0.033570 0.000410 0.889000
0.023598 0.015245 0.859000
0.029278 -0.002159 0.892000
0.043039 0.016795 0.866000
-0.031634 -0.034794 0.891000
-0.027047 -0.019892 0.897000
0.008473 0.018599 0.867000
-0.039619 -0.005706 0.873000
0.032062 -0.025828 0.898000
-0.016635 -0.027522 0.893000
-0.017882 -0.006491 0.882000
-0.036776 0.007450 0.857000
-0.009316 0.004655 0.862000
-0.031423 -0.000313 0.865000
-0.008208 -0.020976 0.896000
-0.037215 0.002517 0.859000
-0.047563 -0.017250 0.894000
0.034203 -0.004012 0.896000
0.016508 0.021231 0.858000
0.024426 0.004730 0.876000
-0.015294 0.011356 0.859000
0.012028 0.029983 0.866000
0.034679 0.018846 0.862000
-0.035052 -0.028656 0.894000
0.002852 -0.020584 0.895000
0.016267 0.033114 0.864000
-0.022960 -0.021714 0.896000
-0.029900 -0.029024 0.894000
-0.020998 -0.034061 0.891000
0.023403 -0.023085 0.892000
-0.006809 0.011356 0.859000
-0.007848 -0.017677 0.897000
-0.003787 -0.014723 0.897000
0.033097 -0.004381 0.896000
-0.032585 -0.018784 0.897000
0.041256 -0.003648 0.897000
0.008028 -0.013616 0.897000
0.022907 -0.000686 0.887000
-0.023592 -0.031896 0.892000
0.036851 0.019223 0.863000
0.028424 0.002570 0.877000
0.028489 0.001491 0.879000
0.026457 0.015617 0.860000
0.010232 -0.008806 0.896000
0.017162 -0.005096 0.892000
-0.029967 -0.017657 0.896000
0.022745 -0.005481 0.895000
0.031991 -0.013600 0.896000
0.016343 0.008617 0.868000
-0.025737 -0.035854 0.890000
0.036517 0.010451 0.872000
-0.023303 -0.014690 0.895000
0.038092 0.013603 0.867000
0.009566 0.002904 0.869000
0.006175 -0.009544 0.896000
-0.046509 -0.010472 0.881000
-0.041966 -0.008259 0.877000
-0.045680 -0.009001 0.879000
0.001013 -0.015831 0.897000
-0.006817 0.013493 0.860000
0.000644 -0.014354 0.897000
0.042862 -0.019047 0.892000
0.031348 0.010046 0.868000
0.009455 0.015245 0.859000
-0.006741 -0.015092 0.897000
0.029528 0.009321 0.867000
0.009720 -0.004681 0.883000
-0.016132 0.001112 0.866000
0.010946 0.007875 0.865000
