-0.031066 -0.012201 0.875000
0.019829 -0.016617 0.880000
-0.007312 -0.016561 0.877000
0.031493 -0.031899 0.872000
0.025360 0.009106 0.847000
0.021252 0.029429 0.850000
0.036601 -0.029094 0.874000
-0.032228 -0.003136 0.858000
0.017628 0.019147 0.844000
0.041161 -0.001735 0.864000
0.016392 0.004951 0.852000
0.026975 0.013573 0.843000
-0.018439 -0.020821 0.874000
-0.035012 0.000042 0.857000
0.030517 0.017083 0.845000
0.021848 0.010140 0.846000
0.020407 0.020189 0.844000
0.023241 0.022326 0.846000
-0.041822 0.005302 0.852000
0.005146 0.004230 0.848000
-0.005828 -0.027919 0.871000
0.036727 -0.010785 0.877000
-0.035145 -0.027140 0.869000
0.029541 -0.021277 0.878000
-0.046087 -0.009658 0.873000
-0.042705 -0.008193 0.870000
-0.029232 -0.019382 0.874000
-0.002256 -0.011134 0.876000
-0.044889 0.003570 0.857000
-0.029964 -0.005291 0.864000
0.032211 0.002500 0.853000
0.001689 -0.007434 0.865000
-0.014018 0.008399 0.846000
-0.047170 0.006768 0.860000
0.002057 -0.031826 0.870000
0.018678 -0.021975 0.877000
-0.008118 0.003881 0.848000
-0.008457 0.018518 0.847000
0.032409 0.024153 0.849000
0.023983 -0.008221 0.873000
-0.001895 -0.019787 0.876000
-0.021553 -0.028928 0.869000
0.013218 -0.026936 0.874000
-0.049937 -0.003161 0.865000
-0.026617 0.005975 0.848000
0.029092 0.015674 0.844000
-0.004775 -0.022285 0.875000
0.000268 -0.021565 0.875000
-0.031246 -0.026097 0.870000
-0.029407 0.015562 0.838000
0.043295 -0.001735 0.864000
0.037492 -0.011159 0.878000
0.011736 0.016388 0.845000
0.030298 -0.019854 0.879000
-0.037188 -0.016163 0.875000
-0.014399 -0.030359 0.869000
-0.010871 0.008389 0.845000
0.017607 0.016349 0.843000
-0.023586 0.004601 0.852000
-0.031926 -0.028570 0.869000
-0.047878 -0.001019 0.860000
-0.000092 -0.009299 0.873000
0.020389 -0.028342 0.873000
0.029333 0.028763 0.851000
0.011406 -0.028342 0.873000
-0.015964 -0.001369 0.857000
-0.038541 -0.019360 0.873000
-0.013605 0.012864 0.842000
-0.047966 -0.007102 0.868000
-0.021268 -0.008929 0.872000
0.025130 0.030164 0.851000
0.023786 -0.019131 0.879000
-0.038181 -0.010377 0.873000
0.009997 0.012910 0.845000
-0.037188 -0.015443 0.875000
-0.021171 -0.006030 0.868000
-0.009458 0.018084 0.843000
0.036516 0.010849 0.847000
0.044447 0.013718 0.852000
0.037213 0.003913 0.855000
0.029017 0.030199 0.852000
-0.004758 -0.008571 0.872000
0.035283 -0.024141 0.877000
-0.011676 0.000393 0.853000
0.005285 -0.032221 0.871000
-0.036301 -0.024693 0.871000
0.009718 0.002494 0.851000
0.022118 0.013226 0.843000
-0.034947 -0.020078 0.873000
0.003145 -0.009669 0.874000
0.036339 0.006697 0.851000
-0.028406 0.019034 0.839000
0.029970 -0.014444 0.880000
0.035319 -0.005680 0.869000
0.000258 0.011505 0.844000
-0.035943 -0.023976 0.871000
-0.029599 -0.032739 0.885000
0.026498 -0.029061 0.873000
0.017607 0.016696 0.843000
-0.047115 0.004285 0.859000
-0.030072 0.004225 0.847000
0.014741 -0.017322 0.879000
-0.028991 0.008050 0.846000
0.004229 -0.023005 0.875000
-0.030179 -0.004559 0.860000
-0.014791 -0.026485 0.871000
-0.006690 0.018105 0.844000
-0.004947 0.013573 0.843000
0.023596 -0.032258 0.872000
0.018803 0.007039 0.850000
-0.051064 0.001468 0.866000
0.035429 0.016059 0.846000
-0.040070 -0.013282 0.875000
0.002348 0.007702 0.846000
0.022545 -0.008580 0.873000
-0.040865 0.002854 0.854000
-0.030706 -0.017243 0.875000
-0.017051 0.012849 0.841000
0.032249 0.001800 0.854000
0.004887 -0.004936 0.864000
0.026624 0.002854 0.854000
-0.032467 -0.000662 0.855000
0.006550 0.003886 0.849000
-0.032146 -0.016883 0.875000
0.035363 -0.019854 0.879000
0.013890 -0.032221 0.871000
0.036266 -0.003522 0.866000
0.030264 -0.022361 0.878000
0.023186 0.017758 0.844000
-0.020983 0.008747 0.846000
0.003066 0.002847 0.852000
0.015085 -0.019832 0.878000
-0.009478 -0.012951 0.877000
-0.053399 -0.002857 0.881000
-0.015149 -0.027202 0.871000
-0.030460 -0.030681 0.868000
-0.005634 0.014597 0.842000
-0.016709 -0.002432 0.859000
-0.025042 0.011478 0.842000
0.018359 -0.001377 0.862000
0.024871 -0.021302 0.879000
-0.008060 0.016676 0.842000
0.019736 0.020909 0.845000
0.010369 0.008757 0.847000
0.003865 -0.024778 0.874000
-0.016603 -0.025439 0.872000
-0.030103 -0.031395 0.868000
-0.052014 0.010499 0.876000
-0.040339 0.016002 0.843000
0.019689 0.018084 0.843000
0.022675 -0.021277 0.878000
-0.022320 -0.025051 0.871000
0.028262 -0.032617 0.872000
-0.034686 0.005283 0.849000
0.029373 -0.008221 0.873000
0.019108 0.008767 0.848000
0.004079 0.012895 0.844000
0.033155 -0.022723 0.878000
-0.014281 0.014233 0.841000
-0.016698 -0.014756 0.877000
-0.013418 -0.020484 0.875000
0.006527 0.017103 0.846000
-0.011887 0.018431 0.843000
0.030865 0.018127 0.845000
-0.016358 0.017002 0.841000
-0.017020 -0.019404 0.875000
0.035973 0.001103 0.859000
0.004938 -0.025827 0.873000
-0.041320 -0.022542 0.871000
-0.005470 -0.028636 0.871000
-0.006904 0.003269 0.871000
-0.029026 0.004574 0.847000
-0.003707 -0.015857 0.878000
0.023561 0.019866 0.845000
-0.049716 -0.009736 0.880000
-0.037775 0.014908 0.840000
0.026468 -0.007853 0.872000
-0.034390 -0.031395 0.868000
0.006781 -0.015875 0.879000
-0.047469 0.003931 0.859000
-0.015830 -0.029643 0.869000
-0.027566 0.009432 0.845000
0.014604 0.005989 0.850000
0.030881 -0.009320 0.875000
0.010328 -0.027983 0.873000
-0.040070 -0.014002 0.875000
-0.039349 -0.016883 0.875000
0.039352 0.012607 0.848000
-0.030671 -0.019742 0.874000
-0.014035 0.007014 0.847000
0.033966 0.004957 0.853000
-0.033395 -0.008193 0.870000
-0.033037 -0.007835 0.870000
-0.039880 0.007371 0.848000
-0.026233 -0.027171 0.870000
-0.047823 0.002871 0.859000
-0.027848 0.010797 0.843000
0.013922 -0.028702 0.873000
0.035882 -0.032692 0.874000
0.031084 0.005996 0.851000
-0.004045 -0.009299 0.873000
-0.034033 -0.028895 0.868000
-0.022626 -0.007110 0.869000
0.010700 -0.026217 0.874000
-0.025106 0.001452 0.856000
0.034679 -0.014082 0.880000
0.031822 0.004250 0.852000
-0.031514 0.018689 0.839000
0.049994 0.012474 0.863000
-0.021255 0.001453 0.857000
-0.036168 0.004946 0.851000
-0.003677 -0.032221 0.871000
-0.001895 -0.020508 0.876000
-0.004600 0.015655 0.843000
0.023994 0.024822 0.848000
-0.021293 -0.023312 0.873000
0.013806 0.017410 0.844000
-0.017935 -0.005310 0.867000
-0.015815 0.005633 0.849000
-0.009478 -0.017283 0.877000
0.038937 -0.022361 0.878000
-0.011206 -0.028277 0.871000
-0.035053 -0.001017 0.858000
0.012556 -0.019832 0.878000
-0.017059 -0.013312 0.877000
0.049098 -0.001383 0.866000
0.005650 -0.029028 0.872000
-0.021578 -0.027529 0.870000
-0.037649 -0.026424 0.869000
0.039584 0.005308 0.853000
0.027967 -0.029094 0.874000
-0.036108 -0.013282 0.875000
0.034161 -0.026637 0.876000
0.028050 0.015674 0.844000
-0.008079 0.009421 0.844000
-0.000808 -0.032184 0.870000
-0.029368 -0.002427 0.857000
0.043195 -0.000312 0.862000
-0.036721 -0.003869 0.864000
0.036979 -0.003522 0.866000
0.029928 0.023426 0.848000
-0.033241 0.017998 0.839000
-0.010561 -0.016922 0.877000
0.036769 -0.022723 0.878000
0.021449 0.019495 0.844000
0.008079 -0.005640 0.863000
0.032009 -0.000310 0.857000
-0.024291 0.012833 0.840000
0.008532 -0.027983 0.873000
-0.039413 0.003202 0.853000
0.018692 0.010823 0.845000
0.005816 0.012547 0.844000
0.030333 -0.018791 0.880000
-0.042231 -0.011841 0.875000
0.021277 0.006697 0.851000
0.024900 -0.014806 0.880000
0.035841 -0.030858 0.873000
-0.010833 0.014250 0.842000
-0.034346 -0.014379 0.876000
-0.011405 -0.003493 0.859000
-0.011950 -0.024749 0.873000
0.026150 0.026980 0.850000
-0.033947 -0.016883 0.875000
-0.013952 0.017716 0.842000
-0.042321 0.002506 0.855000
0.020844 -0.011146 0.877000
0.000629 -0.011868 0.877000
-0.020284 -0.012576 0.876000
-0.028752 0.014199 0.839000
0.021822 0.020561 0.845000
-0.050824 0.008260 0.868000
0.021152 0.023023 0.846000
0.033004 -0.028375 0.874000
0.002429 -0.022645 0.875000
-0.015939 -0.010761 0.875000
-0.035324 0.000747 0.856000
0.032891 -0.006768 0.871000
0.031023 -0.002079 0.859000
0.030845 -0.028375 0.874000
-0.034229 -0.020438 0.873000
0.039748 0.008778 0.849000
0.026850 0.027330 0.850000
-0.033075 -0.024334 0.871000
-0.039124 -0.008551 0.870000
0.029195 0.009803 0.847000
0.005689 -0.013689 0.878000
0.012844 -0.027624 0.873000
0.021277 -0.016617 0.880000
0.004094 0.004922 0.847000
-0.041033 0.014961 0.843000
0.022597 -0.009680 0.875000
0.004542 -0.004591 0.866000
-0.042816 -0.004942 0.865000
-0.010393 -0.005996 0.863000
0.002696 0.006658 0.846000
0.012638 -0.003140 0.859000
0.023241 0.021630 0.846000
-0.006327 0.013557 0.842000
0.006037 -0.022311 0.876000
0.014379 -0.018046 0.879000
0.020203 -0.002805 0.865000
-0.037820 0.012849 0.841000
-0.043524 0.008448 0.851000
0.012932 -0.016960 0.879000
-0.044433 0.008488 0.855000
0.006735 -0.027624 0.873000
0.040844 0.014036 0.850000
-0.038629 -0.016883 0.875000
0.007454 -0.032654 0.873000
-0.008805 0.004574 0.847000
-0.021205 0.018387 0.841000
-0.012551 0.014233 0.841000
-0.011392 -0.003136 0.858000
-0.016650 0.000042 0.856000
0.014338 0.000394 0.855000
-0.011978 -0.010761 0.875000
0.026195 -0.004220 0.863000
-0.009100 0.015636 0.842000
-0.014570 -0.002783 0.858000
-0.019474 0.013195 0.841000
-0.040182 0.007711 0.847000
-0.028128 0.011810 0.841000
0.024576 0.012200 0.844000
-0.046001 0.003927 0.858000
-0.033758 -0.004210 0.861000
0.017997 -0.016960 0.879000
0.030067 -0.004215 0.862000
0.020976 0.005308 0.853000
-0.027379 0.003191 0.850000
0.044045 0.007397 0.851000
-0.017314 0.002151 0.854000
-0.043442 -0.025090 0.885000
0.029648 0.026980 0.850000
-0.008437 0.008041 0.845000
-0.038696 0.008736 0.845000
-0.039528 -0.022900 0.871000
-0.009693 0.002176 0.864000
-0.004064 -0.018005 0.877000
0.020145 -0.012243 0.878000
0.041146 0.010525 0.849000
0.028983 0.005996 0.851000
0.015599 0.009106 0.847000
0.016796 -0.028342 0.873000
-0.010536 0.006658 0.846000
-0.032628 0.020118 0.841000
0.033516 -0.022723 0.878000
0.007562 0.013953 0.845000
-0.029388 -0.006388 0.868000
0.008561 0.001846 0.876000
-0.031801 -0.001719 0.856000
-0.039645 0.011491 0.843000
-0.038232 -0.000311 0.858000
-0.034390 -0.029609 0.868000
-0.032239 0.003187 0.849000
0.017997 -0.017684 0.879000
-0.011458 -0.005996 0.863000
-0.033993 -0.030646 0.867000
0.048629 -0.000313 0.864000
0.003044 0.008747 0.846000
0.028498 0.021656 0.847000
-0.035943 -0.023259 0.871000
-0.023890 -0.012215 0.876000
0.017874 -0.029420 0.873000
0.043347 0.002514 0.858000
-0.004424 -0.011868 0.877000
0.041844 0.010874 0.849000
-0.047469 0.003224 0.859000
-0.014466 -0.022953 0.873000
-0.014399 -0.031432 0.869000
-0.039304 -0.011468 0.874000
0.026427 -0.001372 0.859000
0.029368 0.030199 0.852000
-0.026354 -0.019742 0.874000
0.025965 0.017410 0.844000
0.032121 -0.002081 0.860000
0.038620 -0.012257 0.879000
0.007795 -0.030787 0.871000
-0.051418 0.009733 0.872000
0.003493 -0.008561 0.871000
0.010731 0.005277 0.848000
-0.009424 -0.008571 0.872000
-0.005514 -0.016218 0.878000
-0.046286 -0.008193 0.870000
-0.047088 -0.004942 0.865000
-0.030672 -0.000309 0.854000
0.028523 -0.006753 0.869000
0.013459 0.015326 0.844000
-0.015939 -0.020124 0.875000
0.004927 -0.032221 0.871000
-0.014432 -0.027561 0.871000
0.001308 0.003536 0.849000
-0.035984 -0.021491 0.872000
0.027039 0.018822 0.845000
0.045606 0.005666 0.854000
-0.042396 -0.026127 0.871000
0.048460 0.001460 0.861000
0.014741 -0.015513 0.879000
0.032098 0.007739 0.850000
0.005644 -0.008561 0.871000
-0.004430 -0.016580 0.878000
-0.038499 -0.003869 0.864000
0.031745 -0.020578 0.879000
-0.038452 -0.024334 0.871000
-0.003342 -0.018365 0.877000
0.019806 0.026218 0.848000
0.022249 0.026218 0.848000
-0.028440 0.012833 0.840000
-0.026366 0.019748 0.840000
0.022212 -0.008950 0.874000
-0.029780 -0.007110 0.869000
0.037003 -0.028047 0.875000
0.021852 -0.009310 0.874000
-0.003911 0.010116 0.844000
-0.011999 0.002144 0.851000
-0.023126 0.007022 0.848000
0.002002 0.005271 0.847000
-0.033586 0.016271 0.839000
0.049754 0.015708 0.865000
0.044666 -0.001023 0.863000
-0.000810 -0.008571 0.872000
-0.036786 -0.010749 0.874000
0.022184 0.000750 0.859000
-0.009117 -0.012590 0.877000
0.007496 -0.017302 0.878000
-0.030640 -0.005285 0.863000
-0.033075 -0.008919 0.871000
-0.018261 0.007031 0.849000
-0.029031 -0.006388 0.868000
-0.015375 0.010116 0.844000
-0.002875 0.005613 0.846000
-0.016981 -0.009658 0.873000
-0.018874 -0.002084 0.861000
0.026058 0.009106 0.847000
0.044096 0.006705 0.852000
0.015394 -0.025166 0.875000
-0.012219 0.017716 0.842000
0.044499 0.006010 0.853000
0.049409 0.003931 0.859000
-0.006372 0.003881 0.848000
-0.014842 -0.032332 0.874000
-0.003345 -0.016580 0.878000
0.026711 -0.014082 0.880000
-0.020834 0.017674 0.840000
-0.012640 0.005968 0.847000
0.030698 0.026630 0.850000
0.029575 -0.019131 0.879000
-0.014042 -0.031074 0.869000
-0.031044 0.009084 0.845000
-0.023449 -0.021875 0.873000
-0.005432 -0.007434 0.865000
0.034882 -0.026637 0.876000
0.028050 0.012547 0.844000
-0.015575 0.000042 0.855000
0.016933 0.011158 0.844000
0.017073 0.005996 0.851000
-0.000093 -0.014773 0.878000
-0.020169 -0.026844 0.871000
0.000954 0.010475 0.845000
-0.008437 0.007345 0.845000
-0.012028 0.000393 0.853000
0.038882 0.005308 0.853000
0.026827 -0.032617 0.872000
0.041495 0.010175 0.849000
0.043044 0.001457 0.859000
0.010026 -0.012605 0.878000
0.038090 0.007047 0.851000
-0.042299 -0.007826 0.869000
-0.033113 -0.031899 0.872000
-0.033249 -0.002074 0.857000
0.036087 -0.021663 0.879000
0.021443 -0.030463 0.872000
-0.017679 -0.025080 0.872000
0.025360 0.022004 0.847000
-0.034787 -0.026782 0.869000
-0.034271 -0.004942 0.865000
-0.015320 0.012849 0.841000
-0.035650 0.007363 0.847000
0.017895 -0.026936 0.874000
-0.002620 -0.018005 0.877000
-0.020634 0.008747 0.846000
-0.001535 -0.020508 0.876000
-0.029098 -0.008193 0.870000
-0.005300 0.010810 0.844000
-0.006598 -0.016580 0.878000
0.010015 -0.021253 0.877000
0.000985 -0.027951 0.872000
0.008779 -0.004215 0.862000
-0.040277 0.006332 0.849000
-0.037865 0.011824 0.842000
-0.003652 -0.007434 0.865000
0.038488 -0.026277 0.876000
-0.005875 -0.014773 0.878000
0.017954 0.018084 0.843000
-0.004947 0.016696 0.843000
0.037953 -0.007494 0.872000
0.028700 0.002500 0.853000
-0.020122 -0.029643 0.869000
0.038301 -0.013358 0.880000
0.012141 0.005283 0.849000
0.002061 -0.027233 0.872000
-0.033986 -0.013657 0.876000
-0.046199 -0.010121 0.882000
-0.009909 0.002146 0.852000
-0.004409 -0.023339 0.874000
-0.003703 -0.012951 0.877000
0.013459 0.013937 0.844000
0.020891 -0.018046 0.879000
-0.000453 -0.011494 0.876000
0.017314 -0.002089 0.863000
0.017136 -0.030463 0.872000
-0.014416 -0.028245 0.870000
0.032284 -0.008950 0.874000
-0.018961 -0.004229 0.865000
0.035861 0.009116 0.848000
-0.005842 0.003277 0.873000
-0.015830 -0.030359 0.869000
-0.013848 -0.002074 0.857000
0.008590 -0.016598 0.879000
-0.006590 -0.018005 0.877000
-0.037562 -0.030289 0.867000
-0.036392 0.018365 0.840000
0.014372 -0.001016 0.857000
0.024314 -0.031540 0.872000
-0.011872 0.017716 0.842000
0.037521 0.004612 0.854000
0.035951 -0.004239 0.867000
-0.034417 0.004245 0.851000
-0.021935 0.002156 0.856000
-0.019452 -0.008561 0.871000
0.000266 -0.031826 0.870000
-0.050052 0.012889 0.867000
0.007078 -0.029711 0.871000
-0.031169 0.017998 0.839000
-0.045056 -0.006380 0.867000
0.047308 0.008468 0.853000
-0.035843 -0.002081 0.860000
-0.046462 -0.001727 0.860000
-0.014084 0.002841 0.850000
-0.004064 -0.017283 0.877000
0.019626 -0.007127 0.871000
-0.021785 -0.003513 0.864000
-0.012310 -0.023312 0.873000
-0.022243 0.019079 0.841000
-0.025980 0.004590 0.850000
0.020705 0.015290 0.842000
0.049169 0.002523 0.861000
-0.035666 -0.020078 0.873000
-0.010885 -0.023339 0.874000
-0.028406 0.016617 0.839000
-0.025340 0.003899 0.852000
0.030626 0.022728 0.848000
0.004432 0.010823 0.845000
-0.036260 -0.008193 0.870000
0.021900 0.025520 0.848000
0.024314 0.022701 0.847000
-0.018826 0.011144 0.843000
-0.038303 0.009768 0.844000
-0.022320 -0.026485 0.871000
0.042033 0.001104 0.860000
0.013112 0.015674 0.844000
0.031324 0.022728 0.848000
0.023853 0.013920 0.843000
-0.044485 0.004975 0.856000
-0.022777 0.007371 0.848000
0.023461 -0.004596 0.867000
0.026181 0.006697 0.851000
-0.000089 0.014614 0.843000
-0.004785 -0.012590 0.877000
-0.033932 0.017653 0.839000
0.026406 0.009454 0.847000
0.029440 -0.026607 0.875000
-0.032469 -0.019022 0.874000
-0.006335 0.011491 0.843000
0.027513 -0.007127 0.871000
0.024721 0.007729 0.849000
-0.036343 -0.009288 0.872000
0.020844 -0.021253 0.877000
0.008277 0.005620 0.847000
-0.012495 -0.004919 0.861000
-0.037349 0.008399 0.846000
-0.012352 -0.019066 0.876000
0.046551 0.007757 0.852000
-0.031459 -0.005660 0.866000
0.021822 0.010475 0.845000
-0.028752 0.014545 0.839000
-0.020598 -0.010749 0.874000
0.017273 -0.013342 0.879000
0.033955 -0.019515 0.880000
-0.015241 -0.001015 0.856000
0.028753 -0.024834 0.876000
-0.011644 -0.013312 0.877000
0.036852 -0.019877 0.880000
0.015966 0.008069 0.848000
0.032513 -0.002438 0.861000
0.034961 -0.005680 0.869000
-0.012437 -0.002074 0.857000
-0.021986 -0.023644 0.872000
0.040853 -0.002805 0.865000
0.006044 -0.019809 0.877000
0.031565 -0.008950 0.874000
0.018972 0.014250 0.842000
0.026749 -0.000311 0.858000
0.022442 -0.006037 0.869000
-0.017355 0.000395 0.856000
0.030520 -0.026607 0.875000
0.045904 0.006010 0.853000
-0.022062 -0.018324 0.875000
0.039064 0.002864 0.857000
-0.049706 0.000751 0.861000
0.027932 0.006347 0.851000
-0.002875 0.005961 0.846000
-0.002614 -0.022285 0.875000
0.009946 -0.030787 0.871000
-0.028512 -0.019382 0.874000
0.028884 -0.015893 0.880000
0.044670 -0.005328 0.870000
0.026656 0.001802 0.855000
0.040447 0.013670 0.849000
0.003465 -0.006358 0.864000
0.008975 0.008408 0.847000
-0.005909 -0.033028 0.883000
-0.035584 -0.008919 0.871000
0.034076 0.010152 0.847000
-0.036135 -0.006380 0.867000
-0.021454 -0.004586 0.865000
0.026019 -0.006037 0.869000
-0.017760 -0.012215 0.876000
0.031176 0.013589 0.844000
0.044745 0.013001 0.851000
0.037767 -0.010413 0.876000
-0.025989 0.017998 0.839000
0.014248 -0.032221 0.871000
0.035162 -0.029814 0.874000
0.018129 -0.004959 0.868000
-0.003220 0.009084 0.845000
-0.005634 0.013904 0.842000
0.033800 -0.025916 0.876000
-0.013449 -0.015839 0.877000
-0.031132 0.016252 0.838000
0.022223 0.024445 0.847000
0.017595 -0.021253 0.877000
-0.033753 -0.008193 0.870000
0.002059 -0.030070 0.871000
0.012499 -0.025857 0.874000
0.012888 -0.010773 0.876000
0.043993 0.011587 0.850000
0.016933 0.011505 0.844000
0.000989 -0.021229 0.876000
0.004938 -0.027264 0.873000
0.006750 -0.023005 0.875000
0.000991 -0.016218 0.878000
0.009155 -0.006358 0.864000
0.033225 0.005653 0.852000
-0.008405 -0.014411 0.878000
-0.025696 -0.003513 0.864000
-0.013778 -0.020124 0.875000
0.008571 -0.019448 0.877000
-0.001831 0.005613 0.846000
0.006171 0.011519 0.845000
0.027967 -0.009310 0.874000
-0.028576 0.010116 0.844000
0.031276 -0.025555 0.876000
0.035202 -0.027687 0.875000
0.035288 0.007047 0.851000
-0.023600 0.018711 0.840000
0.024547 0.014961 0.843000
0.040900 -0.003165 0.866000
0.023569 -0.007127 0.871000
-0.042493 -0.010736 0.873000
0.027834 0.023775 0.848000
0.022571 0.023050 0.847000
-0.045981 -0.009278 0.871000
0.013547 -0.030104 0.872000
-0.023089 -0.010018 0.873000
0.003513 -0.021589 0.876000
-0.013088 -0.013312 0.877000
0.017607 0.017043 0.843000
0.016098 0.001802 0.855000
0.007215 0.012214 0.845000
-0.009044 -0.031826 0.870000
-0.025130 -0.031789 0.869000
-0.019560 -0.001019 0.860000
0.038040 -0.030533 0.874000
0.028753 -0.010052 0.876000
-0.023420 0.008399 0.846000
-0.002868 0.011505 0.844000
0.030333 -0.014806 0.880000
0.038654 0.011909 0.848000
0.024051 0.028729 0.850000
0.036324 -0.010052 0.876000
0.037767 -0.026637 0.876000
0.020191 -0.016255 0.880000
0.028096 0.000042 0.856000
0.024370 -0.008950 0.874000
-0.032704 0.001445 0.852000
-0.019474 0.018733 0.841000
0.027615 -0.004930 0.863000
-0.020192 -0.024362 0.872000
-0.019674 -0.004229 0.865000
0.031561 0.017083 0.845000
-0.052014 0.010860 0.876000
-0.031889 -0.029966 0.868000
-0.041535 -0.027823 0.868000
-0.051539 -0.002101 0.868000
-0.029094 0.003187 0.849000
-0.012295 -0.025798 0.872000
0.031057 -0.015893 0.880000
-0.028643 0.007702 0.846000
-0.022885 0.004250 0.852000
-0.018759 0.015599 0.840000
0.049811 0.016082 0.866000
0.016133 -0.022671 0.876000
0.007479 -0.011134 0.876000
-0.035355 0.018711 0.840000
0.015095 -0.001017 0.858000
-0.001528 -0.008571 0.872000
-0.026414 -0.017263 0.876000
-0.034622 0.014199 0.839000
-0.036828 -0.013282 0.875000
-0.007254 -0.031826 0.870000
-0.010897 -0.020124 0.875000
0.031636 0.020610 0.847000
0.022625 0.027647 0.849000
-0.019563 -0.012936 0.876000
-0.033227 -0.012561 0.875000
0.020730 0.018431 0.843000
-0.009480 0.008736 0.845000
0.024750 0.028030 0.850000
0.008079 -0.005996 0.863000
-0.020142 0.016636 0.840000
-0.015254 -0.015839 0.877000
0.040806 -0.002091 0.864000
0.034278 -0.020216 0.879000
-0.041870 -0.014002 0.875000
0.034922 -0.023419 0.877000
-0.026268 0.006324 0.848000
0.037767 -0.025916 0.876000
0.025540 0.004606 0.853000
0.016913 0.013226 0.843000
0.009665 0.000043 0.878000
-0.051717 -0.006410 0.871000
0.004244 -0.016941 0.878000
-0.010142 -0.026874 0.872000
-0.040337 -0.020438 0.873000
0.020431 0.020909 0.845000
0.026711 -0.017704 0.880000
-0.030427 -0.002427 0.857000
0.020754 0.011505 0.844000
0.037363 -0.009320 0.875000
-0.003673 -0.031468 0.870000
0.006390 -0.024086 0.875000
-0.048232 -0.000665 0.860000
0.009144 -0.005996 0.863000
0.029474 -0.025195 0.876000
0.008606 0.011866 0.845000
0.019068 -0.001022 0.862000
0.046087 -0.000668 0.863000
0.009017 0.002494 0.851000
-0.006350 0.008041 0.845000
-0.008756 -0.016200 0.877000
-0.015561 -0.021180 0.874000
0.026827 -0.031540 0.872000
0.012470 -0.029387 0.872000
0.018323 0.011852 0.844000
-0.013259 0.011478 0.842000
-0.009749 -0.031074 0.869000
-0.000093 -0.014411 0.878000
-0.016804 0.008747 0.846000
-0.023089 -0.022593 0.873000
0.046689 0.000397 0.861000
0.011458 -0.021253 0.877000
-0.034664 0.018711 0.840000
-0.010847 -0.028636 0.871000
0.032247 -0.033013 0.873000
0.028980 -0.032617 0.872000
0.034277 0.006003 0.852000
-0.022908 0.018365 0.840000
0.011722 0.013242 0.844000
-0.013589 0.013195 0.841000
0.046689 0.000751 0.861000
-0.019946 -0.016200 0.877000
0.027327 0.002151 0.854000
-0.013589 0.013541 0.841000
-0.034622 0.013509 0.839000
0.022838 0.002159 0.857000
-0.039205 0.014233 0.841000
0.004229 -0.023365 0.875000
-0.028914 -0.000661 0.854000
-0.020192 -0.025080 0.872000
0.030333 -0.015531 0.880000
-0.020910 -0.024362 0.872000
-0.028779 0.002141 0.850000
-0.010200 -0.016200 0.877000
0.013858 -0.006395 0.869000
-0.005674 0.003881 0.848000
0.003763 0.002844 0.851000
-0.039945 0.012517 0.842000
-0.025693 -0.016902 0.876000
0.009649 0.014649 0.845000
0.046634 0.001458 0.860000
-0.026648 0.004585 0.849000
-0.033523 -0.000310 0.855000
0.005670 -0.023726 0.875000
-0.016298 -0.000662 0.856000
0.030951 -0.023419 0.877000
-0.009176 0.003187 0.849000
-0.016358 0.017695 0.841000
0.029299 0.007039 0.850000
-0.028872 -0.019382 0.874000
-0.008025 -0.011494 0.876000
0.030351 -0.002789 0.860000
0.026818 0.025900 0.849000
-0.013058 -0.010761 0.875000
-0.040068 0.003899 0.852000
0.018972 0.015636 0.842000
-0.042134 -0.019360 0.873000
-0.047934 -0.001375 0.861000
-0.013259 0.017023 0.842000
-0.021551 0.011810 0.841000
0.025957 -0.018769 0.879000
-0.047823 0.000396 0.859000
0.012764 0.012895 0.844000
-0.005868 -0.017283 0.877000
-0.025217 -0.008929 0.872000
-0.024436 0.009084 0.845000
0.000606 0.010810 0.844000
0.045095 0.010550 0.851000
-0.027602 -0.030681 0.868000
-0.000093 -0.015857 0.878000
0.013354 -0.033392 0.883000
-0.016679 -0.012576 0.876000
-0.027011 -0.008929 0.872000
0.008561 -0.022671 0.876000
-0.028079 0.002491 0.850000
0.018803 0.007389 0.850000
0.032991 0.018148 0.846000
0.013547 -0.029387 0.872000
-0.036933 -0.027497 0.869000
-0.043072 0.010874 0.849000
-0.015741 0.009432 0.845000
0.042641 0.002161 0.858000
0.036538 -0.002091 0.864000
-0.003212 0.015308 0.843000
-0.021000 -0.001375 0.861000
0.046934 0.002164 0.859000
-0.014171 -0.014034 0.877000
0.036005 -0.024863 0.877000
0.046201 0.008809 0.852000
0.019992 0.003213 0.856000
-0.031101 -0.016542 0.876000
0.022301 0.028729 0.850000
0.030770 0.004951 0.852000
0.035243 -0.033127 0.876000
-0.029625 -0.017243 0.875000
-0.001174 -0.019787 0.876000
-0.043678 0.005666 0.854000
-0.012112 -0.003493 0.859000
0.027614 0.005302 0.852000
-0.023126 -0.001375 0.861000
-0.028563 0.000042 0.854000
0.021052 0.013904 0.842000
0.003521 -0.018386 0.878000
-0.029788 0.014890 0.839000
0.027735 0.017779 0.845000
-0.023558 0.005296 0.851000
-0.047579 -0.001375 0.861000
-0.038513 0.015272 0.841000
-0.040531 0.008060 0.847000
0.023062 -0.018769 0.879000
0.004089 0.006309 0.846000
-0.020488 0.013525 0.840000
0.014019 -0.001016 0.857000
0.020122 -0.011507 0.877000
-0.025600 0.005633 0.849000
0.033685 -0.030139 0.873000
-0.015903 -0.009658 0.873000
-0.003673 -0.031110 0.870000
-0.002259 -0.011868 0.877000
0.017854 -0.030104 0.872000
-0.038094 -0.023617 0.871000
-0.029814 -0.026455 0.870000
0.030775 -0.007853 0.872000
-0.027347 -0.002789 0.860000
-0.015778 0.008060 0.847000
0.028295 -0.029420 0.873000
0.009676 -0.015513 0.879000
0.005823 0.010475 0.845000
0.045850 0.008809 0.852000
-0.034994 0.006673 0.848000
-0.049038 0.013261 0.868000
-0.005294 0.011144 0.843000
0.043904 -0.000667 0.862000
0.004215 -0.028310 0.872000
-0.012625 0.008050 0.846000
0.015500 -0.033316 0.881000
-0.021627 -0.025080 0.872000
0.037724 -0.028407 0.875000
-0.002960 -0.028994 0.871000
-0.032935 0.012833 0.840000
-0.017707 0.000747 0.856000
-0.031007 0.009768 0.844000
0.011846 -0.016237 0.879000
-0.035625 -0.009288 0.872000
-0.021029 -0.014756 0.877000
-0.016705 0.012849 0.841000
0.007505 -0.016960 0.879000
-0.025332 -0.015100 0.876000
-0.045348 -0.001018 0.859000
-0.041150 -0.012922 0.875000
0.018550 -0.007485 0.871000
-0.007665 -0.011134 0.876000
0.021678 0.005308 0.853000
0.025809 -0.002796 0.862000
0.015034 -0.023726 0.875000
-0.035468 0.004595 0.851000
-0.028111 -0.032702 0.884000
-0.050351 0.010023 0.866000
-0.034604 0.007711 0.847000
0.018935 0.003213 0.856000
0.030775 -0.031540 0.872000
0.048639 0.014121 0.877000
0.034639 -0.000312 0.861000
-0.006335 0.017390 0.843000
-0.014628 0.014233 0.841000
0.029368 0.030550 0.852000
-0.030133 0.017653 0.839000
0.023424 -0.012619 0.879000
0.008954 0.015692 0.845000
0.025449 -0.028735 0.874000
0.004961 -0.019448 0.877000
0.025830 0.030514 0.851000
-0.015958 -0.018345 0.876000
0.015103 -0.013342 0.879000
0.001995 0.015674 0.844000
0.004563 -0.031826 0.870000
0.010590 -0.006722 0.865000
-0.031169 0.019379 0.839000
0.020891 -0.013704 0.879000
0.043550 -0.000312 0.862000
0.007929 0.005968 0.847000
-0.011193 0.011144 0.843000
-0.018439 -0.021180 0.874000
-0.039438 0.008747 0.846000
-0.036782 0.005982 0.849000
0.034561 -0.010785 0.877000
0.007804 -0.008571 0.872000
0.038094 0.001457 0.859000
-0.017781 -0.016200 0.877000
-0.049706 0.001106 0.861000
0.018317 -0.020892 0.877000
-0.010847 -0.027561 0.871000
0.028767 0.000394 0.855000
0.010357 0.009443 0.846000
-0.027631 0.007014 0.847000
-0.033132 0.000394 0.854000
-0.024291 0.017674 0.840000
-0.011551 -0.029677 0.870000
0.021253 -0.013704 0.879000
0.023673 0.026249 0.849000
-0.039645 0.017737 0.843000
-0.018165 -0.002084 0.861000
-0.022931 -0.006023 0.867000
0.031822 0.003899 0.852000
-0.013778 -0.020845 0.875000
0.049112 0.003228 0.860000
-0.021032 0.007371 0.848000
-0.027637 -0.002076 0.858000
-0.005146 -0.018726 0.877000
-0.026680 0.003890 0.850000
-0.034972 0.000747 0.856000
-0.027283 0.007014 0.847000
0.034086 0.002156 0.856000
-0.014416 -0.028603 0.870000
0.017273 -0.014428 0.879000
0.015306 -0.006402 0.870000
-0.040153 -0.007468 0.869000
-0.012974 0.007702 0.846000
0.016912 -0.013704 0.879000
-0.017376 0.015254 0.840000
0.017495 -0.032617 0.872000
0.027423 0.000042 0.857000
0.003037 0.015674 0.844000
-0.025280 0.004940 0.850000
-0.017281 -0.007477 0.870000
0.025618 0.018105 0.844000
0.005823 0.010823 0.845000
0.015376 -0.009310 0.874000
0.018572 -0.030822 0.872000
-0.001172 -0.023339 0.874000
-0.008795 0.005613 0.846000
-0.038696 0.009084 0.845000
0.021602 0.029779 0.850000
-0.028752 0.015926 0.839000
-0.010486 0.011824 0.842000
0.028720 -0.027327 0.875000
0.020818 -0.000312 0.861000
0.034732 0.016407 0.846000
-0.043833 -0.004580 0.864000
-0.034255 0.007363 0.847000
0.024745 -0.001731 0.862000
-0.011180 -0.031432 0.869000
0.033955 -0.018066 0.880000
0.012098 0.009791 0.846000
0.012112 0.009106 0.847000
0.005816 0.014284 0.844000
0.015820 -0.001018 0.859000
-0.006896 -0.030035 0.870000
-0.024943 -0.011481 0.875000
-0.037103 -0.020797 0.873000
0.016399 -0.031862 0.871000
-0.035468 0.004245 0.851000
-0.008417 0.018084 0.843000
0.038350 0.008778 0.849000
0.013294 -0.017322 0.879000
-0.012277 0.007354 0.846000
-0.019362 -0.005310 0.867000
0.025455 -0.002441 0.862000
0.012490 0.005283 0.849000
0.022571 -0.008950 0.874000
-0.032283 -0.007468 0.869000
-0.016705 0.014579 0.841000
0.020504 0.008418 0.848000
-0.037305 0.008736 0.845000
0.015000 -0.008940 0.873000
-0.008025 -0.018705 0.876000
0.007454 -0.026187 0.873000
0.003847 -0.031468 0.870000
-0.024459 0.000396 0.858000
-0.002605 -0.026874 0.872000
-0.034469 -0.025380 0.870000
-0.018089 0.018733 0.841000
0.038040 -0.029814 0.874000
0.004186 -0.004591 0.866000
0.030916 -0.025916 0.876000
0.049762 0.004639 0.859000
-0.002251 -0.009669 0.874000
-0.028316 -0.006745 0.868000
0.037562 0.012940 0.847000
-0.011991 -0.017984 0.876000
-0.017122 -0.003860 0.862000
0.047308 0.009872 0.853000
-0.002608 -0.025109 0.873000
0.034278 -0.021302 0.879000
0.021084 -0.007853 0.872000
0.047673 -0.002452 0.866000
-0.032896 0.017998 0.839000
-0.032395 -0.022568 0.872000
-0.037334 -0.026097 0.870000
0.018995 0.018778 0.843000
-0.003656 -0.007799 0.866000
0.004972 -0.015875 0.879000
0.021052 0.014250 0.842000
0.037477 0.005308 0.853000
-0.032754 -0.022568 0.872000
-0.024983 0.012833 0.840000
0.028360 -0.026247 0.875000
0.002798 -0.016941 0.878000
-0.032205 0.018689 0.839000
0.027007 0.017758 0.844000
0.024701 -0.029061 0.873000
-0.038009 0.003553 0.853000
-0.005507 -0.012951 0.877000
-0.015830 -0.006753 0.869000
-0.034707 -0.006023 0.867000
-0.021525 0.015945 0.840000
-0.033241 0.015581 0.839000
0.004210 -0.029353 0.871000
0.022726 -0.016255 0.880000
-0.016903 -0.030716 0.869000
-0.024527 -0.009658 0.873000
-0.017261 -0.030716 0.869000
0.017607 0.014614 0.843000
0.025270 0.011505 0.844000
-0.008795 0.006309 0.846000
-0.047856 -0.005304 0.866000
-0.033052 0.010451 0.843000
0.028282 0.005646 0.851000
-0.038094 -0.023259 0.871000
0.040497 -0.002805 0.865000
0.044395 0.011951 0.851000
0.028415 0.000394 0.855000
-0.009055 -0.028277 0.871000
-0.015666 0.012503 0.841000
-0.002599 -0.031110 0.870000
0.012667 -0.004210 0.861000
-0.038879 0.018911 0.849000
-0.003920 0.005961 0.846000
-0.022808 -0.013297 0.876000
-0.034318 0.013179 0.840000
-0.026617 0.005277 0.848000
0.046011 0.004617 0.855000
-0.022294 -0.007835 0.870000
-0.045295 0.000749 0.858000
-0.048176 0.001457 0.859000
0.000630 -0.018025 0.878000
-0.038585 -0.000311 0.858000
0.041630 0.001810 0.859000
0.005592 -0.005640 0.863000
-0.012028 0.000744 0.853000
-0.047469 0.004639 0.859000
-0.031677 -0.009288 0.872000
-0.019181 -0.019044 0.875000
0.022161 -0.032617 0.872000
0.027544 -0.031181 0.872000
-0.010165 -0.010389 0.874000
-0.012897 0.015618 0.841000
0.001340 -0.031110 0.870000
-0.012253 -0.030359 0.869000
-0.002248 -0.026187 0.873000
0.005322 -0.012229 0.877000
0.040097 0.010175 0.849000
0.032144 -0.013358 0.880000
0.007385 -0.007078 0.865000
-0.018938 0.007720 0.848000
-0.033932 0.018343 0.839000
-0.029512 0.012156 0.841000
-0.017132 0.009432 0.845000
0.032905 -0.002796 0.862000
0.044108 -0.003165 0.866000
-0.023641 0.002854 0.854000
0.013985 -0.020170 0.877000
-0.039298 0.011491 0.843000
-0.023600 0.014562 0.840000
0.011805 0.003890 0.850000
-0.005064 -0.004930 0.863000
0.002420 -0.027233 0.872000
0.036424 0.005308 0.853000
0.027355 0.016021 0.844000
0.018974 -0.009310 0.874000
-0.010236 0.002491 0.850000
-0.022087 -0.011855 0.876000
0.026650 -0.021277 0.878000
0.028050 0.013937 0.844000
-0.048176 0.004285 0.859000
-0.013385 0.002841 0.850000
0.042591 0.002864 0.857000
-0.015429 0.007711 0.847000
0.026348 -0.015531 0.880000
0.037982 -0.014461 0.881000
-0.035608 0.019889 0.846000
-0.015132 -0.007477 0.870000
-0.033719 -0.003851 0.860000
-0.028178 0.000393 0.853000
0.023955 -0.031899 0.872000
0.022678 0.006697 0.851000
-0.011325 0.000744 0.853000
0.035685 -0.021639 0.878000
-0.001130 0.014961 0.843000
-0.049764 0.000043 0.862000
0.031276 -0.006017 0.866000
0.022339 -0.012619 0.879000
0.046770 0.004270 0.856000
-0.024195 -0.021180 0.874000
-0.046354 0.000749 0.858000
0.044159 -0.003882 0.867000
0.000991 -0.015495 0.878000
-0.042182 -0.017943 0.874000
0.037534 -0.021302 0.879000
0.020012 0.014250 0.842000
-0.017583 0.005639 0.850000
-0.006698 0.007345 0.845000
-0.007187 -0.005634 0.862000
0.009323 0.007363 0.847000
0.012513 -0.024086 0.875000
-0.032040 0.000393 0.853000
0.036224 -0.002449 0.865000
-0.003906 0.011491 0.843000
0.027735 0.018474 0.845000
0.020389 -0.029780 0.873000
0.030032 -0.003501 0.861000
0.001302 0.017083 0.845000
0.024372 0.027298 0.849000
0.025189 0.005308 0.853000
-0.016031 0.018755 0.842000
0.006023 -0.032692 0.874000
-0.010833 0.017023 0.842000
-0.044291 -0.005660 0.866000
-0.034187 0.001097 0.854000
-0.035666 -0.031936 0.873000
0.041469 -0.001023 0.863000
-0.012879 -0.006351 0.863000
-0.002251 -0.024418 0.874000
0.017174 0.001804 0.856000
0.030481 0.012895 0.844000
-0.024251 -0.014379 0.876000
-0.051658 0.001833 0.870000
0.000989 -0.020868 0.876000
0.034403 -0.030498 0.873000
-0.025298 0.016962 0.839000
0.026313 0.017063 0.844000
-0.016650 -0.000310 0.856000
-0.027747 -0.032702 0.884000
-0.000089 0.013226 0.843000
0.043746 0.006354 0.852000
0.036283 -0.027327 0.875000
-0.008034 -0.013673 0.877000
-0.017400 -0.012215 0.876000
0.002795 -0.018365 0.877000
-0.006350 0.007693 0.845000
-0.024288 0.004250 0.852000
-0.009805 0.017737 0.843000
-0.007321 -0.015495 0.878000
-0.030137 -0.027855 0.869000
0.021253 -0.019131 0.879000
-0.005288 0.013904 0.842000
0.013746 -0.004215 0.862000
-0.001900 -0.014050 0.878000
-0.004389 -0.030035 0.870000
0.006009 -0.029028 0.872000
0.002699 0.005271 0.847000
-0.038558 0.018062 0.842000
0.018721 -0.013342 0.879000
-0.048530 0.001103 0.859000
-0.025328 0.013871 0.840000
-0.020358 0.006332 0.849000
0.033576 0.005653 0.852000
0.005122 0.012200 0.844000
0.014017 -0.015875 0.879000
0.023214 0.019866 0.845000
0.042277 -0.002449 0.865000
0.020479 0.009106 0.847000
-0.041024 0.006339 0.850000
0.007910 0.013605 0.845000
0.020273 0.005308 0.853000
-0.039718 0.003899 0.852000
-0.040650 -0.021850 0.872000
0.032295 0.010488 0.846000
0.006398 -0.021950 0.876000
-0.017760 -0.018345 0.876000
-0.000436 0.014961 0.843000
-0.023063 -0.023285 0.872000
0.024537 -0.016617 0.880000
-0.016744 0.019125 0.843000
0.030902 0.019541 0.846000
0.003152 -0.020508 0.876000
-0.004709 -0.005285 0.863000
-0.040339 0.017390 0.843000
0.033478 -0.023419 0.877000
0.011792 0.005283 0.849000
0.015412 0.000042 0.856000
-0.030706 -0.012201 0.875000
0.000621 -0.007434 0.865000
0.010870 -0.002786 0.859000
-0.027370 0.014545 0.839000
-0.008386 -0.011855 0.876000
-0.026203 -0.028928 0.869000
0.026562 0.006003 0.852000
0.011406 -0.008940 0.873000
-0.005129 -0.023339 0.874000
-0.006959 -0.015857 0.878000
-0.020957 -0.021180 0.874000
0.017816 0.004957 0.853000
0.008964 0.009791 0.846000
0.010037 -0.015875 0.879000
-0.027602 -0.029609 0.868000
-0.030779 -0.002427 0.857000
-0.040430 -0.012561 0.875000
-0.037248 -0.028537 0.868000
0.004780 0.017083 0.845000
-0.023235 0.004601 0.852000
0.010761 -0.015151 0.879000
-0.034907 -0.021850 0.872000
0.031524 0.016021 0.844000
-0.035707 -0.019382 0.874000
0.015201 -0.004225 0.864000
-0.012912 0.017023 0.842000
-0.019496 -0.010018 0.873000
-0.018545 0.008747 0.846000
0.040187 -0.003522 0.866000
-0.010380 -0.005634 0.862000
-0.005507 -0.018726 0.877000
0.017936 -0.023392 0.876000
0.011833 -0.019109 0.878000
0.027935 -0.030139 0.873000
-0.049338 0.012889 0.867000
-0.021578 -0.027171 0.870000
-0.019613 0.007711 0.847000
0.036046 -0.022723 0.878000
0.033646 -0.032258 0.872000
0.010163 -0.003140 0.859000
-0.041773 0.005646 0.851000
0.003736 0.010475 0.845000
-0.023669 0.002154 0.855000
0.012139 -0.009310 0.874000
-0.021652 -0.022234 0.873000
-0.028997 -0.006023 0.867000
-0.005129 -0.010029 0.874000
-0.009107 -0.019066 0.876000
0.037130 -0.022000 0.878000
-0.014106 -0.009299 0.873000
0.019017 0.011505 0.844000
0.013905 0.005290 0.850000
-0.021975 0.009768 0.844000
-0.038166 0.017695 0.841000
-0.045099 -0.002084 0.861000
0.016550 -0.014066 0.879000
-0.028079 0.002841 0.850000
0.000630 -0.013327 0.878000
0.008964 0.016755 0.846000
0.020191 -0.015169 0.880000
0.023245 0.000750 0.859000
0.021424 0.016349 0.843000
0.025032 -0.007853 0.872000
-0.034867 -0.008919 0.871000
-0.047823 0.001457 0.859000
0.006186 0.005271 0.847000
0.026913 0.030550 0.852000
-0.003673 -0.030393 0.870000
0.018974 -0.027655 0.874000
0.023617 0.023399 0.847000
0.047043 0.000751 0.861000
-0.009446 0.014597 0.842000
-0.024972 -0.016542 0.876000
0.040988 0.005659 0.853000
0.034691 0.013258 0.845000
-0.008992 -0.007434 0.865000
0.015808 -0.011882 0.878000
0.009661 0.010140 0.846000
-0.019541 -0.019764 0.875000
-0.051064 -0.001739 0.866000
-0.014482 -0.032332 0.874000
-0.030384 0.005961 0.846000
0.022726 -0.015893 0.880000
0.021771 0.013573 0.843000
-0.014468 0.001094 0.852000
-0.034469 -0.026813 0.870000
0.014221 0.007720 0.848000
0.037214 0.014683 0.847000
-0.013448 0.000042 0.854000
0.030625 -0.022361 0.878000
-0.037334 -0.007835 0.870000
0.034200 -0.011146 0.877000
0.028198 -0.006760 0.870000
-0.048379 -0.007468 0.869000
0.030695 -0.013720 0.880000
-0.025600 0.005982 0.849000
0.020273 -0.004959 0.868000
0.025588 0.012879 0.843000
-0.030442 0.016942 0.838000
0.024537 -0.014806 0.880000
-0.038513 0.013195 0.841000
0.008541 -0.026217 0.874000
-0.003694 -0.010401 0.875000
-0.012350 0.001793 0.851000
0.028149 0.021656 0.847000
0.001350 -0.032766 0.876000
0.019693 -0.026936 0.874000
0.031084 0.006697 0.851000
-0.023909 0.004946 0.851000
0.007858 -0.018386 0.878000
-0.003563 0.010116 0.844000
0.008657 0.003191 0.850000
-0.005135 -0.020845 0.875000
0.045148 0.007757 0.852000
-0.011827 -0.006714 0.864000
0.017195 -0.024086 0.875000
0.044447 0.007055 0.852000
0.026581 -0.005291 0.864000
-0.039598 0.015290 0.842000
0.017273 -0.014066 0.879000
0.029402 0.001798 0.853000
0.014017 -0.014066 0.879000
0.028983 0.028063 0.851000
0.010021 0.008757 0.847000
0.017956 -0.011507 0.877000
0.010467 -0.000310 0.855000
-0.028820 0.011810 0.841000
0.011712 -0.007110 0.869000
0.031909 0.016735 0.845000
-0.033675 -0.031395 0.868000
0.035202 -0.009320 0.875000
0.025480 0.006347 0.851000
0.010737 -0.019809 0.877000
-0.016378 0.011478 0.842000
0.015654 0.005989 0.850000
-0.038181 -0.020078 0.873000
0.009261 -0.009310 0.874000
0.048497 0.015047 0.868000
-0.025389 0.011478 0.842000
-0.041631 -0.025022 0.870000
0.023589 0.022326 0.846000
-0.028349 -0.007468 0.869000
-0.027073 -0.019382 0.874000
0.043903 -0.004964 0.869000
0.015394 -0.025526 0.875000
0.004547 -0.008165 0.867000
-0.036508 -0.001018 0.859000
-0.011206 -0.027919 0.871000
0.007813 -0.026187 0.873000
0.003732 0.011852 0.844000
0.010492 -0.001369 0.857000
-0.040324 0.005989 0.850000
-0.014532 -0.015839 0.877000
0.018209 0.003209 0.855000
0.001353 -0.016941 0.878000
-0.040024 -0.010749 0.874000
0.011930 -0.003140 0.859000
-0.001479 0.011852 0.844000
0.003142 -0.009299 0.873000
0.015700 -0.032617 0.872000
0.009610 -0.027624 0.873000
0.034425 0.019215 0.847000
0.021927 -0.011146 0.877000
0.033996 0.014301 0.845000
0.022416 -0.004959 0.868000
-0.009660 -0.004210 0.861000
0.015304 0.006689 0.850000
0.016431 0.003206 0.854000
-0.037775 0.015254 0.840000
0.034482 -0.027327 0.875000
0.010369 0.008408 0.847000
-0.028414 -0.008561 0.871000
-0.010486 0.012171 0.842000
0.026593 0.003904 0.853000
-0.007045 0.007345 0.845000
-0.036260 -0.025380 0.870000
0.048497 0.016119 0.868000
-0.025332 -0.017623 0.876000
-0.008386 -0.011494 0.876000
-0.019385 -0.006388 0.868000
0.005328 -0.014050 0.878000
0.023678 -0.033089 0.875000
-0.022270 0.011131 0.842000
0.002040 -0.005996 0.863000
-0.017395 -0.000664 0.858000
-0.021005 -0.017984 0.876000
0.022465 0.012185 0.843000
0.023241 0.021282 0.846000
-0.020838 -0.030001 0.869000
0.004950 -0.032729 0.875000
0.021848 0.023023 0.846000
-0.003315 -0.031826 0.870000
0.005475 0.010475 0.845000
-0.010822 -0.031074 0.869000
-0.031532 -0.030324 0.868000
-0.052195 0.001840 0.873000
-0.028545 -0.018324 0.875000
0.029373 -0.029780 0.873000
0.019017 -0.024113 0.876000
-0.042470 0.000396 0.858000
0.034522 -0.025195 0.876000
-0.014383 0.006665 0.847000
0.015017 -0.027296 0.874000
0.013294 -0.018046 0.879000
-0.040430 -0.016883 0.875000
-0.027602 -0.031038 0.868000
0.034126 0.001453 0.857000
0.018822 -0.004239 0.867000
0.007223 0.016755 0.846000
-0.016572 0.003198 0.852000
-0.041036 -0.004942 0.865000
0.047012 0.013047 0.854000
-0.028152 -0.019742 0.874000
0.041894 0.009838 0.850000
0.018995 0.012879 0.843000
0.015872 0.017390 0.843000
0.032759 0.008079 0.849000
0.019759 0.023719 0.846000
-0.043372 -0.007468 0.869000
0.012785 -0.006753 0.869000
-0.012310 -0.024390 0.873000
0.035237 -0.003882 0.867000
-0.001530 -0.025827 0.873000
0.035307 0.000750 0.860000
-0.012989 0.005968 0.847000
-0.026839 0.009768 0.844000
-0.002967 -0.025827 0.873000
0.005495 0.004230 0.848000
-0.046762 0.000042 0.859000
0.013922 -0.028342 0.873000
-0.048940 0.004998 0.860000
0.028884 -0.017704 0.880000
0.013905 0.004240 0.850000
-0.036025 -0.020078 0.873000
-0.017679 -0.008929 0.872000
0.047363 0.012344 0.854000
0.027768 0.020934 0.846000
-0.027716 0.015235 0.839000
0.015286 0.007729 0.849000
-0.036618 -0.008193 0.870000
0.012764 0.016021 0.844000
0.008463 -0.007442 0.866000
-0.018503 -0.013312 0.877000
-0.001538 -0.017302 0.878000
0.036517 -0.007494 0.872000
0.048629 0.014267 0.864000
-0.021525 0.015254 0.840000
-0.022730 -0.009658 0.873000
0.017977 -0.012605 0.878000
-0.041822 0.004951 0.852000
0.014330 -0.021950 0.876000
0.031961 -0.026607 0.875000
0.024372 0.025900 0.849000
0.034640 -0.020578 0.879000
-0.036562 0.003899 0.852000
-0.000452 -0.024778 0.874000
0.016550 -0.033240 0.879000
0.041277 0.001457 0.859000
0.008646 0.003886 0.849000
0.006766 -0.019448 0.877000
-0.023337 0.010451 0.843000
-0.001177 -0.012966 0.878000
-0.005875 -0.015134 0.878000
-0.026334 0.014199 0.839000
-0.024580 0.005639 0.850000
0.030091 -0.030498 0.873000
0.021202 0.026567 0.848000
-0.024842 0.007711 0.847000
0.040356 -0.000667 0.862000
-0.015866 -0.026127 0.871000
0.026500 0.007389 0.850000
-0.038711 0.003553 0.853000
0.044465 -0.002809 0.866000
-0.022589 0.019079 0.841000
-0.033792 -0.024334 0.871000
-0.002176 0.010128 0.845000
-0.029721 -0.002779 0.857000
-0.007656 -0.020845 0.875000
0.037982 -0.016636 0.881000
0.007598 0.003886 0.849000
0.023264 -0.029420 0.873000
-0.020598 -0.021180 0.874000
0.003389 0.016388 0.845000
-0.038633 -0.006380 0.867000
-0.038121 0.015945 0.840000
-0.032705 0.010451 0.843000
-0.047823 0.004285 0.859000
-0.010536 0.007006 0.846000
0.028227 -0.003143 0.860000
-0.042173 0.005302 0.852000
-0.008826 -0.033066 0.884000
-0.046762 0.004285 0.859000
-0.005146 -0.012229 0.877000
-0.006912 -0.025798 0.872000
-0.005507 -0.017283 0.877000
-0.020315 -0.002086 0.862000
-0.023529 -0.014379 0.876000
-0.051771 0.014498 0.878000
0.036168 0.017124 0.847000
0.011085 -0.022671 0.876000
0.014363 -0.018386 0.878000
0.031419 -0.018791 0.880000
-0.027104 -0.017603 0.875000
0.037003 -0.027687 0.875000
-0.011772 -0.004205 0.860000
0.013189 0.006332 0.849000
0.010761 -0.016960 0.879000
0.002045 -0.004586 0.865000
-0.031096 -0.001719 0.856000
0.042741 0.001104 0.860000
-0.006935 -0.021205 0.875000
-0.019049 -0.006753 0.869000
0.038627 -0.006410 0.871000
0.041969 -0.003165 0.866000
0.004443 0.005620 0.847000
-0.007979 -0.028636 0.871000
0.031636 0.020261 0.847000
-0.012625 -0.029319 0.870000
0.028633 0.006697 0.851000
0.016681 -0.004953 0.867000
0.045481 -0.002449 0.865000
0.001995 0.015326 0.844000
-0.011219 -0.008571 0.872000
0.023673 0.007729 0.849000
-0.021936 -0.007477 0.870000
-0.028284 -0.005667 0.867000
0.034482 -0.027687 0.875000
0.002750 -0.005996 0.863000
0.027669 0.013920 0.843000
0.037956 0.015399 0.848000
-0.008043 -0.014411 0.878000
0.027217 -0.030139 0.873000
0.002000 0.007354 0.846000
-0.017542 0.007720 0.848000
0.028980 -0.007494 0.872000
0.047098 0.000043 0.862000
0.022590 0.000043 0.861000
-0.045242 0.003217 0.857000
0.019513 -0.003522 0.866000
0.003874 -0.021229 0.876000
0.017608 0.000042 0.860000
0.033993 -0.017361 0.881000
0.012127 0.005975 0.848000
-0.016397 0.010797 0.843000
-0.000454 -0.012229 0.877000
-0.025575 -0.009288 0.872000
0.019806 -0.017322 0.879000
-0.037061 -0.009288 0.872000
-0.000451 -0.026874 0.872000
-0.018842 -0.012215 0.876000
-0.030109 -0.003489 0.858000
-0.022448 -0.013657 0.876000
-0.012730 0.000744 0.853000
0.003497 -0.029028 0.872000
0.002348 0.007354 0.846000
-0.031852 0.003881 0.848000
-0.041823 -0.018303 0.874000
-0.037820 0.018387 0.841000
0.022261 -0.001022 0.862000
-0.029031 -0.006745 0.868000
0.015095 -0.001370 0.858000
-0.000812 -0.024058 0.874000
-0.033366 0.002494 0.851000
-0.019451 0.015599 0.840000
0.023424 -0.012981 0.879000
-0.037657 -0.002084 0.861000
0.027517 0.025201 0.849000
-0.032923 -0.031002 0.867000
0.033996 0.013605 0.845000
0.029963 0.008428 0.849000
-0.012989 0.007014 0.847000
0.009165 -0.007078 0.865000
0.033927 -0.006402 0.870000
0.000960 0.003191 0.850000
-0.022345 -0.024362 0.872000
-0.031118 0.004574 0.847000
0.002429 -0.032729 0.875000
0.034600 -0.021639 0.878000
0.023937 0.009791 0.846000
-0.018142 -0.016561 0.877000
-0.033075 -0.025051 0.871000
0.023853 0.015655 0.843000
-0.014974 0.015964 0.841000
-0.036029 0.001099 0.856000
-0.047934 -0.001729 0.861000
-0.009793 0.017023 0.842000
-0.011244 -0.010029 0.874000
-0.040609 0.001099 0.856000
-0.006920 -0.024031 0.873000
-0.040674 0.005639 0.850000
0.043752 -0.002809 0.866000
-0.037084 0.018019 0.840000
-0.037377 -0.023617 0.871000
-0.012352 -0.018345 0.876000
0.015525 0.014961 0.843000
-0.030824 0.018689 0.839000
0.018657 -0.023032 0.876000
-0.013763 -0.022260 0.874000
0.001995 0.016021 0.844000
-0.001891 -0.024418 0.874000
-0.022548 -0.005304 0.866000
0.017837 0.003557 0.854000
0.027615 -0.004575 0.863000
0.007385 -0.004229 0.865000
0.026660 0.017063 0.844000
-0.034747 -0.031395 0.868000
0.000954 0.008389 0.845000
-0.009458 0.017737 0.843000
-0.011471 -0.006714 0.864000
-0.010140 0.017369 0.842000
-0.040291 -0.009647 0.872000
-0.016641 -0.021540 0.874000
-0.011909 -0.030035 0.870000
0.019311 -0.028342 0.873000
0.022161 -0.007494 0.872000
0.011458 -0.020892 0.877000
0.033615 0.004957 0.853000
0.035882 -0.028735 0.874000
-0.002967 -0.024749 0.873000
-0.002228 -0.007078 0.865000
-0.012974 0.008050 0.846000
-0.025637 -0.002441 0.862000
-0.000808 -0.031468 0.870000
0.017254 -0.000311 0.860000
-0.022808 -0.017623 0.876000
0.047012 0.006369 0.854000
0.046603 -0.003165 0.866000
-0.033265 -0.015460 0.876000
-0.029265 -0.011121 0.875000
-0.034563 0.008399 0.846000
0.022406 0.004260 0.854000
0.009323 0.005968 0.847000
-0.008156 0.003198 0.852000
0.022468 -0.006402 0.870000
-0.009154 0.004922 0.847000
0.019525 0.006697 0.851000
-0.027925 -0.001015 0.856000
0.032371 0.021332 0.848000
-0.024443 -0.027529 0.870000
-0.021195 -0.028928 0.869000
0.019311 -0.008580 0.873000
0.002073 -0.019448 0.877000
0.034763 -0.031936 0.873000
0.042943 0.010537 0.850000
-0.033209 0.005968 0.847000
0.010369 0.007711 0.847000
-0.037128 0.018387 0.841000
-0.025130 -0.028570 0.869000
-0.011365 -0.001367 0.856000
0.033030 0.020610 0.847000
-0.032283 -0.027497 0.869000
0.020131 0.009106 0.847000
-0.028094 0.012488 0.840000
0.044510 0.001104 0.860000
-0.021871 0.014908 0.840000
-0.014645 0.012171 0.842000
-0.028711 0.003881 0.848000
-0.024608 0.017307 0.839000
0.037126 0.005659 0.853000
0.031398 0.025231 0.850000
-0.020339 -0.002799 0.863000
0.011469 0.002494 0.851000
-0.004414 -0.020845 0.875000
-0.038900 -0.010377 0.873000
-0.003345 -0.013689 0.878000
-0.035658 0.015926 0.839000
0.022301 0.029079 0.850000
-0.031641 -0.008919 0.871000
0.031472 0.028446 0.852000
-0.015526 -0.008929 0.872000
