0.028271 0.007780 0.895000
-0.007525 0.003228 0.860000
-0.005583 -0.038009 0.889000
-0.030356 -0.002069 0.855000
0.025352 0.004101 0.896000
-0.016945 -0.042081 0.890000
0.045697 -0.001788 0.890000
0.028457 0.044130 0.878000
0.024065 0.014465 0.876000
0.045065 0.002614 0.892000
-0.018545 -0.018407 0.879000
0.022389 0.012372 0.881000
0.013858 0.015422 0.869000
-0.045254 -0.026022 0.892000
0.020328 0.008796 0.886000
0.028639 0.008885 0.895000
-0.013188 -0.001019 0.860000
-0.020333 -0.032336 0.894000
0.027716 -0.016056 0.889000
0.010626 0.012189 0.868000
0.011725 0.009711 0.870000
0.022649 0.014121 0.877000
0.014608 -0.013923 0.893000
0.037003 0.031735 0.875000
0.024975 0.020453 0.870000
0.015801 0.032178 0.858000
0.044331 0.001880 0.892000
-0.027729 -0.021132 0.872000
0.006681 0.007528 0.866000
-0.022992 0.001804 0.856000
0.022210 0.030483 0.860000
-0.037746 -0.008052 0.855000
0.030850 0.000413 0.895000
0.020076 -0.017192 0.891000
-0.040522 -0.025224 0.877000
-0.036108 -0.027327 0.875000
0.000641 -0.013202 0.894000
-0.014025 -0.008531 0.868000
0.016757 -0.019737 0.890000
-0.018940 -0.007425 0.864000
0.010518 -0.028130 0.889000
-0.025667 -0.014876 0.863000
-0.022678 -0.025090 0.885000
-0.005413 0.001107 0.862000
-0.014062 -0.025316 0.893000
0.036416 0.006313 0.896000
0.032100 0.038671 0.869000
-0.025667 -0.015586 0.863000
0.019451 -0.004381 0.896000
-0.009316 -0.002086 0.862000
-0.026052 -0.016671 0.864000
0.042543 0.003720 0.893000
0.004162 0.013154 0.861000
-0.021029 -0.022336 0.877000
-0.004334 0.008528 0.859000
-0.009651 -0.031565 0.893000
0.003803 0.014555 0.860000
-0.013848 0.004980 0.857000
0.031445 -0.008757 0.891000
0.001683 0.035876 0.862000
-0.000827 -0.011312 0.890000
0.029426 0.032403 0.864000
0.027615 0.031655 0.863000
0.038954 0.005938 0.895000
0.019709 0.030094 0.859000
-0.014015 -0.039884 0.890000
-0.004334 0.012417 0.859000
-0.040656 -0.011598 0.857000
0.027797 0.045317 0.880000
-0.031859 -0.026668 0.877000
0.037172 0.026815 0.879000
-0.037790 -0.013346 0.856000
0.031673 0.024227 0.877000
-0.027073 -0.022260 0.874000
-0.010706 -0.041302 0.889000
0.013666 0.025791 0.857000
0.025333 0.023676 0.870000
-0.003277 0.015971 0.860000
-0.037432 -0.020227 0.864000
0.027292 0.030625 0.864000
-0.006350 -0.026449 0.894000
0.023299 0.032290 0.861000
-0.018125 -0.029760 0.894000
0.023036 -0.012806 0.892000
0.012375 -0.021959 0.891000
-0.003288 0.001819 0.863000
0.015292 -0.022301 0.890000
0.031044 -0.011312 0.890000
0.026340 -0.008400 0.892000
0.017555 0.014088 0.875000
0.001681 0.011737 0.861000
0.012111 0.008298 0.872000
-0.028442 -0.028304 0.883000
0.017057 0.018263 0.868000
0.003585 -0.011362 0.894000
0.021248 0.003356 0.894000
0.020443 -0.016458 0.891000
0.039041 0.011858 0.897000
0.011739 0.008647 0.871000
-0.011026 0.007450 0.857000
0.006874 -0.006190 0.891000
-0.021961 0.004275 0.857000
-0.029969 -0.006988 0.854000
-0.003042 -0.019479 0.895000
-0.018144 -0.003851 0.860000
-0.001542 -0.009374 0.880000
-0.012756 -0.013704 0.879000
-0.014046 -0.035568 0.892000
0.002478 -0.022008 0.893000
0.014272 -0.007323 0.895000
-0.010748 -0.004220 0.863000
0.046901 0.002981 0.892000
-0.011870 -0.029760 0.894000
0.013167 -0.005481 0.895000
-0.026683 -0.021875 0.873000
0.030939 0.016107 0.887000
-0.017459 -0.016960 0.879000
-0.005217 -0.038009 0.889000
0.012961 0.026849 0.857000
-0.028948 -0.008052 0.855000
-0.002300 -0.025684 0.893000
0.032692 0.003359 0.895000
-0.019466 -0.024809 0.888000
0.035041 0.024673 0.880000
0.016861 0.031118 0.858000
0.033055 0.019349 0.885000
0.024615 0.000782 0.896000
0.008375 0.027555 0.857000
-0.028931 -0.018114 0.865000
-0.002215 0.009245 0.860000
0.034941 0.011845 0.896000
-0.009252 -0.017905 0.890000
0.004870 0.033353 0.861000
-0.009190 -0.014146 0.884000
0.017332 0.009119 0.882000
0.019621 0.006980 0.887000
0.021302 0.012372 0.881000
0.009832 0.035125 0.861000
0.017085 -0.024809 0.888000
0.036172 -0.007282 0.890000
0.007351 0.034062 0.861000
0.013640 0.005103 0.878000
0.033060 0.011464 0.895000
0.023062 0.005925 0.893000
0.020144 -0.009155 0.894000
0.014389 0.025468 0.858000
-0.010061 -0.004942 0.865000
-0.031963 -0.022158 0.870000
-0.001544 -0.006483 0.881000
-0.045570 -0.025260 0.891000
0.018017 0.011271 0.880000
-0.013679 -0.034466 0.892000
0.019400 0.014121 0.877000
0.003798 0.015245 0.859000
-0.018183 -0.017684 0.879000
0.008698 -0.025231 0.890000
0.007670 0.026144 0.857000
0.028050 0.013567 0.888000
-0.003281 0.006776 0.861000
-0.009979 0.009577 0.858000
0.002109 -0.026022 0.892000
0.040473 0.011845 0.896000
-0.026045 -0.030291 0.888000
-0.020655 -0.040707 0.892000
-0.014591 -0.048643 0.903000
0.019365 -0.013540 0.892000
0.014193 -0.021934 0.890000
-0.001926 -0.012044 0.890000
-0.028206 -0.031352 0.887000
-0.017370 -0.036343 0.893000
-0.005614 -0.019825 0.894000
0.007750 0.008241 0.866000
-0.007813 -0.028624 0.893000
-0.027904 -0.032521 0.889000
-0.014553 0.004980 0.857000
0.013360 0.034731 0.860000
0.011550 0.026849 0.857000
0.035599 -0.012466 0.894000
0.028319 0.014978 0.885000
0.009544 0.009678 0.867000
0.028159 0.016342 0.880000
-0.003627 0.012770 0.859000
0.011325 -0.011375 0.895000
0.031883 0.012541 0.893000
0.002116 -0.017637 0.895000
-0.031852 -0.019583 0.867000
-0.030004 -0.002773 0.855000
0.039070 0.027964 0.881000
-0.025766 -0.032227 0.891000
-0.018608 -0.019922 0.882000
0.000641 -0.024581 0.893000
0.027871 0.008507 0.894000
0.031632 0.036042 0.866000
0.026377 0.025795 0.869000
-0.013589 -0.005285 0.863000
-0.019937 -0.005982 0.861000
0.013453 0.017151 0.866000
0.022771 -0.001431 0.896000
-0.001505 0.012063 0.859000
-0.018584 -0.006714 0.864000
-0.012436 -0.015203 0.882000
-0.013664 -0.036995 0.891000
-0.012140 -0.002792 0.861000
0.015482 0.008374 0.880000
0.032580 0.021461 0.882000
0.001356 -0.006476 0.880000
-0.001153 0.031191 0.860000
-0.008606 -0.001377 0.862000
0.019019 -0.010982 0.893000
0.025899 0.028168 0.865000
0.008097 0.011435 0.865000
0.015502 0.022722 0.861000
-0.029591 -0.022619 0.874000
-0.023808 -0.008099 0.860000
0.028911 -0.007666 0.892000
-0.003399 -0.035200 0.892000
0.014272 -0.008060 0.895000
-0.005602 -0.030061 0.892000
0.001322 0.023349 0.858000
0.023325 -0.018251 0.889000
-0.031779 -0.018470 0.865000
-0.035885 -0.018385 0.861000
-0.025517 -0.020367 0.870000
-0.031246 -0.021442 0.870000
0.000273 -0.015042 0.894000
-0.000798 0.014184 0.859000
-0.036338 -0.012626 0.855000
0.025664 0.007403 0.894000
0.018359 0.012344 0.879000
-0.020998 -0.028560 0.891000
-0.015549 -0.026816 0.894000
0.001005 -0.030726 0.890000
-0.003774 -0.017986 0.894000
0.003465 0.039515 0.864000
-0.025781 -0.003477 0.855000
0.043597 0.002981 0.892000
0.002747 0.008203 0.862000
0.020121 0.003352 0.893000
0.033759 0.013290 0.894000
-0.015668 -0.015893 0.880000
0.029409 0.005576 0.896000
-0.004334 0.013124 0.859000
-0.049182 -0.018638 0.890000
0.018120 0.007329 0.885000
0.008191 0.005085 0.875000
0.025973 0.008855 0.892000
0.008331 -0.025231 0.890000
0.024083 0.008469 0.890000
0.036366 0.027837 0.877000
-0.042215 -0.013762 0.860000
-0.026470 -0.032191 0.890000
-0.030320 -0.017026 0.864000
0.016508 0.029000 0.858000
-0.005514 -0.010798 0.878000
0.021616 -0.006947 0.894000
0.030916 0.040785 0.876000
0.007706 0.016344 0.861000
0.020770 0.031155 0.859000
0.019820 -0.001431 0.896000
0.028479 -0.012411 0.890000
-0.016653 -0.030496 0.894000
0.010139 0.027202 0.857000
0.027154 0.025137 0.871000
0.030528 0.036357 0.865000
-0.020678 -0.030462 0.893000
-0.028797 -0.013424 0.861000
0.002849 -0.011730 0.894000
-0.001565 -0.024581 0.893000
0.041948 0.010739 0.896000
0.016354 -0.025540 0.888000
-0.000831 -0.022033 0.894000
0.008079 0.039114 0.863000
0.008359 -0.019436 0.893000
0.008405 0.017387 0.860000
0.028575 -0.005101 0.893000
0.024844 -0.013158 0.891000
0.002384 0.014891 0.859000
0.016372 -0.024837 0.889000
-0.020053 -0.009581 0.866000
-0.015358 -0.018128 0.883000
-0.031023 -0.004879 0.854000
-0.042737 -0.023807 0.878000
0.026225 0.036315 0.864000
-0.022288 -0.003833 0.856000
0.041440 0.003352 0.893000
0.033593 0.023586 0.880000
-0.009963 -0.017499 0.888000
0.028847 0.028623 0.868000
0.017936 0.000780 0.894000
-0.010766 -0.023137 0.894000
0.020133 0.025587 0.862000
0.023508 0.001888 0.896000
0.031852 0.027678 0.872000
0.022236 0.029101 0.861000
-0.021293 -0.019000 0.873000
0.008414 0.034417 0.861000
0.027260 0.032365 0.863000
-0.011180 -0.008541 0.869000
-0.033523 -0.011571 0.855000
-0.031421 -0.032375 0.885000
-0.016806 -0.005647 0.864000
0.024560 0.023264 0.868000
0.015658 -0.022301 0.890000
-0.008190 -0.025713 0.894000
-0.007988 -0.008571 0.872000
0.030147 0.005576 0.896000
-0.004856 -0.014242 0.890000
0.034797 0.022213 0.883000
-0.008232 0.003228 0.860000
0.015676 0.001144 0.891000
-0.001188 0.031040 0.886000
0.023717 0.008103 0.890000
0.037229 -0.010201 0.889000
-0.023407 -0.026182 0.885000
-0.017021 -0.031232 0.894000
0.020260 0.010583 0.883000
0.002757 0.005027 0.865000
0.023983 0.016212 0.873000
-0.009626 0.010990 0.858000
-0.007404 -0.041256 0.888000
0.003095 0.031545 0.860000
0.004842 0.022590 0.856000
0.032980 0.020759 0.883000
-0.003281 0.007130 0.861000
0.002078 -0.005383 0.879000
-0.000802 0.037693 0.863000
0.014925 0.001143 0.890000
0.008405 0.033669 0.860000
-0.026868 -0.000662 0.856000
0.040104 0.010370 0.896000
0.043865 -0.003985 0.890000
0.046482 0.000411 0.891000
0.001747 -0.014690 0.895000
0.026090 0.003732 0.896000
-0.012819 0.010649 0.859000
-0.011450 -0.039151 0.890000
0.002406 0.004325 0.867000
0.018140 0.006608 0.886000
-0.001554 -0.040114 0.887000
-0.024402 0.001804 0.856000
-0.036806 -0.021343 0.866000
-0.002287 0.032572 0.888000
0.006133 -0.028162 0.890000
0.008032 0.029706 0.858000
-0.011121 -0.030094 0.893000
0.037523 0.008526 0.896000
-0.024864 -0.026911 0.885000
0.017690 0.022446 0.864000
-0.017749 0.006752 0.858000
-0.013826 -0.013327 0.878000
0.022618 0.007370 0.890000
-0.019407 -0.011402 0.869000
0.016446 -0.012085 0.893000
0.014741 0.008364 0.879000
-0.022600 -0.016034 0.868000
0.039114 0.026907 0.882000
0.004302 -0.007282 0.890000
-0.009651 -0.020906 0.893000
0.004673 -0.026726 0.891000
-0.018431 -0.041395 0.891000
0.013698 0.032215 0.859000
-0.040883 -0.023058 0.877000
-0.030672 -0.005582 0.854000
0.033023 0.013290 0.894000
-0.024084 -0.020009 0.870000
-0.011121 -0.022008 0.893000
0.022984 0.007736 0.890000
0.012858 0.007597 0.874000
0.027373 0.016305 0.878000
0.000641 -0.020561 0.894000
0.002465 -0.035408 0.888000
0.004157 0.031545 0.860000
0.027473 0.009600 0.893000
0.007992 -0.006572 0.893000
0.032777 0.032196 0.868000
-0.018224 -0.018812 0.881000
0.010958 0.015369 0.866000
-0.021810 -0.009926 0.865000
0.029512 0.014663 0.888000
-0.037822 -0.024031 0.873000
-0.021634 -0.025876 0.887000
-0.020655 -0.028592 0.892000
0.027934 0.002257 0.896000
0.031384 0.022474 0.879000
-0.006673 -0.040525 0.888000
0.012814 0.013307 0.871000
0.006874 -0.024159 0.891000
-0.017355 0.002508 0.856000
-0.024985 -0.016315 0.864000
-0.018861 -0.033808 0.894000
0.020460 0.014465 0.876000
0.014909 -0.025935 0.889000
0.002395 0.036983 0.863000
-0.008926 -0.027184 0.894000
0.024745 0.031973 0.862000
-0.014706 -0.007442 0.866000
0.013811 -0.025569 0.889000
-0.001197 -0.024581 0.893000
-0.020288 -0.038505 0.892000
0.032875 -0.010945 0.890000
0.003581 -0.022008 0.893000
-0.002225 0.002176 0.864000
0.014019 0.025791 0.857000
0.010316 0.006503 0.872000
0.009462 -0.017598 0.893000
-0.034538 -0.006636 0.854000
0.026346 0.026122 0.868000
-0.002569 0.009245 0.860000
0.009409 -0.030291 0.888000
0.037154 0.014058 0.896000
0.009081 0.026144 0.857000
0.006522 -0.019436 0.893000
0.006120 -0.032850 0.888000
-0.018105 -0.035975 0.893000
-0.011463 -0.036628 0.891000
0.020443 0.005178 0.891000
-0.025811 0.000747 0.856000
-0.022011 -0.020438 0.873000
-0.005539 -0.012662 0.882000
0.033466 0.007420 0.896000
-0.015219 -0.012201 0.875000
0.037564 0.011858 0.897000
0.010209 -0.015042 0.894000
-0.022782 -0.022285 0.875000
0.001376 -0.022376 0.893000
0.041579 0.010739 0.896000
-0.022148 -0.037445 0.893000
-0.001512 0.036273 0.863000
0.042495 0.001513 0.892000
0.027565 0.004470 0.896000
0.007249 -0.022351 0.892000
-0.018885 -0.018025 0.878000
0.029850 0.031052 0.866000
-0.022288 0.001804 0.856000
0.042862 0.001513 0.892000
0.004684 -0.021641 0.893000
-0.020310 -0.030829 0.893000
0.014724 0.008716 0.878000
0.016206 0.009823 0.880000
-0.019586 -0.018726 0.877000
0.005761 -0.000688 0.889000
0.030974 0.015394 0.888000
0.020810 -0.016825 0.891000
-0.006308 -0.041256 0.888000
0.040104 0.011476 0.896000
0.038824 -0.002526 0.892000
-0.013297 -0.038462 0.891000
-0.022364 -0.026607 0.887000
0.006980 0.030801 0.859000
-0.003028 -0.032227 0.891000
0.027442 -0.007666 0.892000
0.031183 0.011083 0.894000
0.036538 0.000414 0.899000
0.002747 0.036230 0.862000
-0.018348 -0.022956 0.887000
0.018284 -0.011350 0.893000
0.006681 0.007884 0.866000
-0.007404 -0.041621 0.888000
0.032532 0.029439 0.871000
0.024560 -0.005843 0.894000
0.030845 0.025583 0.874000
0.006492 -0.029228 0.889000
-0.020694 -0.007772 0.863000
-0.014747 -0.042448 0.890000
0.031044 -0.012411 0.890000
-0.024687 -0.017779 0.866000
0.032359 0.004101 0.896000
0.031622 0.003363 0.896000
-0.004344 0.016698 0.861000
-0.014030 -0.038462 0.891000
-0.015080 -0.007808 0.867000
0.007599 -0.025598 0.890000
0.024745 0.033747 0.862000
-0.033126 -0.018072 0.863000
0.009095 -0.018701 0.893000
-0.032378 -0.016632 0.862000
-0.020718 -0.008847 0.864000
-0.007287 -0.009669 0.874000
0.027987 0.014266 0.886000
0.033391 0.001516 0.894000
0.019157 0.021072 0.866000
-0.018452 -0.037770 0.892000
0.021422 0.009160 0.886000
0.011325 -0.008797 0.895000
-0.001930 -0.027124 0.892000
0.018955 -0.020469 0.890000
0.000264 0.003599 0.864000
0.017214 0.027234 0.858000
0.019040 -0.009523 0.894000
0.019732 0.034377 0.860000
-0.017331 -0.025626 0.891000
0.021129 -0.021544 0.889000
0.027014 -0.014975 0.890000
-0.014780 -0.035935 0.892000
0.025839 0.034852 0.863000
-0.038125 -0.031467 0.880000
0.032143 0.015063 0.890000
-0.026868 -0.006652 0.856000
0.010139 0.025791 0.857000
-0.023754 -0.020391 0.871000
0.031240 0.033152 0.865000
0.028880 0.027941 0.869000
0.009081 0.026849 0.857000
0.008359 -0.017598 0.893000
0.035599 0.015130 0.894000
0.032062 -0.015479 0.898000
0.005767 -0.027429 0.890000
-0.001542 -0.009011 0.880000
0.018150 0.017926 0.869000
0.016060 -0.015008 0.892000
-0.010351 -0.019004 0.890000
-0.008920 0.006046 0.858000
0.017214 0.027587 0.858000
0.005207 0.027940 0.858000
-0.013710 -0.026816 0.894000
-0.036407 -0.020962 0.865000
-0.010328 -0.017499 0.888000
0.014948 0.015798 0.870000
-0.002217 0.007130 0.861000
-0.004142 -0.018354 0.894000
-0.016598 -0.024893 0.891000
-0.003757 -0.013876 0.890000
-0.034025 -0.028833 0.877000
0.032359 0.008157 0.896000
0.011930 0.032215 0.859000
-0.001867 0.035917 0.863000
0.007257 -0.019436 0.893000
-0.000445 0.033353 0.861000
-0.016653 -0.030128 0.894000
0.002738 0.014891 0.859000
0.022352 0.004460 0.894000
0.023877 -0.000693 0.896000
-0.013142 0.005333 0.857000
-0.022422 -0.021925 0.875000
-0.013605 -0.006358 0.864000
0.012755 0.016458 0.867000
0.012770 -0.016128 0.893000
0.009483 -0.009165 0.895000
0.037397 0.000044 0.893000
0.008737 -0.015778 0.894000
-0.004082 -0.008296 0.881000
-0.002926 0.006776 0.861000
0.008238 -0.001043 0.880000
-0.031127 -0.033178 0.887000
0.002392 0.008203 0.862000
0.000264 0.034457 0.862000
0.003457 0.036585 0.862000
0.024246 0.002257 0.896000
0.016738 -0.024105 0.889000
-0.008816 -0.013767 0.883000
0.003944 -0.024921 0.892000
-0.019586 -0.019087 0.877000
0.000617 0.012785 0.860000
0.021616 0.003724 0.894000
0.019643 -0.022982 0.888000
0.013520 -0.002899 0.894000
0.016475 0.013368 0.875000
0.027534 0.007412 0.895000
-0.007171 0.001812 0.860000
0.016004 0.017568 0.869000
0.011223 0.031862 0.859000
-0.033915 -0.013346 0.856000
-0.006222 -0.010052 0.876000
-0.004133 -0.028225 0.892000
0.006665 0.040937 0.864000
0.044013 -0.005837 0.893000
-0.016213 -0.042448 0.890000
-0.009294 -0.022401 0.894000
0.028748 0.037781 0.865000
0.029212 -0.012777 0.890000
0.001325 0.030483 0.860000
-0.025089 -0.033402 0.893000
-0.035737 -0.021343 0.866000
-0.021244 -0.014655 0.871000
-0.019184 -0.003493 0.859000
0.003807 0.034417 0.861000
0.031669 0.031802 0.867000
-0.001507 0.010307 0.860000
-0.022364 -0.026241 0.887000
0.008022 0.021206 0.857000
0.033268 0.022525 0.881000
0.031240 0.033864 0.865000
-0.015549 -0.030496 0.894000
0.010957 -0.011375 0.895000
-0.015882 -0.025288 0.892000
0.007599 -0.026330 0.890000
-0.016670 0.004628 0.857000
0.005906 0.026849 0.857000
0.022391 0.019312 0.867000
0.033762 0.027053 0.875000
0.014909 -0.025203 0.889000
0.027105 -0.006204 0.893000
-0.024278 -0.023780 0.877000
0.010518 -0.027032 0.889000
0.027227 0.046668 0.885000
0.012844 0.010822 0.873000
0.037849 0.005201 0.895000
0.001741 -0.024554 0.892000
0.011658 0.016420 0.865000
0.006500 -0.026330 0.890000
0.029409 0.007420 0.896000
0.018295 0.026205 0.859000
-0.027697 -0.020749 0.871000
0.023623 0.016571 0.873000
-0.024459 -0.007374 0.858000
0.010541 -0.022326 0.891000
-0.040522 -0.025946 0.877000
-0.037042 -0.010867 0.855000
-0.019117 0.000747 0.856000
0.011917 0.029353 0.858000
0.030677 0.014330 0.890000
0.010920 -0.020148 0.892000
0.009095 -0.017598 0.893000
-0.008586 0.002520 0.860000
-0.041653 -0.025614 0.878000
0.021295 -0.000693 0.896000
-0.034660 -0.014419 0.857000
0.010844 0.024380 0.857000
-0.015917 -0.027184 0.894000
0.026377 0.025437 0.869000
0.032137 0.029763 0.870000
0.023736 0.027424 0.864000
0.007983 -0.021617 0.892000
-0.012974 -0.025345 0.894000
0.015130 0.023404 0.860000
0.036946 -0.005090 0.891000
0.025245 0.026449 0.867000
-0.028055 -0.011638 0.860000
0.007965 -0.004352 0.890000
0.021886 -0.017173 0.890000
0.016861 0.030765 0.858000
-0.000091 0.018073 0.859000
0.000641 -0.022033 0.894000
0.044331 0.001513 0.892000
0.005063 -0.016532 0.895000
0.029376 0.001518 0.895000
0.010945 -0.014674 0.894000
-0.015259 0.006039 0.857000
-0.014300 -0.004575 0.863000
-0.033132 -0.005230 0.854000
-0.013541 -0.016674 0.883000
0.033974 -0.008747 0.890000
0.039836 -0.006550 0.890000
0.016776 -0.018292 0.891000
0.038867 0.002249 0.893000
-0.002217 0.007839 0.861000
-0.021231 -0.001719 0.856000
0.025520 -0.018617 0.889000
0.025154 -0.016787 0.889000
-0.022992 0.002156 0.856000
-0.026232 -0.025730 0.882000
-0.010754 -0.021641 0.893000
-0.002664 -0.028592 0.892000
-0.015666 -0.001373 0.860000
0.017607 -0.003275 0.896000
-0.019139 0.005333 0.857000
0.020927 -0.003275 0.896000
-0.004142 -0.017250 0.894000
-0.031527 -0.034312 0.888000
-0.009065 -0.009647 0.872000
-0.023618 -0.033770 0.893000
0.025635 0.007762 0.893000
0.023744 -0.014258 0.891000
-0.014906 0.004628 0.857000
0.023759 0.013775 0.878000
0.016508 0.030059 0.858000
-0.015964 0.002511 0.857000
-0.037231 -0.028800 0.876000
-0.019924 -0.017984 0.876000
-0.029862 -0.028998 0.882000
0.004689 -0.017986 0.894000
0.027166 -0.002166 0.895000
-0.010694 -0.045276 0.888000
-0.022640 0.000042 0.856000
0.008738 0.029353 0.858000
0.005063 -0.011743 0.895000
0.007249 -0.021617 0.892000
0.037595 -0.009469 0.889000
-0.006448 0.009930 0.858000
-0.034503 -0.030743 0.880000
-0.037700 -0.019116 0.862000
-0.028414 -0.020749 0.871000
-0.034700 -0.015496 0.858000
-0.004687 0.011356 0.859000
0.027341 0.018813 0.877000
0.003084 0.020500 0.857000
0.018630 -0.015008 0.892000
-0.025875 -0.020725 0.870000
-0.019117 0.001099 0.856000
-0.005420 0.000043 0.863000
-0.038531 -0.031503 0.881000
0.008247 -0.002132 0.881000
0.002840 -0.027827 0.891000
0.027014 -0.013876 0.890000
0.014389 0.031825 0.858000
-0.039394 -0.027719 0.876000
0.007661 0.022590 0.856000
0.030884 0.035289 0.865000
0.027513 0.038760 0.871000
-0.034660 -0.014772 0.857000
0.008359 -0.018333 0.893000
-0.011445 -0.003505 0.862000
0.013438 0.018200 0.865000
0.005920 0.030094 0.859000
-0.037394 -0.007348 0.855000
0.032107 -0.012397 0.889000
0.019083 -0.002537 0.896000
-0.017882 -0.019196 0.882000
0.002109 -0.024554 0.892000
-0.032858 -0.012289 0.856000
-0.036029 -0.005242 0.856000
-0.020598 -0.017583 0.874000
-0.031205 -0.013392 0.859000
-0.022730 -0.026607 0.887000
0.018778 0.022116 0.865000
-0.016317 0.001806 0.857000
0.015484 0.035085 0.860000
-0.027892 -0.005236 0.855000
0.025182 0.009934 0.890000
0.010186 0.036188 0.861000
-0.000461 -0.028193 0.891000
0.009054 -0.028862 0.889000
-0.021677 -0.020821 0.874000
-0.031096 -0.010879 0.856000
0.034456 0.015113 0.893000
-0.036593 -0.030673 0.878000
0.002843 -0.026022 0.892000
0.019300 0.005898 0.889000
0.006147 -0.023452 0.892000
-0.027872 -0.031388 0.888000
-0.016560 -0.023373 0.889000
0.012270 0.022290 0.858000
0.021543 -0.014991 0.891000
-0.001192 -0.035814 0.889000
0.034379 -0.008024 0.891000
-0.030811 -0.026698 0.878000
0.040568 -0.005817 0.890000
0.023482 0.004465 0.895000
-0.015704 -0.017744 0.882000
0.013593 0.010127 0.875000
-0.033132 -0.005582 0.854000
-0.010710 -0.000311 0.860000
0.008698 -0.003985 0.890000
0.003106 0.039114 0.863000
0.001371 -0.031092 0.890000
0.034203 0.005576 0.896000
0.029205 0.028623 0.868000
-0.023617 -0.016709 0.866000
0.033835 0.008526 0.896000
-0.035613 -0.019493 0.863000
0.007411 0.006473 0.868000
-0.020386 -0.008858 0.865000
0.012255 0.028966 0.857000
0.009044 -0.031753 0.888000
-0.038356 -0.029916 0.877000
0.023407 0.026388 0.865000
0.018337 0.025203 0.861000
0.005947 0.009988 0.863000
0.031741 -0.013494 0.889000
0.007974 -0.004723 0.891000
0.011550 0.028613 0.857000
-0.006696 -0.016825 0.891000
0.029040 0.005576 0.896000
-0.031763 -0.003477 0.855000
-0.023073 -0.007029 0.859000
-0.008117 -0.014178 0.886000
0.028326 0.034141 0.863000
-0.009232 -0.016768 0.888000
-0.005576 -0.041621 0.888000
0.002381 0.018406 0.858000
0.003449 0.013847 0.860000
0.010139 0.022617 0.857000
0.012699 0.000775 0.888000
0.010553 0.038004 0.862000
0.006889 -0.019803 0.893000
-0.043509 -0.023472 0.879000
-0.040883 -0.025224 0.877000
-0.001566 -0.016514 0.894000
-0.015276 0.000396 0.858000
0.008010 -0.012480 0.895000
-0.001859 0.014184 0.859000
-0.038365 -0.018739 0.861000
-0.038495 -0.012641 0.856000
-0.012549 -0.039151 0.890000
-0.019531 -0.027093 0.891000
-0.021702 -0.021565 0.875000
0.016042 -0.019759 0.891000
-0.030356 -0.004533 0.855000
-0.011077 -0.001021 0.861000
0.021153 -0.019004 0.890000
0.006858 -0.004713 0.889000
-0.022288 -0.002424 0.856000
0.017352 0.008402 0.883000
-0.041057 -0.012317 0.858000
0.003798 0.030448 0.859000
-0.014078 -0.030128 0.894000
-0.041605 -0.024863 0.877000
0.007377 0.010000 0.864000
-0.015864 -0.038462 0.891000
-0.001540 -0.006830 0.879000
0.013218 0.009756 0.874000
0.022402 0.001888 0.896000
-0.022444 -0.008472 0.862000
-0.036397 -0.032628 0.882000
-0.007691 -0.012981 0.879000
-0.008126 -0.045225 0.887000
0.011300 -0.016863 0.893000
0.043865 -0.004352 0.890000
-0.001945 -0.041767 0.899000
0.017920 0.028646 0.858000
0.031348 0.030052 0.868000
0.007741 0.010723 0.865000
0.023139 0.001151 0.896000
0.021877 0.014809 0.875000
0.043548 0.000044 0.891000
0.020506 0.013775 0.878000
0.020030 0.015853 0.873000
-0.025811 0.001099 0.856000
-0.027935 -0.032924 0.890000
0.035073 -0.008747 0.890000
-0.015611 0.004980 0.857000
-0.017718 -0.038872 0.892000
-0.001867 0.037338 0.863000
0.008378 -0.011375 0.895000
-0.010030 -0.022769 0.894000
0.017123 0.002974 0.890000
-0.005989 -0.022794 0.895000
-0.012553 -0.006366 0.865000
-0.029929 -0.000668 0.863000
0.044598 -0.002520 0.890000
-0.027088 -0.014520 0.863000
-0.021659 -0.005968 0.859000
-0.035268 -0.031866 0.881000
-0.029895 -0.015213 0.862000
0.041165 0.008148 0.895000
0.030515 0.005945 0.896000
0.032728 0.018277 0.886000
0.030869 0.017892 0.885000
0.018284 -0.012452 0.893000
0.017142 0.002244 0.891000
-0.002926 0.005358 0.861000
-0.041291 -0.027421 0.878000
0.025779 0.018727 0.873000
0.015378 -0.009533 0.895000
0.016832 -0.010627 0.894000
0.000642 -0.019111 0.895000
-0.019229 -0.034911 0.894000
-0.024373 -0.003477 0.855000
0.001007 -0.010970 0.892000
-0.019186 -0.027491 0.892000
0.042862 0.001145 0.892000
-0.004147 -0.019848 0.895000
-0.008586 0.000396 0.860000
0.036210 0.024003 0.882000
0.034842 0.028134 0.875000
0.037313 -0.006190 0.891000
0.006273 0.031508 0.859000
0.045065 0.002247 0.892000
0.035310 0.011845 0.896000
-0.028948 -0.003829 0.855000
-0.000804 0.002179 0.865000
0.008871 0.005779 0.871000
0.019355 0.032215 0.859000
-0.008263 -0.031511 0.902000
-0.036197 -0.018009 0.860000
0.013490 -0.017211 0.892000
0.039657 0.025570 0.886000
-0.026746 -0.030257 0.887000
0.000618 0.005719 0.862000
0.011249 -0.001054 0.889000
0.007151 -0.000681 0.880000
0.037088 0.028559 0.877000
0.031009 0.015046 0.889000
-0.037188 -0.027327 0.875000
0.009483 -0.009902 0.895000
-0.003999 0.001108 0.863000
0.020226 0.021429 0.866000
0.011694 -0.007691 0.895000
0.025147 0.015186 0.876000
0.041901 0.007780 0.895000
0.008830 0.008250 0.867000
0.027341 0.019174 0.877000
0.019083 -0.001800 0.896000
-0.000446 0.006074 0.862000
-0.011077 -0.002084 0.861000
-0.023449 -0.021516 0.873000
0.044381 0.005925 0.893000
-0.023592 -0.031162 0.892000
-0.000445 0.006776 0.861000
0.022352 -0.007315 0.894000
0.016587 0.009471 0.881000
0.013021 0.020950 0.861000
0.006989 0.031899 0.860000
-0.014078 -0.028656 0.894000
-0.011193 -0.009267 0.870000
0.004181 0.006451 0.865000
0.004658 -0.033946 0.888000
0.008727 -0.017230 0.893000
-0.019541 -0.015443 0.875000
-0.023019 0.002864 0.857000
-0.013864 0.007811 0.858000
-0.011870 -0.025713 0.894000
0.026528 0.021627 0.874000
0.026090 0.002626 0.896000
0.008972 0.003670 0.881000
0.030311 -0.012044 0.890000
-0.018819 -0.027124 0.892000
-0.037634 -0.029916 0.877000
0.024532 0.025735 0.867000
0.000969 0.019818 0.858000
0.029180 0.041601 0.878000
0.031991 0.009632 0.896000
0.026311 -0.013158 0.891000
-0.009242 -0.017519 0.889000
-0.042014 -0.025252 0.878000
0.001010 -0.019111 0.895000
-0.018861 -0.030496 0.894000
0.009105 -0.007315 0.894000
-0.016488 -0.007086 0.866000
0.003958 -0.014690 0.895000
0.022466 0.011686 0.884000
0.020203 0.023540 0.865000
-0.031570 -0.028175 0.879000
0.008434 0.039469 0.863000
0.034707 -0.008381 0.890000
-0.012959 -0.024214 0.893000
0.026370 -0.006572 0.893000
0.005579 0.014926 0.861000
0.043133 -0.003985 0.890000
-0.015846 -0.041715 0.890000
-0.019117 0.003565 0.856000
-0.020284 -0.020508 0.876000
0.009832 0.036897 0.861000
0.021084 0.016552 0.872000
0.023430 -0.009880 0.893000
-0.004878 -0.024609 0.894000
-0.035406 -0.016202 0.858000
0.002846 -0.010615 0.893000
-0.000444 0.017013 0.859000
0.022302 -0.012071 0.892000
-0.035012 -0.014772 0.857000
-0.002664 -0.027858 0.892000
0.014641 -0.007323 0.895000
0.033608 -0.013509 0.890000
-0.015114 -0.042081 0.890000
0.014575 -0.018659 0.891000
0.002104 -0.029993 0.890000
-0.014570 0.008518 0.858000
0.005040 -0.025260 0.891000
0.014707 0.010150 0.877000
-0.005942 -0.040159 0.888000
0.015930 0.019980 0.865000
-0.036190 -0.029194 0.877000
0.009444 0.029000 0.858000
-0.018292 -0.008521 0.867000
0.007679 0.029000 0.858000
0.021229 0.013775 0.878000
0.008322 -0.030325 0.889000
0.010026 0.001850 0.878000
-0.041009 -0.011598 0.857000
-0.025781 -0.000662 0.855000
-0.012142 -0.018575 0.887000
0.029778 0.007789 0.896000
0.021640 0.001886 0.895000
-0.000455 -0.008287 0.880000
-0.038855 -0.022926 0.872000
0.004526 0.008567 0.863000
0.012756 -0.001792 0.892000
0.032457 0.037955 0.869000
-0.014714 -0.047104 0.888000
-0.005748 0.014538 0.859000
0.033835 0.004838 0.896000
0.003949 -0.020906 0.893000
0.026967 0.028880 0.865000
-0.039709 -0.022645 0.875000
-0.031169 -0.012671 0.858000
-0.018786 -0.002074 0.857000
0.027734 0.018112 0.878000
-0.015165 -0.033035 0.893000
-0.011856 -0.022376 0.893000
0.018345 -0.005119 0.896000
0.011406 0.006511 0.873000
-0.022123 -0.029694 0.892000
0.020464 0.034417 0.861000
0.004316 -0.020171 0.893000
0.032179 -0.009491 0.891000
-0.032885 -0.019561 0.866000
-0.009294 -0.022033 0.894000
0.006964 0.026497 0.857000
0.019847 0.022472 0.865000
0.004526 0.007857 0.863000
-0.008567 0.009577 0.858000
-0.014217 0.008165 0.858000
0.024928 -0.005475 0.894000
0.045799 0.002247 0.892000
-0.031101 -0.025555 0.876000
0.011380 0.008288 0.871000
-0.001861 0.009245 0.860000
-0.029300 -0.005236 0.855000
-0.006094 0.012049 0.858000
0.008698 -0.025598 0.890000
0.001373 -0.027093 0.891000
0.002028 0.027234 0.858000
0.029545 -0.015690 0.889000
0.011123 0.001491 0.879000
0.019135 0.022472 0.865000
0.033554 0.024283 0.879000
0.010163 -0.025964 0.890000
-0.021935 -0.001015 0.856000
0.008010 -0.033845 0.895000
0.001675 0.016640 0.858000
-0.042375 -0.025252 0.878000
-0.035571 -0.018761 0.862000
-0.040976 -0.028899 0.879000
0.018589 -0.018638 0.890000
-0.005989 -0.022426 0.895000
-0.032467 -0.010163 0.855000
-0.028088 -0.021132 0.872000
0.028145 -0.011691 0.891000
-0.005158 -0.011534 0.879000
-0.023422 -0.021132 0.872000
0.027971 0.032010 0.863000
-0.041463 -0.019022 0.874000
-0.031568 -0.020702 0.869000
0.002033 0.030483 0.860000
-0.004715 -0.000313 0.864000
-0.011051 0.011002 0.859000
0.004137 0.021533 0.856000
-0.023433 -0.026941 0.886000
-0.018105 -0.028624 0.893000
0.003569 -0.028162 0.890000
0.028359 0.035959 0.864000
0.017796 0.005885 0.887000
0.001368 -0.037967 0.888000
0.025721 0.003732 0.896000
0.009134 0.038359 0.862000
0.015466 0.033630 0.859000
-0.018085 -0.037770 0.892000
0.026984 0.044683 0.889000
-0.015165 -0.025684 0.893000
0.010663 0.007571 0.871000
0.022669 0.005918 0.892000
0.009112 0.034377 0.860000
-0.010429 -0.006017 0.866000
0.010932 -0.016128 0.893000
-0.022063 -0.007399 0.861000
0.023850 -0.004008 0.895000
0.016900 0.024820 0.860000
0.025333 0.023318 0.870000
-0.009991 0.003224 0.859000
-0.015515 -0.024921 0.892000
0.043694 0.005931 0.894000
0.005395 -0.029960 0.889000
0.019491 0.021760 0.865000
-0.019225 -0.017283 0.877000
0.024138 -0.012071 0.892000
0.030147 0.003363 0.896000
-0.001865 0.004300 0.862000
0.013064 0.001140 0.888000
0.023062 -0.010247 0.893000
0.023139 -0.000325 0.896000
0.026195 0.034852 0.863000
0.021881 0.033708 0.861000
0.023326 0.034457 0.862000
0.042270 0.009253 0.895000
0.022352 -0.006947 0.894000
0.037523 0.013689 0.896000
0.043548 -0.001790 0.891000
-0.022288 -0.003129 0.856000
0.026950 0.018431 0.876000
-0.013142 0.003922 0.857000
-0.040137 -0.017676 0.861000
0.019046 0.025912 0.861000
0.007599 -0.027795 0.890000
0.011098 0.003292 0.877000
0.004490 0.021181 0.856000
0.010553 -0.018680 0.892000
0.041761 0.000411 0.892000
0.016173 0.033983 0.859000
0.015728 -0.001428 0.894000
-0.011134 -0.024977 0.894000
0.005057 -0.019089 0.894000
0.007265 -0.008787 0.894000
0.000269 -0.007563 0.880000
0.013094 -0.022667 0.890000
0.017976 -0.004750 0.896000
0.028846 0.012865 0.890000
0.023051 0.025676 0.865000
0.006288 0.015281 0.861000
0.023824 -0.004739 0.894000
-0.032973 -0.015160 0.859000
-0.010002 0.001458 0.860000
-0.015983 0.007458 0.858000
-0.014349 -0.047104 0.888000
0.005034 -0.029627 0.890000
-0.003627 0.010295 0.859000
0.025573 0.027488 0.866000
-0.007039 -0.042352 0.888000
-0.012819 0.001457 0.859000
0.027217 0.023398 0.873000
-0.042858 -0.028464 0.888000
0.037891 0.013320 0.896000
0.027442 0.009957 0.892000
-0.040883 -0.024141 0.877000
-0.002664 -0.013907 0.892000
0.007351 0.035834 0.861000
-0.010344 0.003578 0.859000
-0.028948 -0.003477 0.855000
0.010541 -0.023426 0.891000
-0.037892 -0.033028 0.883000
-0.000461 -0.028927 0.891000
0.016060 -0.015375 0.892000
-0.018864 -0.016922 0.877000
-0.012849 -0.002792 0.861000
-0.026595 -0.026457 0.882000
0.021177 -0.016458 0.891000
-0.015341 -0.017018 0.882000
0.001009 -0.013938 0.894000
-0.038149 -0.035082 0.889000
0.027778 -0.012424 0.891000
-0.039574 -0.030743 0.880000
0.009455 0.032215 0.859000
-0.012535 -0.043498 0.889000
-0.027050 -0.028732 0.885000
-0.023046 -0.005961 0.858000
0.002104 -0.031458 0.890000
0.041808 0.002617 0.893000
0.019408 -0.008419 0.894000
0.039514 -0.003990 0.891000
0.021271 0.024608 0.865000
-0.008190 -0.024241 0.894000
0.029245 -0.010958 0.891000
-0.030672 -0.007691 0.854000
-0.032543 -0.012656 0.857000
0.034572 0.009264 0.896000
0.030379 -0.006931 0.892000
-0.008926 -0.022769 0.894000
0.010234 0.015708 0.865000
-0.029652 -0.003477 0.855000
0.005934 0.035125 0.861000
-0.017002 -0.027522 0.893000
-0.000091 0.012770 0.859000
-0.038544 -0.020250 0.865000
0.013714 0.034377 0.860000
0.034044 0.029147 0.873000
-0.022491 -0.030061 0.892000
0.021200 -0.012071 0.892000
0.008590 0.001491 0.879000
0.023062 -0.008409 0.893000
0.021295 -0.003275 0.896000
0.008727 -0.005469 0.893000
0.006665 0.012133 0.864000
-0.004495 -0.014991 0.891000
0.003457 0.010331 0.862000
0.017162 -0.014641 0.892000
0.024758 0.015889 0.875000
0.007624 -0.020171 0.893000
0.022944 0.031936 0.861000
0.022745 -0.004745 0.895000
0.005709 -0.004308 0.881000
-0.016616 -0.036302 0.892000
0.000970 0.014184 0.859000
-0.026732 -0.016296 0.863000
0.033927 0.031196 0.870000
-0.014621 -0.002438 0.861000
0.037071 0.001516 0.894000
-0.023277 -0.035279 0.894000
-0.017281 -0.009983 0.870000
-0.016393 -0.003147 0.861000
0.004137 0.023295 0.856000
0.021552 0.027006 0.862000
0.024203 0.021121 0.868000
0.022494 0.016892 0.871000
-0.012437 0.005686 0.857000
0.027044 -0.012424 0.891000
0.035967 0.001884 0.894000
0.010492 0.027555 0.857000
-0.009597 -0.044180 0.888000
-0.035067 -0.028079 0.876000
0.037071 0.001884 0.894000
-0.013204 -0.002438 0.861000
-0.027761 -0.021875 0.873000
0.017274 0.024140 0.861000
0.004978 -0.001767 0.880000
0.002392 0.009622 0.862000
0.026109 0.022654 0.872000
-0.012606 -0.028656 0.894000
0.001328 0.035521 0.862000
0.012347 -0.025935 0.889000
0.040568 -0.004352 0.890000
-0.008896 -0.018292 0.891000
0.010957 -0.012112 0.895000
-0.004440 -0.011547 0.880000
0.010257 0.011462 0.867000
-0.026836 -0.002773 0.855000
-0.004495 -0.030760 0.891000
-0.004339 0.007830 0.860000
0.005920 0.030448 0.859000
-0.003406 -0.017986 0.894000
-0.005246 -0.018354 0.894000
-0.021231 -0.001015 0.856000
-0.025811 -0.006299 0.856000
-0.033165 -0.018804 0.864000
-0.009662 -0.022769 0.894000
0.018672 -0.008787 0.894000
-0.011109 -0.035200 0.892000
0.035121 0.023640 0.882000
-0.014859 -0.012201 0.875000
-0.001559 0.031546 0.890000
-0.002566 0.011002 0.859000
0.030765 0.020009 0.882000
0.015693 -0.016477 0.892000
0.020487 0.025942 0.862000
-0.029599 -0.030553 0.885000
-0.012183 -0.020103 0.890000
0.003210 -0.025288 0.892000
0.027934 0.001888 0.896000
-0.040656 -0.012303 0.857000
-0.001197 -0.013923 0.893000
0.020466 -0.013540 0.892000
-0.023592 -0.031529 0.892000
0.030311 -0.011678 0.890000
0.029376 0.000044 0.895000
0.008444 0.014623 0.864000
0.010423 0.000044 0.881000
0.021652 0.020716 0.866000
-0.038143 -0.020227 0.864000
0.009775 -0.031022 0.888000
0.015292 -0.022667 0.890000
-0.039921 -0.019160 0.864000
0.044331 0.002981 0.892000
0.026771 0.044694 0.882000
0.013873 -0.015760 0.893000
-0.017728 0.000748 0.857000
-0.014090 -0.010724 0.872000
-0.025456 -0.034137 0.893000
0.035162 0.029181 0.874000
-0.031448 -0.011584 0.856000
-0.016249 -0.037036 0.892000
-0.003762 -0.031494 0.891000
-0.019474 -0.013236 0.872000
0.028607 -0.002164 0.894000
0.031586 0.010358 0.895000
-0.025845 -0.019986 0.869000
0.010844 0.026144 0.857000
0.019710 -0.024526 0.891000
0.024231 0.019714 0.869000
0.031854 0.020735 0.882000
-0.015010 -0.004930 0.863000
-0.008367 -0.010389 0.874000
0.034902 0.001149 0.895000
0.006295 0.036230 0.862000
0.026797 -0.000324 0.895000
-0.025171 -0.026123 0.883000
0.029816 0.031372 0.865000
-0.026485 -0.001365 0.855000
0.026163 0.045626 0.886000
0.015448 0.030412 0.858000
0.018976 -0.016825 0.891000
0.008522 0.004709 0.872000
-0.029334 -0.032484 0.888000
0.039469 -0.006916 0.890000
0.013037 0.019910 0.862000
-0.013864 0.001808 0.858000
0.025262 0.013082 0.880000
-0.035944 -0.008042 0.854000
-0.006300 -0.043035 0.887000
0.007360 0.038359 0.862000
0.036785 0.009632 0.896000
0.027044 -0.010591 0.891000
-0.033831 -0.024362 0.872000
-0.038945 -0.023339 0.874000
0.012062 -0.010270 0.895000
0.019776 0.002252 0.894000
0.013888 -0.013202 0.894000
0.018484 0.008057 0.885000
0.029376 0.008517 0.895000
0.000974 0.036983 0.863000
0.006905 -0.015059 0.895000
0.013593 0.008686 0.875000
-0.004500 -0.029694 0.892000
0.017836 -0.021910 0.889000
-0.032258 -0.035408 0.888000
0.022971 0.028070 0.862000
-0.020099 -0.010675 0.868000
-0.017737 -0.035975 0.893000
0.005592 0.010343 0.863000
0.021105 -0.022251 0.888000
0.007351 0.034417 0.861000
-0.015114 -0.022667 0.890000
0.023010 -0.015358 0.891000
0.037449 0.028920 0.877000
-0.025448 -0.024586 0.880000
-0.002923 0.017033 0.860000
-0.048092 -0.023215 0.897000
-0.003353 0.000043 0.880000
-0.040799 -0.016594 0.860000
-0.004878 -0.025713 0.894000
0.026169 0.018389 0.874000
-0.015900 -0.026419 0.893000
0.016795 -0.016110 0.892000
0.005419 -0.021273 0.893000
-0.016598 -0.039928 0.891000
0.021984 -0.005843 0.894000
0.010541 0.018470 0.861000
-0.015917 -0.027552 0.894000
0.002109 -0.024187 0.892000
0.008331 -0.026330 0.890000
-0.000825 -0.036505 0.888000
-0.005064 0.000398 0.863000
0.019688 -0.019370 0.890000
0.026400 -0.005107 0.894000
-0.021231 0.001099 0.856000
-0.010019 -0.029727 0.893000
0.018974 0.015511 0.874000
-0.038450 -0.011219 0.855000
0.024138 0.007387 0.892000
0.005057 -0.016882 0.894000
-0.031314 -0.030087 0.882000
-0.019943 -0.036343 0.893000
-0.003021 -0.035814 0.889000
0.014641 -0.005850 0.895000
0.002101 -0.008372 0.889000
0.003098 0.013154 0.861000
-0.009381 -0.006388 0.868000
-0.020333 -0.034176 0.894000
-0.014267 -0.002438 0.861000
0.001005 -0.009480 0.890000
0.036047 0.008157 0.896000
0.031632 0.033191 0.866000
0.026195 0.035562 0.863000
-0.028316 -0.019606 0.868000
-0.007879 0.002520 0.860000
0.029911 -0.014592 0.889000
-0.001158 0.002532 0.864000
0.038175 0.002252 0.894000
-0.025136 -0.007365 0.857000
-0.018852 -0.003851 0.860000
0.003803 0.031191 0.860000
-0.027188 -0.006292 0.855000
-0.010332 0.007458 0.858000
0.008590 0.000043 0.879000
0.024138 0.007020 0.892000
0.042222 0.006299 0.894000
0.026459 0.000044 0.896000
0.040104 0.011108 0.896000
0.009144 0.040180 0.863000
0.025352 0.001519 0.896000
-0.032115 -0.003477 0.855000
0.015448 0.032178 0.858000
-0.024190 -0.027702 0.887000
0.032728 0.004470 0.896000
0.016719 -0.025906 0.888000
0.034109 0.020782 0.884000
0.030669 0.029014 0.869000
0.015306 0.016156 0.870000
0.004516 0.033353 0.861000
0.015183 0.021354 0.863000
0.027350 0.011753 0.889000
0.001322 0.018759 0.858000
0.025211 -0.013891 0.891000
0.008688 -0.028130 0.889000
-0.000799 0.031191 0.860000
0.016192 0.035085 0.860000
-0.020670 -0.007053 0.862000
-0.030004 -0.009459 0.855000
0.027310 0.019873 0.876000
0.021592 -0.010982 0.893000
0.023797 -0.007674 0.893000
0.002026 0.022617 0.857000
0.005954 0.040582 0.864000
0.019002 0.028326 0.859000
0.039159 0.026210 0.883000
-0.029004 -0.025252 0.878000
0.037523 0.009632 0.896000
0.035522 0.029181 0.874000
-0.001190 -0.038332 0.888000
0.015862 0.008383 0.881000
-0.025905 -0.021108 0.871000
0.007732 0.013911 0.864000
-0.032078 -0.007339 0.854000
0.026953 0.012470 0.888000
-0.034890 -0.008394 0.854000
-0.047867 -0.018554 0.886000
0.035559 0.015481 0.893000
0.024422 0.009557 0.889000
-0.011219 -0.010365 0.872000
-0.003032 -0.014641 0.892000
-0.028442 -0.013069 0.861000
0.031375 -0.014226 0.889000
0.031741 -0.013860 0.889000
-0.033971 -0.034196 0.885000
-0.000461 -0.029660 0.891000
-0.011671 -0.013342 0.879000
-0.020701 -0.033440 0.894000
0.033608 -0.008747 0.890000
-0.039200 -0.010879 0.856000
-0.021413 -0.031565 0.893000
0.016851 -0.002903 0.895000
-0.006935 -0.010041 0.875000
-0.006109 0.005706 0.860000
-0.012924 -0.007799 0.866000
0.042495 0.000778 0.892000
0.029040 0.006682 0.896000
0.031384 0.029729 0.869000
-0.023277 -0.036751 0.894000
0.001325 0.012785 0.860000
0.020121 -0.009880 0.893000
-0.008930 0.012770 0.859000
-0.002305 -0.021321 0.895000
0.037891 0.008157 0.896000
-0.032404 -0.036669 0.892000
0.032777 0.031481 0.868000
-0.013710 -0.027184 0.894000
-0.004485 -0.036912 0.889000
0.046482 0.001144 0.891000
-0.027715 -0.027577 0.883000
0.033495 0.018663 0.887000
0.021984 -0.008051 0.894000
-0.011485 -0.006010 0.865000
-0.009273 -0.019781 0.892000
0.029146 0.022423 0.877000
0.027323 0.038137 0.865000
0.037271 -0.008381 0.890000
-0.005935 -0.042305 0.887000
-0.037569 -0.017281 0.859000
-0.015532 -0.033770 0.893000
-0.026408 -0.016671 0.864000
0.029885 0.038582 0.867000
0.009091 0.028646 0.858000
0.022402 -0.000693 0.896000
0.034012 0.016180 0.891000
-0.022591 -0.039046 0.896000
0.046796 -0.001055 0.890000
0.029008 -0.000324 0.895000
0.028818 0.042685 0.878000
-0.018861 -0.033440 0.894000
0.000971 0.012077 0.860000
-0.000455 -0.006107 0.879000
0.024231 0.020430 0.869000
0.001741 -0.024921 0.892000
0.042543 0.003352 0.893000
0.011287 -0.018680 0.892000
-0.010165 -0.011108 0.874000
0.002734 0.016287 0.858000
-0.003277 0.008538 0.860000
-0.033875 -0.004884 0.855000
-0.027119 -0.017026 0.864000
-0.020621 -0.020484 0.875000
0.014543 -0.024471 0.889000
-0.009619 -0.037686 0.890000
0.042766 -0.005084 0.890000
-0.014381 -0.040616 0.890000
0.025484 0.034141 0.863000
-0.000798 0.015599 0.859000
0.003109 0.040226 0.864000
-0.016806 -0.006003 0.864000
0.014608 -0.014290 0.893000
-0.014797 -0.025684 0.893000
-0.017022 0.002159 0.857000
-0.020903 0.004275 0.857000
-0.026737 -0.034367 0.899000
-0.011059 -0.044545 0.888000
0.009095 -0.005837 0.893000
0.010870 0.032922 0.859000
-0.001558 -0.035448 0.889000
-0.011870 -0.023505 0.894000
0.031562 0.018963 0.884000
0.031218 0.010727 0.895000
-0.033365 -0.015532 0.860000
0.004882 0.008922 0.863000
-0.006455 0.014184 0.859000
-0.030225 -0.028998 0.882000
-0.024610 -0.029594 0.889000
0.006789 -0.002492 0.880000
0.037523 0.014058 0.896000
0.009488 0.017427 0.862000
0.001003 -0.036870 0.888000
0.045748 -0.000323 0.891000
0.017715 0.008766 0.883000
0.015801 0.025468 0.858000
0.020818 0.026620 0.861000
0.021326 0.012023 0.882000
0.031098 0.028364 0.871000
0.003949 -0.009512 0.893000
0.024844 0.008479 0.891000
-0.000094 -0.011324 0.891000
-0.033341 -0.028866 0.878000
-0.030692 -0.031646 0.885000
0.008434 0.040180 0.863000
0.041719 -0.008096 0.899000
0.025661 0.024722 0.869000
-0.018081 0.005686 0.857000
0.035152 0.016198 0.892000
-0.024049 -0.004890 0.856000
0.019709 0.028680 0.859000
0.012799 -0.004745 0.895000
-0.005982 -0.018721 0.894000
-0.007039 -0.041256 0.888000
0.039647 0.004828 0.894000
-0.030588 -0.029724 0.882000
-0.000463 -0.018374 0.895000
0.015009 -0.009902 0.895000
-0.015080 -0.046007 0.888000
-0.000095 -0.021665 0.894000
0.002379 0.025791 0.857000
0.009588 0.006137 0.871000
0.036375 0.014779 0.895000
-0.034307 -0.014067 0.857000
0.007624 -0.019803 0.893000
-0.033126 -0.017717 0.863000
-0.027197 -0.024168 0.878000
-0.001192 -0.034716 0.889000
0.034902 0.002623 0.895000
0.041901 0.008517 0.895000
-0.016504 -0.048058 0.906000
0.015728 -0.011362 0.894000
0.002734 0.017699 0.858000
0.003214 -0.010615 0.893000
0.026139 0.019446 0.873000
0.002035 0.012091 0.861000
-0.018700 -0.045348 0.904000
-0.009716 -0.005304 0.866000
-0.019674 -0.008146 0.865000
0.010139 0.026144 0.857000
-0.019537 -0.004200 0.859000
0.008718 0.025409 0.856000
0.014641 -0.007691 0.895000
0.011590 0.035085 0.860000
-0.000798 0.017366 0.859000
-0.009608 -0.041668 0.889000
0.020794 0.033315 0.860000
-0.008491 -0.044495 0.887000
0.024165 0.006292 0.893000
-0.042649 -0.031037 0.899000
-0.002302 -0.016514 0.894000
-0.017976 -0.009972 0.869000
0.003217 -0.011730 0.894000
-0.021171 -0.011746 0.868000
0.012608 0.028966 0.857000
0.005389 -0.032484 0.888000
0.003816 0.007502 0.863000
-0.013864 0.002161 0.858000
0.005034 -0.028894 0.890000
0.004658 -0.035043 0.888000
-0.030460 -0.019606 0.868000
-0.014062 -0.033770 0.893000
0.028035 0.029948 0.865000
0.015820 0.033630 0.859000
0.039602 0.002984 0.893000
-0.011084 -0.019737 0.890000
0.029212 -0.013509 0.890000
0.018161 0.005885 0.887000
0.044182 -0.004713 0.889000
0.015274 -0.023373 0.889000
-0.039394 -0.024474 0.876000
0.026429 0.007043 0.895000
0.024615 0.001519 0.896000
-0.009597 -0.017134 0.888000
0.006889 -0.019068 0.893000
-0.002566 0.011710 0.859000
-0.004344 0.005004 0.861000
-0.026224 -0.008433 0.858000
0.006897 -0.008787 0.894000
0.005799 -0.015796 0.895000
-0.014062 -0.032667 0.893000
-0.011790 -0.047469 0.888000
0.003585 -0.019089 0.894000
-0.005969 -0.030428 0.892000
0.035001 0.032986 0.870000
0.003441 0.016993 0.858000
0.025577 -0.012791 0.891000
0.021652 0.022498 0.866000
0.036416 0.013320 0.896000
0.038260 0.013689 0.896000
0.026222 0.012105 0.888000
0.017567 0.027234 0.858000
-0.006681 -0.014958 0.889000
0.023797 -0.008409 0.893000
-0.021413 -0.031932 0.893000
-0.024693 -0.032631 0.892000
0.007013 0.039114 0.863000
0.017568 -0.010994 0.894000
-0.006590 -0.010785 0.877000
-0.008539 -0.018680 0.892000
0.033419 0.020077 0.885000
0.003441 0.028293 0.858000
-0.012239 -0.008531 0.868000
0.024035 0.034102 0.862000
-0.025342 -0.029960 0.889000
-0.008856 -0.044495 0.887000
0.034165 0.012937 0.895000
0.046901 0.004450 0.892000
-0.031060 -0.004533 0.855000
0.008369 -0.014674 0.894000
-0.001926 -0.033656 0.890000
0.005231 0.013524 0.862000
0.001743 -0.022744 0.893000
0.038047 -0.005824 0.891000
0.020466 0.004082 0.892000
-0.035145 -0.023205 0.869000
0.000264 0.005719 0.862000
0.009533 0.012161 0.866000
-0.027952 -0.025281 0.879000
-0.039074 -0.018030 0.861000
0.004882 0.037693 0.863000
0.003891 -0.004665 0.880000
-0.030320 -0.006285 0.854000
-0.027111 -0.030257 0.887000
-0.034033 -0.015514 0.859000
0.031848 0.013261 0.892000
0.024219 -0.002166 0.895000
-0.003035 -0.026786 0.893000
0.015658 0.001875 0.890000
0.013475 -0.020859 0.891000
-0.017499 -0.018087 0.881000
-0.004068 -0.009352 0.878000
-0.020670 -0.007408 0.862000
0.032420 0.037197 0.868000
-0.043147 -0.024196 0.879000
-0.022883 -0.031932 0.893000
-0.019946 -0.020531 0.877000
-0.025795 -0.033365 0.892000
0.012298 0.033669 0.860000
0.003433 0.022943 0.856000
0.028489 0.019580 0.879000
-0.018081 0.000042 0.857000
0.011981 -0.027398 0.889000
-0.012126 -0.000311 0.860000
0.010186 -0.003627 0.892000
0.011300 -0.016128 0.893000
-0.019423 -0.044183 0.903000
0.006956 0.020829 0.856000
-0.040522 -0.023780 0.877000
0.002113 -0.020929 0.894000
0.030147 0.004470 0.896000
0.015718 0.014416 0.873000
-0.043067 -0.030701 0.900000
0.039433 0.027964 0.881000
-0.014906 0.004980 0.857000
0.046167 0.004450 0.892000
0.011995 -0.025231 0.890000
0.003581 -0.021273 0.893000
-0.024754 -0.004185 0.856000
-0.016336 0.008165 0.858000
0.013666 0.026144 0.857000
-0.004128 -0.014991 0.891000
0.024231 0.020072 0.869000
0.021172 0.027684 0.861000
-0.018085 -0.038138 0.892000
0.000273 -0.024949 0.893000
0.023051 0.026032 0.865000
0.019408 0.001884 0.894000
0.010305 0.007213 0.871000
0.008001 -0.016146 0.894000
0.024505 -0.011704 0.892000
0.022402 -0.002537 0.896000
0.001376 -0.023111 0.893000
-0.018064 -0.041762 0.891000
0.032420 0.031481 0.868000
-0.039755 -0.024834 0.876000
0.001745 -0.019825 0.894000
0.021616 -0.006579 0.894000
0.022720 -0.007683 0.894000
-0.039904 -0.010175 0.856000
0.008010 -0.008428 0.895000
0.019709 0.032215 0.859000
0.000618 0.032645 0.861000
0.037130 0.027869 0.878000
0.022644 0.007012 0.891000
0.033097 0.004101 0.896000
-0.028121 -0.014858 0.862000
-0.000460 -0.034350 0.889000
0.018273 0.031825 0.858000
-0.016964 -0.041029 0.891000
-0.013372 -0.010724 0.872000
-0.003406 -0.022401 0.894000
0.025520 0.010655 0.889000
0.028639 0.001149 0.895000
-0.019575 -0.035608 0.893000
-0.007171 0.005352 0.860000
0.004316 -0.020538 0.893000
0.005431 -0.014690 0.895000
-0.035460 -0.037529 0.895000
0.028607 -0.001428 0.894000
-0.001937 -0.020584 0.895000
0.007273 -0.015059 0.895000
0.005213 0.029387 0.859000
0.019581 0.017926 0.869000
0.029645 -0.006564 0.892000
-0.020174 -0.001367 0.856000
-0.006718 -0.020929 0.894000
0.023139 -0.001431 0.896000
-0.018840 -0.036710 0.893000
-0.000445 0.032999 0.861000
0.034941 0.005576 0.896000
0.008820 0.011449 0.866000
-0.030623 -0.030121 0.883000
-0.025786 -0.018870 0.867000
0.038998 0.013689 0.896000
-0.005862 -0.009691 0.876000
0.011275 -0.021959 0.891000
0.001009 -0.013570 0.894000
0.013536 -0.009165 0.895000
-0.028244 -0.006996 0.855000
0.039558 -0.002159 0.892000
-0.032295 -0.036180 0.889000
-0.003627 0.014184 0.859000
-0.035489 -0.017302 0.860000
-0.022548 -0.011363 0.866000
-0.019946 -0.020892 0.877000
-0.007897 -0.001022 0.862000
-0.029354 -0.018870 0.867000
0.012499 0.006518 0.874000
