-0.018100 0.039658 0.875000
0.014725 0.043075 0.857000
-0.022964 0.034893 0.882000
0.013345 0.043882 0.859000
-0.030225 -0.024641 0.882000
0.024395 0.013932 0.888000
0.007548 0.013506 0.884000
-0.023222 0.018112 0.878000
-0.016262 -0.050979 0.873000
-0.006187 0.028005 0.871000
0.035481 0.009745 0.873000
-0.008686 0.027615 0.870000
-0.013715 0.020477 0.871000
-0.013679 -0.044379 0.892000
-0.021488 -0.018812 0.881000
0.010945 -0.007683 0.894000
-0.011206 0.021552 0.871000
-0.029998 0.003326 0.886000
0.012347 0.006264 0.889000
-0.009211 -0.019648 0.886000
0.007983 -0.006564 0.892000
-0.023771 -0.033467 0.885000
-0.026535 -0.018428 0.880000
-0.006343 -0.034872 0.893000
0.003232 -0.042090 0.898000
0.021129 0.004801 0.889000
0.033117 0.019535 0.877000
-0.013326 0.025795 0.869000
-0.006880 0.033625 0.868000
-0.014961 -0.048545 0.881000
0.019851 0.028689 0.881000
-0.015811 -0.046373 0.888000
0.022700 0.039116 0.879000
-0.039600 -0.021369 0.897000
-0.004022 0.038626 0.868000
0.013937 0.042850 0.874000
0.001745 -0.044110 0.894000
-0.001883 0.034418 0.870000
0.018463 0.020419 0.884000
-0.010429 0.038894 0.866000
-0.022808 0.001846 0.876000
0.035481 0.019805 0.873000
-0.020377 0.046766 0.880000
-0.013826 -0.002486 0.878000
-0.008686 0.026899 0.870000
-0.017943 -0.026547 0.885000
-0.009200 -0.006513 0.885000
-0.013648 -0.029993 0.890000
0.016391 0.002242 0.890000
-0.039512 -0.029425 0.895000
-0.012577 -0.043645 0.892000
0.003167 0.014893 0.880000
-0.009716 0.041032 0.866000
-0.011219 0.017988 0.872000
0.007265 -0.013938 0.894000
0.014304 -0.024691 0.897000
0.031455 0.023975 0.881000
0.005657 0.034537 0.873000
0.008717 -0.004362 0.892000
-0.026262 0.016034 0.883000
-0.012998 0.020835 0.871000
0.018401 0.029777 0.881000
-0.018328 -0.029129 0.886000
0.004933 0.037369 0.872000
-0.021415 -0.010436 0.878000
0.022517 0.017912 0.886000
-0.014432 0.019760 0.871000
-0.025057 -0.015513 0.879000
0.024760 0.013567 0.888000
-0.017963 -0.029129 0.886000
0.028818 0.032205 0.878000
-0.029499 -0.009032 0.882000
-0.009951 -0.021861 0.887000
-0.031021 -0.034157 0.884000
0.024175 0.036987 0.880000
-0.012507 -0.023686 0.887000
-0.006173 0.032948 0.869000
-0.020957 0.006518 0.874000
-0.031385 -0.017057 0.884000
-0.025419 -0.012257 0.879000
-0.035954 -0.026301 0.889000
-0.023637 -0.019515 0.880000
-0.019510 -0.040982 0.890000
-0.005982 -0.031232 0.894000
0.009505 -0.027276 0.897000
0.034161 0.018431 0.876000
-0.029862 -0.014477 0.882000
0.015898 0.019669 0.883000
-0.008319 0.030444 0.869000
-0.003715 0.011996 0.880000
-0.023917 -0.003927 0.877000
-0.021488 0.034853 0.881000
-0.015597 0.001485 0.876000
-0.002302 -0.042639 0.894000
0.022339 0.042765 0.865000
-0.006208 0.018029 0.874000
-0.024417 0.025818 0.882000
0.018181 0.008085 0.888000
0.019688 -0.001788 0.890000
0.015463 -0.039591 0.900000
0.021422 0.016454 0.886000
0.000630 0.015944 0.878000
-0.029930 -0.005414 0.884000
-0.010107 0.027583 0.869000
-0.020881 -0.030952 0.886000
-0.008696 0.024779 0.871000
-0.010657 -0.009063 0.885000
-0.017331 -0.042129 0.891000
0.028716 0.016454 0.886000
0.019300 0.004801 0.889000
0.010470 0.012792 0.885000
-0.037177 -0.025288 0.892000
-0.027653 -0.022438 0.881000
-0.036361 -0.027795 0.890000
0.018912 0.007719 0.888000
-0.024361 0.018877 0.880000
0.003521 0.027869 0.878000
-0.019496 0.020883 0.873000
0.023325 0.008825 0.889000
0.035563 0.007606 0.875000
0.029743 0.017872 0.884000
0.023272 0.016837 0.887000
0.021763 0.019713 0.885000
0.006168 -0.027215 0.895000
0.029379 0.010595 0.884000
0.034482 0.018410 0.875000
-0.015046 -0.025483 0.886000
-0.014397 -0.039928 0.891000
-0.009392 0.028298 0.869000
0.010340 0.038174 0.874000
-0.006523 0.033267 0.868000
0.003882 0.026062 0.878000
0.025857 0.016125 0.888000
-0.022834 -0.003205 0.877000
-0.007262 0.026213 0.871000
0.004345 -0.040657 0.899000
-0.005457 0.032590 0.869000
-0.016225 0.020477 0.871000
0.014240 -0.007307 0.893000
-0.002308 -0.030564 0.896000
-0.025592 -0.045488 0.885000
0.010847 0.012078 0.886000
-0.002599 0.034418 0.870000
-0.014365 -0.032887 0.889000
0.016409 -0.002523 0.891000
0.009515 -0.031741 0.898000
-0.030397 0.002234 0.887000
-0.006613 0.009460 0.880000
-0.016121 -0.024725 0.885000
0.020763 0.000410 0.889000
-0.009828 -0.051875 0.876000
0.015395 -0.020238 0.896000
-0.025839 -0.046732 0.881000
0.002434 0.026393 0.877000
-0.006688 -0.024865 0.890000
0.000628 0.022037 0.876000
-0.004878 -0.034911 0.894000
-0.011964 0.011195 0.874000
0.017549 -0.012452 0.893000
0.016776 -0.001056 0.891000
0.007135 0.022087 0.878000
0.006928 -0.042829 0.898000
0.025405 0.022991 0.885000
0.023894 0.029481 0.883000
-0.015132 0.025466 0.870000
-0.017156 -0.015929 0.882000
0.032793 0.021725 0.878000
-0.015793 -0.027337 0.887000
0.011524 0.026544 0.882000
-0.020015 -0.014806 0.880000
0.033878 0.022448 0.878000
-0.026625 -0.046112 0.883000
-0.008916 -0.030462 0.893000
0.019321 -0.000322 0.890000
-0.027809 -0.038975 0.886000
0.001360 0.011310 0.883000
0.004967 0.028230 0.878000
0.012829 0.043829 0.872000
-0.021677 -0.050318 0.874000
0.018359 0.032965 0.879000
-0.025114 0.015273 0.881000
-0.005583 -0.021910 0.889000
0.013609 0.036458 0.876000
-0.002608 0.026273 0.873000
-0.003311 0.036167 0.869000
0.011161 0.017105 0.882000
-0.018671 -0.025818 0.885000
-0.021005 -0.000317 0.876000
0.019300 0.006630 0.889000
-0.038732 -0.026081 0.894000
-0.004515 -0.028320 0.895000
-0.014731 -0.032521 0.889000
-0.027259 -0.017704 0.880000
0.006704 0.045824 0.869000
-0.016964 -0.044696 0.891000
-0.014757 0.029014 0.869000
-0.029998 0.000408 0.886000
-0.034817 -0.025175 0.888000
-0.015463 -0.034716 0.889000
-0.010835 0.023318 0.870000
0.011472 0.030760 0.878000
0.016262 0.022939 0.883000
0.012827 -0.022845 0.897000
0.017162 -0.005463 0.892000
-0.017300 0.029081 0.871000
0.002792 0.022397 0.876000
0.005689 0.024616 0.878000
0.008727 -0.016495 0.893000
-0.022473 0.017008 0.877000
0.004579 0.034537 0.873000
0.021034 0.020077 0.885000
-0.028111 -0.035249 0.884000
0.026075 0.029118 0.883000
-0.004082 0.011284 0.881000
-0.021875 -0.021374 0.882000
0.015171 0.025847 0.883000
-0.017331 -0.043962 0.891000
0.006544 -0.028352 0.896000
-0.011498 0.042101 0.866000
0.016813 -0.009512 0.893000
0.021590 0.039071 0.878000
-0.014842 -0.050678 0.874000
-0.008290 0.040319 0.866000
-0.032367 0.005912 0.891000
0.009896 -0.033627 0.899000
0.010277 -0.038850 0.900000
-0.012352 0.005451 0.876000
-0.002964 0.026602 0.872000
0.009775 0.007354 0.888000
-0.015864 -0.044329 0.891000
-0.008539 -0.034466 0.892000
0.017736 0.018599 0.884000
-0.029666 0.007345 0.887000
0.015790 0.034695 0.877000
-0.034239 -0.003994 0.892000
0.021153 -0.010213 0.890000
0.003497 0.036292 0.872000
0.020763 0.003703 0.889000
-0.028740 -0.015911 0.881000
0.018304 -0.023873 0.894000
-0.003307 0.037197 0.868000
-0.024278 -0.004649 0.877000
0.010883 0.005898 0.889000
-0.020174 -0.033178 0.887000
-0.026897 -0.014806 0.880000
0.010305 0.044854 0.871000
0.019710 -0.006190 0.891000
0.002782 0.033100 0.873000
0.014706 -0.032517 0.899000
-0.004026 0.035452 0.869000
0.019386 -0.021273 0.893000
0.002448 0.013475 0.882000
0.025770 0.023356 0.885000
-0.017659 0.023703 0.871000
-0.019496 0.019805 0.873000
-0.023275 -0.016980 0.880000
-0.031421 -0.034560 0.885000
-0.003698 0.016989 0.876000
-0.014780 -0.043645 0.892000
0.010186 -0.002893 0.892000
0.014641 -0.015427 0.895000
0.004715 -0.039547 0.899000
-0.005808 0.036483 0.868000
-0.007086 -0.030496 0.894000
-0.035708 -0.013173 0.892000
0.029868 0.035778 0.877000
-0.003042 -0.034214 0.895000
-0.022678 -0.032375 0.885000
0.014657 -0.018395 0.896000
-0.002635 0.010208 0.882000
-0.008135 -0.023347 0.888000
0.010612 -0.043151 0.897000
0.005825 -0.042137 0.899000
-0.011476 -0.028225 0.892000
0.008600 0.026846 0.880000
-0.028346 -0.014444 0.880000
0.026923 0.016837 0.887000
-0.007743 -0.003599 0.885000
0.002846 -0.023846 0.893000
-0.018004 -0.034312 0.888000
0.003497 0.039522 0.872000
-0.004114 -0.009459 0.888000
0.002859 -0.033552 0.897000
-0.041169 -0.024376 0.899000
0.016060 -0.007299 0.892000
0.014017 0.030433 0.879000
-0.013668 0.033267 0.868000
0.024002 0.016107 0.887000
0.016168 -0.036916 0.898000
-0.019764 -0.029461 0.885000
-0.004414 0.016609 0.875000
0.003891 0.015980 0.880000
-0.004026 0.034379 0.869000
-0.008290 0.039250 0.866000
0.018325 -0.027215 0.895000
-0.015202 0.007597 0.874000
-0.028079 -0.032301 0.883000
-0.013668 0.038269 0.868000
-0.015866 0.019043 0.871000
0.028191 0.030502 0.881000
-0.004124 -0.023033 0.890000
-0.019901 0.027774 0.875000
0.019466 0.031916 0.880000
-0.018503 0.044802 0.877000
0.016889 -0.034290 0.897000
-0.007813 -0.036710 0.893000
-0.025927 -0.031246 0.884000
-0.012549 -0.032557 0.890000
-0.027321 0.004400 0.882000
0.019104 0.032279 0.880000
0.016870 -0.030933 0.896000
-0.004142 -0.033072 0.894000
-0.032841 -0.033793 0.884000
0.007667 -0.033589 0.898000
0.036517 0.018706 0.872000
0.029507 0.035417 0.877000
0.002843 -0.015375 0.892000
0.009115 -0.022058 0.895000
0.007867 0.022474 0.879000
-0.000093 0.012386 0.882000
0.008028 -0.044628 0.897000
-0.010328 -0.023713 0.888000
-0.023407 -0.032010 0.885000
-0.031456 -0.008708 0.886000
0.001753 -0.038394 0.898000
0.019444 0.033327 0.879000
0.000270 0.010583 0.883000
0.017490 0.002608 0.890000
-0.012366 0.002570 0.877000
-0.023583 0.015582 0.878000
-0.025448 -0.018791 0.880000
-0.001196 -0.043645 0.892000
0.011060 0.037814 0.874000
0.017352 0.020395 0.883000
-0.008007 0.016950 0.874000
-0.028507 0.009514 0.885000
-0.024389 0.021800 0.881000
-0.008646 0.040676 0.866000
0.025069 0.021923 0.886000
-0.027684 0.004037 0.882000
0.012180 0.032168 0.877000
-0.005989 -0.039371 0.895000
-0.018885 -0.006461 0.878000
0.002448 0.013838 0.882000
0.014759 0.042468 0.859000
-0.000092 0.025583 0.874000
0.010209 -0.018721 0.894000
0.014081 0.025120 0.883000
-0.034239 -0.004729 0.892000
0.008786 -0.032887 0.899000
-0.012338 0.008686 0.875000
-0.012549 -0.045744 0.890000
-0.027080 0.022653 0.886000
-0.029499 -0.025004 0.882000
-0.017320 0.014040 0.872000
-0.026143 -0.015151 0.879000
-0.006530 0.031875 0.869000
0.033117 0.018091 0.877000
0.018997 -0.016110 0.892000
0.020054 -0.006550 0.890000
-0.016869 -0.026577 0.886000
-0.012683 0.010475 0.874000
-0.030658 -0.011963 0.884000
-0.008856 -0.022226 0.887000
0.009250 0.039208 0.873000
-0.017020 0.002564 0.875000
-0.017360 0.006518 0.874000
0.007616 -0.003994 0.892000
-0.007761 -0.018210 0.887000
0.022811 0.039854 0.856000
0.019104 0.030468 0.880000
-0.010223 -0.050244 0.879000
-0.005123 0.023398 0.873000
0.019732 -0.017211 0.892000
0.005080 -0.035437 0.898000
-0.020739 0.041696 0.880000
0.000991 0.016305 0.878000
-0.006208 0.016950 0.874000
0.021952 0.038710 0.878000
-0.025927 0.021146 0.884000
-0.011737 -0.017421 0.884000
0.001377 -0.044846 0.894000
-0.019856 0.014056 0.873000
-0.023583 0.014137 0.878000
-0.019856 0.012260 0.873000
0.008369 -0.021665 0.894000
0.012139 0.039972 0.874000
0.012991 0.044236 0.859000
-0.022601 -0.024278 0.882000
-0.017312 -0.038052 0.890000
-0.020810 -0.023216 0.883000
-0.005942 -0.009824 0.888000
0.002073 0.019896 0.877000
-0.013118 -0.002489 0.879000
0.007151 0.026846 0.880000
0.032469 0.016685 0.879000
0.009687 0.025035 0.880000
0.012799 -0.018374 0.895000
0.023088 0.036987 0.880000
-0.016622 0.044238 0.873000
0.018359 0.033327 0.879000
0.025126 0.015029 0.888000
-0.016961 0.037369 0.872000
0.015148 0.044693 0.861000
0.012756 -0.000323 0.892000
-0.015775 -0.046998 0.886000
-0.018756 0.023013 0.872000
0.000268 0.024532 0.875000
-0.027080 0.021559 0.886000
0.008639 0.013506 0.884000
0.025377 0.027695 0.884000
0.002792 0.022037 0.876000
0.032432 0.008716 0.878000
-0.001172 0.024864 0.874000
-0.014042 0.030444 0.869000
-0.013810 -0.000318 0.877000
-0.009284 -0.028257 0.893000
-0.031713 -0.022125 0.883000
0.006009 0.039163 0.872000
-0.020539 -0.034273 0.887000
0.002817 0.009867 0.884000
0.017529 -0.005830 0.892000
0.019491 0.043833 0.865000
0.016042 -0.003623 0.891000
-0.039925 -0.026876 0.896000
-0.017136 -0.014461 0.881000
0.012049 -0.013938 0.894000
-0.022808 0.007615 0.876000
-0.035380 -0.005837 0.893000
-0.013058 0.008686 0.875000
-0.009805 0.014072 0.874000
-0.039144 -0.026846 0.895000
0.000987 0.029540 0.874000
-0.019541 0.003284 0.875000
-0.009159 0.002582 0.881000
-0.000093 0.015582 0.878000
-0.018080 0.035296 0.874000
-0.000827 -0.010945 0.890000
-0.029533 -0.008315 0.883000
-0.012060 -0.005396 0.881000
-0.003042 -0.035687 0.895000
0.001008 -0.025316 0.893000
-0.020174 -0.033543 0.887000
0.008238 0.018877 0.880000
-0.007031 -0.014559 0.887000
-0.007805 -0.033732 0.892000
-0.036116 -0.014290 0.893000
0.012486 -0.029927 0.899000
0.027104 0.033040 0.881000
0.010328 0.041364 0.873000
0.015154 0.021824 0.882000
-0.024836 0.030242 0.884000
0.001382 -0.032813 0.897000
-0.016583 0.021911 0.871000
-0.013700 0.021528 0.870000
-0.008539 -0.032998 0.892000
0.001747 -0.027215 0.895000
0.009166 -0.035146 0.900000
0.018976 -0.005457 0.891000
-0.023945 0.010523 0.878000
0.003493 0.038760 0.871000
-0.031232 0.008103 0.890000
-0.014046 -0.041809 0.892000
-0.014565 -0.049520 0.879000
0.007281 -0.028720 0.896000
-0.007346 0.007296 0.881000
0.008019 -0.027983 0.896000
-0.004389 0.031196 0.870000
-0.021317 0.009756 0.874000
-0.008746 0.011220 0.876000
-0.027684 -0.027909 0.882000
0.026588 0.010277 0.888000
-0.009727 0.033586 0.867000
0.000274 -0.036465 0.896000
0.013826 0.004440 0.890000
-0.025477 0.012372 0.881000
-0.010165 0.013353 0.874000
-0.008746 0.010860 0.876000
-0.014598 -0.011197 0.881000
0.023868 0.039854 0.856000
0.007159 0.015998 0.881000
-0.026655 -0.033066 0.884000
-0.014515 0.001846 0.876000
-0.009862 0.002576 0.879000
-0.021053 -0.008991 0.878000
0.025857 0.015394 0.888000
-0.026381 -0.041209 0.887000
0.008820 0.047448 0.866000
0.011668 -0.006204 0.893000
-0.018460 0.036777 0.875000
-0.004114 -0.016403 0.888000
0.026193 0.017932 0.887000
-0.019831 -0.037601 0.888000
-0.003387 -0.011299 0.889000
0.024203 0.033766 0.881000
0.018284 -0.019803 0.893000
0.000997 0.010946 0.883000
0.027435 0.034452 0.880000
-0.015828 -0.033619 0.889000
-0.004036 0.030156 0.871000
0.017008 0.016780 0.884000
-0.035182 -0.026637 0.888000
-0.038038 -0.019479 0.895000
0.009494 -0.026139 0.896000
0.015429 0.033973 0.877000
-0.029499 -0.027183 0.882000
-0.026535 -0.020601 0.880000
-0.025390 0.000043 0.878000
-0.025143 0.019646 0.882000
-0.023169 0.009417 0.876000
-0.030623 -0.026850 0.883000
-0.025171 0.022213 0.883000
0.012008 0.001878 0.891000
-0.020284 -0.001759 0.876000
-0.000460 -0.016806 0.890000
0.005735 0.012064 0.885000
0.029146 0.035417 0.877000
0.014209 -0.000689 0.891000
-0.005801 0.040366 0.867000
0.021105 0.000775 0.888000
0.011018 -0.033664 0.900000
0.006529 -0.023873 0.894000
0.012799 -0.017637 0.895000
-0.014015 -0.029261 0.890000
-0.006208 0.018749 0.874000
-0.017420 -0.003927 0.877000
-0.023556 -0.001040 0.877000
-0.039100 -0.030128 0.894000
-0.019159 0.007957 0.874000
-0.038278 -0.030061 0.892000
-0.020904 -0.035368 0.887000
-0.001533 0.021651 0.875000
-0.019675 -0.016636 0.881000
-0.017720 0.038174 0.874000
-0.005909 0.001861 0.883000
0.002811 0.013475 0.882000
-0.011909 0.022244 0.870000
-0.015597 0.001125 0.876000
-0.000095 -0.040936 0.897000
0.016854 0.040785 0.876000
-0.017499 -0.013735 0.881000
-0.006308 -0.021154 0.888000
-0.020354 0.042010 0.879000
-0.010072 0.037824 0.866000
-0.014399 0.030444 0.869000
0.034122 0.010847 0.875000
-0.009435 0.017290 0.873000
-0.031385 -0.015601 0.884000
0.000267 0.029866 0.873000
-0.004404 0.022320 0.873000
0.031782 0.013082 0.880000
-0.034974 -0.006564 0.892000
-0.013073 0.003649 0.876000
0.015676 0.000044 0.891000
0.027134 0.030900 0.882000
-0.021005 0.024560 0.876000
-0.016281 0.007957 0.874000
-0.030658 -0.011599 0.884000
0.018806 0.025847 0.883000
-0.041585 -0.026626 0.900000
-0.022678 -0.030918 0.885000
0.032469 0.018494 0.879000
-0.018038 0.024089 0.872000
0.018848 0.016799 0.885000
-0.026927 0.003670 0.881000
-0.015115 0.035094 0.869000
-0.031713 -0.027940 0.883000
-0.019334 -0.018833 0.882000
-0.024361 0.015618 0.880000
-0.032952 -0.012369 0.887000
-0.008453 0.000407 0.883000
0.006727 0.038804 0.872000
-0.010119 0.024392 0.870000
-0.020197 -0.035774 0.888000
-0.027983 -0.006838 0.880000
0.000626 0.031626 0.872000
0.009452 -0.005096 0.892000
-0.026988 0.012764 0.883000
0.003152 0.022758 0.876000
-0.027809 0.017183 0.886000
-0.008539 -0.035568 0.892000
-0.014910 -0.004293 0.878000
0.000270 0.013112 0.882000
-0.019720 0.030208 0.883000
-0.007254 0.026899 0.870000
0.002087 0.012764 0.883000
-0.025448 0.009823 0.880000
0.029743 0.009867 0.884000
-0.019856 0.016571 0.873000
0.014428 0.021824 0.882000
0.028716 0.013172 0.886000
0.001710 0.020594 0.876000
-0.011047 -0.023686 0.887000
-0.025869 0.015290 0.882000
0.006016 0.046394 0.873000
0.000982 0.036925 0.870000
-0.021053 -0.008629 0.878000
0.016450 0.042974 0.855000
0.036834 0.015099 0.871000
-0.006194 0.023372 0.872000
-0.014791 0.017250 0.871000
0.000272 -0.022326 0.891000
0.009176 0.046379 0.866000
0.013376 0.045402 0.861000
0.012499 0.040332 0.874000
-0.007822 -0.038959 0.894000
-0.028904 0.009160 0.886000
0.034803 0.014792 0.874000
0.000640 -0.015008 0.892000
0.033117 0.010872 0.877000
0.003949 -0.022744 0.893000
-0.007778 -0.044595 0.889000
-0.010293 -0.014526 0.885000
-0.024695 0.009811 0.879000
-0.013192 -0.017057 0.884000
0.003214 -0.022744 0.893000
0.023840 0.034853 0.881000
-0.012939 0.039295 0.867000
-0.011232 0.015853 0.873000
-0.021875 0.033804 0.882000
0.003891 0.015618 0.880000
-0.016244 0.039881 0.872000
0.013263 0.031808 0.877000
-0.027715 -0.030848 0.883000
0.004679 -0.018680 0.892000
0.028127 0.032242 0.879000
-0.040753 -0.025828 0.898000
-0.026504 -0.010448 0.879000
-0.001535 0.018792 0.876000
-0.027445 0.020829 0.886000
-0.027715 0.005495 0.883000
0.013211 -0.026197 0.898000
0.010529 0.002242 0.890000
-0.003414 -0.040152 0.896000
-0.010200 0.006180 0.877000
-0.006635 0.002951 0.883000
0.025491 0.013932 0.888000
0.006789 0.017429 0.880000
-0.030588 -0.022100 0.882000
-0.005614 -0.032704 0.894000
0.005051 -0.012452 0.893000
-0.039925 -0.025401 0.896000
-0.022964 0.034530 0.882000
-0.017923 -0.024333 0.884000
0.016851 -0.021689 0.895000
0.010896 0.004440 0.890000
0.007676 -0.042137 0.899000
0.013339 0.018557 0.882000
0.017715 0.025847 0.883000
0.017162 -0.007299 0.892000
-0.027983 -0.013358 0.880000
-0.019143 -0.042814 0.890000
-0.009180 -0.002137 0.883000
-0.025257 0.033957 0.886000
0.009599 0.042752 0.872000
-0.022314 -0.030189 0.885000
0.009452 -0.003994 0.892000
-0.024278 -0.005371 0.877000
-0.000462 -0.044429 0.893000
-0.032331 0.001509 0.890000
-0.007735 -0.003231 0.884000
-0.016603 0.016911 0.872000
0.031092 0.013097 0.881000
-0.014365 -0.028862 0.889000
-0.009232 -0.024078 0.888000
-0.021342 -0.049295 0.875000
-0.016717 -0.003932 0.878000
-0.003779 -0.038634 0.895000
-0.019924 -0.001759 0.876000
-0.018481 -0.049351 0.876000
-0.019159 0.028821 0.874000
-0.027228 -0.010448 0.879000
-0.010188 -0.051875 0.876000
-0.026595 0.010208 0.882000
-0.021390 0.024949 0.877000
-0.021702 0.006886 0.875000
0.003501 0.032381 0.873000
-0.035182 -0.027367 0.888000
-0.032841 -0.030519 0.884000
-0.001939 -0.040152 0.896000
-0.031232 0.010301 0.890000
-0.017340 0.011541 0.873000
-0.018390 -0.037277 0.889000
-0.020377 -0.013720 0.880000
-0.021826 0.036263 0.880000
-0.020763 0.045369 0.881000
-0.017559 -0.022150 0.884000
-0.008172 -0.034099 0.892000
0.011524 0.026907 0.882000
-0.025171 0.025120 0.883000
-0.028410 -0.004313 0.882000
0.013578 0.039972 0.874000
-0.033064 -0.002154 0.890000
-0.036401 -0.023426 0.891000
-0.007761 -0.018575 0.887000
0.026193 0.008075 0.887000
0.004253 0.015618 0.880000
0.027319 0.014663 0.888000
0.008993 0.013854 0.883000
0.032180 0.025788 0.881000
-0.005182 0.004041 0.883000
0.008756 -0.026508 0.896000
-0.032878 -0.021447 0.885000
0.020260 0.025483 0.883000
0.027622 0.008066 0.886000
0.027653 0.006980 0.887000
-0.018799 0.031339 0.874000
-0.018439 0.007957 0.874000
-0.001203 -0.029491 0.897000
0.023193 0.025512 0.884000
0.011047 0.039927 0.873000
0.009505 -0.042412 0.897000
0.005787 -0.012085 0.893000
-0.023195 -0.006815 0.877000
0.019710 -0.013158 0.891000
-0.025029 0.002573 0.878000
-0.003783 -0.030564 0.896000
0.000272 -0.018271 0.890000
0.014909 0.007362 0.889000
-0.005240 -0.027154 0.893000
-0.010165 0.012633 0.874000
0.006002 0.041269 0.871000
-0.020121 -0.054097 0.901000
-0.011373 -0.007233 0.884000
-0.002635 0.009119 0.882000
-0.022289 -0.029063 0.884000
-0.000095 -0.030598 0.897000
0.026923 0.018663 0.887000
-0.027684 -0.026094 0.882000
0.023813 0.035538 0.880000
-0.027809 -0.040434 0.886000
0.005057 -0.023505 0.894000
0.008688 0.007362 0.889000
-0.027621 -0.011184 0.880000
-0.013999 -0.032887 0.889000
-0.020562 -0.038332 0.888000
-0.016206 0.026899 0.870000
0.002061 0.038804 0.872000
-0.010657 -0.008698 0.885000
-0.028603 0.019049 0.888000
0.005419 -0.015760 0.893000
-0.010363 -0.033327 0.891000
-0.025477 0.015273 0.881000
-0.019422 -0.031317 0.886000
0.020915 0.034089 0.880000
0.023298 0.006623 0.888000
0.006573 -0.039220 0.900000
-0.013311 0.032910 0.868000
-0.006201 0.021242 0.873000
-0.039231 -0.018046 0.897000
0.005080 -0.042829 0.898000
0.011085 0.032492 0.876000
0.024029 0.014663 0.888000
0.013966 -0.032147 0.899000
-0.028111 -0.034521 0.884000
-0.022188 0.028657 0.880000
0.021229 0.038710 0.878000
0.002476 -0.023085 0.892000
-0.002269 0.012009 0.881000
-0.000832 -0.033883 0.896000
-0.016679 0.001125 0.876000
-0.014757 0.031160 0.869000
0.009483 -0.021321 0.895000
-0.015393 -0.022540 0.885000
-0.017882 -0.017381 0.882000
0.003585 -0.025345 0.894000
-0.003774 -0.033808 0.894000
0.006175 -0.043471 0.896000
-0.019466 -0.036870 0.888000
0.011746 -0.039547 0.899000
0.015378 -0.014690 0.895000
-0.018080 0.004360 0.874000
-0.013073 0.004730 0.876000
-0.013434 0.003288 0.876000
-0.031021 -0.032702 0.884000
0.017352 0.025847 0.883000
0.021787 0.017548 0.886000
-0.021610 -0.032046 0.886000
0.029902 0.033651 0.878000
0.019234 0.014995 0.886000
0.000272 -0.016458 0.891000
-0.012939 0.040366 0.867000
-0.008876 -0.043864 0.889000
-0.020585 -0.039473 0.889000
0.018630 -0.015375 0.892000
0.004961 0.023506 0.877000
0.028716 0.011713 0.886000
0.016170 0.033289 0.878000
-0.018044 -0.045012 0.890000
0.009885 -0.030263 0.898000
0.013596 -0.037697 0.899000
0.034122 0.007966 0.875000
0.008228 0.024644 0.879000
-0.004119 -0.012397 0.889000
0.030436 0.017488 0.883000
-0.028410 -0.025730 0.882000
0.003577 -0.019414 0.892000
-0.035380 -0.013923 0.893000
-0.002290 -0.018983 0.889000
-0.000811 0.027710 0.873000
-0.017479 -0.010822 0.880000
-0.003410 -0.034951 0.895000
0.003589 -0.044896 0.895000
0.006774 0.022810 0.878000
0.014065 0.022187 0.882000
-0.012930 -0.038095 0.891000
0.029379 0.014961 0.884000
-0.030465 0.009923 0.889000
-0.010293 -0.006877 0.885000
0.031782 0.021413 0.880000
-0.004851 -0.020812 0.889000
-0.028378 -0.023526 0.881000
0.003497 0.034497 0.872000
0.005443 -0.031337 0.897000
0.004311 -0.018312 0.892000
0.020600 0.028359 0.882000
-0.007603 0.029729 0.869000
0.016776 -0.002523 0.891000
0.011018 -0.038480 0.900000
0.022202 0.013201 0.888000
0.028018 0.013552 0.887000
0.001751 -0.045366 0.897000
-0.008876 -0.024471 0.889000
-0.015202 0.007957 0.874000
-0.029767 0.018359 0.890000
0.003958 -0.027215 0.895000
0.003210 -0.021250 0.892000
-0.025057 -0.014790 0.879000
0.002849 -0.026449 0.894000
-0.031350 -0.017764 0.883000
-0.034163 -0.009114 0.890000
-0.035954 -0.029228 0.889000
0.003232 -0.039133 0.898000
0.013951 -0.038764 0.898000
-0.007279 0.021242 0.873000
-0.006643 0.000771 0.884000
0.001374 -0.014274 0.892000
0.020506 0.037987 0.878000
0.020054 -0.010579 0.890000
-0.028936 -0.044130 0.887000
0.006719 0.042703 0.871000
-0.009839 0.007262 0.877000
-0.013794 0.004370 0.876000
-0.031713 -0.022852 0.883000
-0.011923 0.019760 0.871000
-0.020645 -0.001038 0.876000
-0.007761 -0.014559 0.887000
-0.022886 0.025368 0.879000
0.022778 0.029448 0.882000
-0.014910 -0.003570 0.878000
-0.002617 0.016989 0.876000
-0.016448 -0.019218 0.883000
-0.002629 0.013082 0.880000
-0.026143 -0.012619 0.879000
-0.003334 0.018410 0.875000
0.004668 0.008835 0.890000
-0.011096 -0.026360 0.891000
-0.020598 0.012633 0.874000
-0.005217 -0.011665 0.889000
-0.021702 0.011568 0.875000
-0.029301 0.009901 0.887000
0.013581 -0.040242 0.898000
0.005006 0.010243 0.885000
0.022933 -0.001784 0.888000
-0.022062 0.003645 0.875000
-0.019203 -0.002481 0.876000
0.028319 0.024813 0.885000
-0.011737 -0.015601 0.884000
0.008256 0.015290 0.882000
-0.024444 -0.028304 0.883000
-0.038364 -0.024241 0.894000
0.005696 0.027900 0.879000
-0.004845 -0.009824 0.888000
-0.002632 0.012009 0.881000
0.012484 0.042442 0.873000
-0.009034 0.028298 0.869000
-0.003323 0.026961 0.872000
0.009841 -0.010994 0.894000
0.009819 -0.002893 0.892000
-0.019924 -0.002120 0.876000
-0.029665 -0.044677 0.898000
0.019984 0.040552 0.871000
-0.006336 -0.026756 0.892000
-0.018059 0.034178 0.873000
0.006368 0.037727 0.872000
-0.031127 -0.001782 0.887000
-0.021751 -0.006454 0.877000
0.009819 -0.002526 0.892000
-0.018431 -0.042862 0.891000
0.021812 0.003329 0.887000
0.023141 0.031263 0.882000
0.022567 -0.001418 0.888000
0.002111 -0.023846 0.893000
0.019688 -0.000322 0.890000
-0.022525 -0.012981 0.879000
0.014657 -0.019132 0.896000
-0.005842 0.021961 0.873000
-0.003669 0.036167 0.869000
0.022881 0.019735 0.886000
-0.021317 0.010475 0.874000
-0.020377 -0.015531 0.880000
0.017008 0.017872 0.884000
-0.001173 0.022732 0.875000
-0.011843 -0.039973 0.892000
0.011641 0.000411 0.891000
-0.036809 -0.021617 0.892000
-0.019519 0.028821 0.874000
-0.010453 0.032553 0.868000
-0.006350 -0.036751 0.894000
-0.002676 -0.029827 0.896000
-0.027983 -0.015531 0.880000
-0.020238 0.021986 0.874000
0.015781 -0.034290 0.897000
0.006905 -0.024636 0.895000
0.007411 0.047200 0.868000
0.020915 0.033003 0.880000
0.011887 0.026181 0.882000
0.000627 0.028102 0.874000
-0.012625 0.022244 0.870000
-0.017000 0.005439 0.874000
0.004574 0.036292 0.872000
-0.030328 -0.005420 0.885000
0.021105 0.010277 0.888000
-0.007761 -0.011639 0.887000
0.009473 -0.008419 0.894000
-0.020716 0.035860 0.879000
-0.024667 0.006548 0.878000
-0.001201 -0.041628 0.896000
0.010896 0.001875 0.890000
-0.004124 -0.024499 0.890000
-0.039100 -0.027920 0.894000
-0.026321 0.023356 0.885000
0.033800 0.012662 0.876000
-0.022138 -0.009714 0.878000
0.010060 0.025788 0.881000
0.018442 0.022213 0.883000
-0.029103 -0.015911 0.881000
-0.005576 -0.009459 0.888000
0.033478 0.007623 0.877000
0.012129 -0.035146 0.900000
0.012785 -0.010627 0.894000
0.002453 0.009867 0.884000
-0.016030 -0.009374 0.880000
-0.004851 -0.021910 0.889000
0.011018 -0.034035 0.900000
-0.017420 -0.003566 0.877000
-0.025029 0.003296 0.878000
0.007289 -0.044997 0.897000
0.023664 0.012470 0.888000
0.008522 0.039881 0.872000
-0.029733 0.016143 0.889000
-0.012625 0.023318 0.870000
-0.025200 0.029151 0.884000
-0.029103 -0.015186 0.881000
0.009654 0.031447 0.877000
-0.014764 -0.040295 0.891000
0.021861 0.007728 0.889000
-0.008846 -0.017095 0.886000
-0.008172 -0.032263 0.892000
-0.001902 0.014153 0.879000
-0.029169 -0.031211 0.883000
-0.011882 0.032196 0.868000
0.020763 0.000044 0.889000
0.013966 -0.036217 0.899000
-0.010429 0.038181 0.866000
0.023062 0.038030 0.879000
-0.004404 0.024117 0.873000
0.001348 0.024172 0.875000
-0.007943 0.035727 0.867000
-0.017801 -0.006100 0.878000
-0.017983 -0.046320 0.887000
-0.015903 0.011900 0.873000
-0.021029 -0.005371 0.877000
0.004616 0.015256 0.880000
-0.028142 0.012064 0.885000
-0.004490 -0.024499 0.890000
0.008786 -0.034367 0.899000
-0.025564 -0.032338 0.884000
-0.004802 0.010909 0.880000
0.001710 0.023479 0.876000
0.000644 -0.040566 0.897000
-0.031492 -0.006162 0.887000
-0.030499 0.014696 0.890000
-0.000810 0.030908 0.872000
0.019343 -0.004723 0.891000
0.019621 0.011361 0.887000
-0.016945 -0.038418 0.890000
0.003232 -0.038024 0.898000
-0.019519 0.027022 0.874000
-0.012338 0.009047 0.875000
0.027529 0.028754 0.883000
-0.012183 -0.034389 0.890000
0.016644 0.016780 0.884000
-0.009862 0.003661 0.879000
-0.016981 0.040286 0.873000
-0.028474 -0.034521 0.884000
0.016950 0.029052 0.881000
-0.025810 -0.016980 0.880000
-0.012669 0.012619 0.873000
-0.008906 -0.042543 0.892000
0.036559 0.009385 0.873000
-0.038862 -0.016938 0.897000
-0.034856 -0.020812 0.889000
-0.030259 -0.031574 0.883000
0.009852 -0.022426 0.895000
-0.007454 -0.038223 0.894000
0.007768 0.046486 0.868000
0.005443 -0.030968 0.897000
0.002120 -0.029491 0.897000
0.018079 0.021486 0.883000
0.005419 -0.021273 0.893000
0.002859 -0.031337 0.897000
0.003605 -0.039177 0.899000
0.008901 0.036735 0.874000
-0.020539 -0.035733 0.887000
-0.024389 -0.023526 0.881000
-0.008491 -0.011273 0.887000
0.010316 0.043470 0.872000
-0.004515 -0.038634 0.895000
-0.008300 0.035370 0.867000
-0.026143 0.002214 0.879000
-0.009805 0.014432 0.874000
0.013324 0.021800 0.881000
0.017936 -0.024977 0.894000
0.016391 0.003341 0.890000
0.030073 0.014944 0.883000
-0.011657 0.001127 0.878000
-0.002297 -0.025655 0.892000
-0.005942 -0.014210 0.888000
-0.006560 0.021602 0.873000
-0.011476 -0.028959 0.892000
-0.015306 -0.009374 0.880000
-0.004119 -0.013128 0.889000
-0.024278 0.000404 0.877000
-0.012756 -0.001404 0.879000
-0.008117 -0.018554 0.886000
-0.012916 -0.031458 0.890000
0.010688 0.039927 0.873000
-0.038038 -0.017637 0.895000
-0.004147 -0.029425 0.895000
-0.025869 -0.025367 0.882000
-0.000460 -0.020103 0.890000
-0.036035 -0.020859 0.891000
0.024900 0.037711 0.880000
0.016206 0.029743 0.880000
0.010529 0.002974 0.890000
0.000627 0.028821 0.874000
0.016132 -0.020607 0.896000
-0.033505 0.002247 0.892000
-0.019014 -0.025425 0.884000
-0.024639 -0.004288 0.877000
-0.001203 -0.031337 0.897000
-0.021173 -0.023943 0.883000
-0.038450 -0.015076 0.896000
-0.016206 0.024034 0.870000
0.029743 0.012414 0.884000
-0.017519 -0.018470 0.882000
-0.012939 0.037154 0.867000
-0.006628 0.003674 0.882000
-0.006173 0.031517 0.869000
0.030730 0.026514 0.881000
0.025740 0.028423 0.884000
-0.029169 -0.004318 0.883000
-0.023121 -0.040159 0.888000
-0.012800 -0.011573 0.882000
-0.026535 0.002941 0.880000
0.009430 0.001875 0.890000
-0.018328 -0.030588 0.886000
0.013536 -0.018742 0.895000
-0.026595 0.008393 0.882000
0.000626 0.038804 0.872000
0.015898 0.025847 0.883000
-0.009232 -0.022982 0.888000
0.004684 -0.013555 0.893000
0.025042 0.040748 0.860000
-0.018545 -0.009363 0.879000
-0.014268 -0.016674 0.883000
0.020716 0.013552 0.887000
-0.018587 -0.015548 0.881000
-0.024864 -0.033832 0.885000
-0.014106 0.013338 0.873000
-0.028206 0.019758 0.887000
0.009473 -0.019457 0.894000
-0.008172 -0.026756 0.892000
-0.009974 -0.044595 0.889000
0.025986 0.036987 0.880000
-0.024472 -0.029791 0.884000
0.007505 0.025006 0.879000
-0.025200 -0.045800 0.884000
-0.022446 -0.053593 0.905000
-0.024278 -0.001401 0.877000
0.029379 0.025876 0.884000
-0.011463 -0.031494 0.891000
0.014875 0.010631 0.887000
-0.008453 -0.000320 0.883000
0.013152 -0.015042 0.894000
-0.015490 0.036209 0.870000
0.007151 0.017066 0.880000
-0.011109 -0.042910 0.892000
-0.021702 0.006526 0.875000
-0.015864 -0.040662 0.891000
-0.009738 0.031481 0.868000
-0.016393 -0.048852 0.880000
0.022466 0.024421 0.884000
0.011733 -0.040612 0.898000
0.035481 0.017649 0.873000
-0.034817 -0.024078 0.888000
-0.023486 -0.043814 0.888000
-0.005935 -0.017480 0.887000
-0.010007 -0.037036 0.892000
-0.003021 -0.009835 0.889000
-0.026958 0.009119 0.882000
0.009473 -0.019825 0.894000
0.007530 0.014927 0.882000
0.013138 -0.009144 0.893000
0.010724 0.032132 0.876000
0.017008 0.017508 0.884000
0.008010 -0.023163 0.895000
0.021034 0.019713 0.885000
0.013094 0.006271 0.890000
-0.006912 0.022295 0.872000
-0.018481 0.041145 0.876000
-0.032258 -0.003976 0.888000
-0.002241 0.034776 0.870000
0.006712 0.043370 0.870000
-0.031563 0.004801 0.889000
-0.028539 0.012442 0.886000
0.009992 0.033536 0.875000
-0.029862 -0.011573 0.882000
-0.010847 0.020118 0.871000
-0.022422 0.009767 0.875000
-0.018439 -0.049958 0.874000
-0.006920 0.020165 0.873000
0.014690 -0.036916 0.898000
0.027497 0.030537 0.882000
-0.004753 0.028005 0.871000
0.023664 0.007354 0.888000
0.031092 0.022888 0.881000
0.005461 -0.039961 0.900000
-0.012197 -0.031127 0.891000
-0.029499 -0.010121 0.882000
0.004684 -0.013187 0.893000
0.002490 -0.034290 0.897000
-0.004736 0.036125 0.868000
-0.026866 -0.008278 0.879000
0.012599 0.028689 0.881000
-0.019924 -0.002481 0.876000
0.017200 -0.013570 0.894000
-0.008916 -0.038915 0.893000
-0.001558 -0.018983 0.889000
0.006419 0.019941 0.879000
0.006419 0.027539 0.879000
-0.019496 0.012260 0.873000
0.016625 0.020395 0.883000
-0.025086 -0.019877 0.880000
0.003178 0.012400 0.883000
-0.006628 0.005126 0.882000
0.034161 0.019873 0.876000
-0.015958 0.002567 0.876000
0.020397 0.004435 0.889000
-0.014074 0.019043 0.871000
0.025690 0.039947 0.858000
-0.016942 0.030514 0.871000
0.035162 0.010475 0.874000
-0.018439 0.004720 0.874000
-0.004399 0.025166 0.872000
0.022752 0.031590 0.881000
0.031818 0.027964 0.881000
-0.020307 -0.005371 0.877000
-0.000095 -0.038721 0.897000
-0.014413 -0.041809 0.892000
0.024601 0.040253 0.857000
-0.013103 0.000405 0.878000
-0.022601 0.031626 0.882000
-0.017902 -0.047565 0.883000
-0.000454 0.017730 0.877000
-0.032514 -0.019262 0.885000
0.017273 0.032965 0.879000
0.019343 -0.010224 0.891000
-0.020881 -0.033505 0.886000
0.000266 0.033024 0.871000
0.009187 0.046075 0.867000
-0.009359 0.038537 0.866000
-0.025029 0.001850 0.878000
-0.018100 0.002564 0.875000
-0.017841 -0.013358 0.880000
0.014336 -0.034367 0.899000
0.027288 0.016472 0.887000
-0.019878 0.025943 0.874000
-0.017720 0.007238 0.874000
-0.026381 0.029980 0.887000
0.013324 0.020712 0.881000
0.011325 -0.020584 0.895000
-0.023945 -0.007907 0.878000
-0.004500 -0.026022 0.892000
-0.012939 0.037511 0.867000
-0.001528 0.029473 0.872000
-0.026625 0.012764 0.883000
-0.013311 0.038983 0.868000
-0.004124 -0.023766 0.890000
-0.000829 -0.024554 0.892000
-0.005170 0.008746 0.881000
-0.028740 -0.010472 0.881000
0.017549 -0.009512 0.893000
-0.010165 0.014072 0.874000
0.022933 0.006623 0.888000
-0.025898 -0.029031 0.883000
-0.014747 -0.036953 0.890000
-0.019946 0.036861 0.877000
-0.014764 -0.039562 0.891000
-0.021439 -0.012981 0.879000
-0.003399 -0.044746 0.892000
-0.011109 -0.041809 0.892000
0.008881 0.040599 0.872000
-0.024334 -0.014428 0.879000
0.008247 0.015998 0.881000
-0.022390 -0.044911 0.888000
0.016802 0.042270 0.855000
-0.011425 -0.046738 0.888000
-0.005962 -0.025993 0.891000
-0.005252 -0.030162 0.895000
0.010209 -0.010994 0.894000
-0.023017 -0.029791 0.884000
-0.016888 -0.029162 0.887000
0.002434 0.028559 0.877000
-0.018038 -0.051280 0.872000
0.009946 0.044495 0.871000
-0.016225 0.019401 0.871000
-0.031127 -0.002877 0.887000
-0.026897 0.000043 0.880000
0.018079 0.027301 0.883000
0.009324 0.019240 0.880000
-0.014203 -0.005022 0.879000
0.002426 0.030620 0.874000
-0.032514 -0.019990 0.885000
0.008144 0.044802 0.870000
-0.020219 -0.040571 0.889000
0.012403 -0.004366 0.893000
-0.001937 -0.034951 0.895000
-0.007031 -0.016019 0.887000
-0.006286 -0.001778 0.885000
-0.035182 -0.025175 0.888000
-0.028700 -0.036628 0.891000
0.015763 -0.020976 0.896000
-0.010107 0.028656 0.869000
0.005806 -0.043471 0.896000
-0.019720 -0.022852 0.883000
0.024002 0.016472 0.887000
0.011287 -0.001057 0.892000
-0.024667 -0.007184 0.878000
-0.014910 -0.003932 0.878000
-0.021875 0.031626 0.882000
-0.011154 0.036084 0.867000
0.016024 0.002608 0.890000
-0.011843 -0.029694 0.892000
0.010163 0.002608 0.890000
0.029015 0.025512 0.884000
0.015412 -0.023953 0.897000
0.009399 0.008806 0.887000
-0.028838 0.002227 0.884000
0.018442 0.020759 0.883000
-0.014648 -0.019240 0.884000
0.014543 0.006264 0.889000
-0.004050 0.020188 0.874000
-0.015939 0.005085 0.875000
0.001741 -0.022718 0.892000
0.001009 -0.044478 0.894000
-0.028174 -0.044445 0.886000
0.012500 -0.032923 0.900000
0.034482 0.008326 0.875000
-0.015579 0.005445 0.875000
0.008238 0.017429 0.880000
-0.016560 -0.036546 0.889000
0.011018 -0.038850 0.900000
-0.022062 0.002564 0.875000
-0.027747 0.009867 0.884000
0.012125 0.042082 0.873000
0.007265 -0.021297 0.894000
-0.038450 -0.015813 0.896000
0.011047 0.042442 0.873000
0.002776 0.037326 0.871000
-0.019378 -0.026153 0.884000
0.025126 0.013932 0.888000
-0.020470 -0.025789 0.884000
-0.028773 -0.028272 0.882000
0.017695 0.027996 0.882000
-0.035748 -0.008777 0.893000
-0.021702 0.016970 0.875000
-0.017117 -0.010822 0.880000
-0.012577 -0.041075 0.892000
0.014035 0.043125 0.858000
0.011161 0.017468 0.882000
0.027653 0.017202 0.887000
-0.015376 -0.019967 0.884000
0.037953 0.017988 0.872000
0.015292 0.004806 0.890000
0.005650 0.036292 0.872000
-0.017801 -0.006461 0.878000
0.000267 0.027022 0.874000
0.013937 0.042131 0.874000
-0.012945 -0.040340 0.892000
0.029575 0.030433 0.879000
0.028018 0.015377 0.887000
-0.001570 -0.037202 0.896000
-0.032587 -0.017115 0.887000
-0.006308 -0.020058 0.888000
-0.020174 -0.033908 0.887000
0.032469 0.019218 0.879000
-0.029169 -0.033028 0.883000
-0.012712 0.004370 0.876000
-0.006350 -0.037487 0.894000
-0.018224 -0.048183 0.881000
0.008766 -0.027645 0.897000
0.005370 0.011335 0.885000
-0.005583 -0.013494 0.889000
-0.032036 0.009957 0.892000
-0.024163 -0.037152 0.886000
-0.000092 0.030191 0.872000
-0.013357 0.020118 0.871000
0.037910 0.015458 0.871000
0.000644 -0.039872 0.898000
0.003138 0.035215 0.872000
0.018284 -0.021273 0.893000
0.015292 0.001143 0.890000
-0.008906 -0.042176 0.892000
-0.015848 0.034776 0.870000
0.020740 0.009181 0.888000
-0.013526 -0.012662 0.882000
0.008727 -0.007674 0.893000
-0.021801 -0.013342 0.879000
-0.018566 -0.012995 0.880000
-0.000092 0.036567 0.870000
0.013123 -0.001057 0.892000
0.013211 -0.039872 0.898000
-0.015132 0.024034 0.870000
-0.005539 0.005489 0.882000
-0.017039 0.000043 0.876000
0.001700 0.035533 0.871000
0.011406 0.041364 0.873000
-0.002974 0.019490 0.875000
0.027591 0.025905 0.885000
0.020763 -0.003615 0.889000
-0.023380 -0.029791 0.884000
-0.003669 0.035809 0.869000
0.017490 0.000777 0.890000
0.003896 0.014548 0.881000
-0.016583 0.036967 0.871000
0.015103 0.030795 0.879000
-0.010585 -0.050244 0.879000
0.016813 -0.010615 0.893000
0.007462 0.033857 0.874000
0.016989 0.025120 0.883000
-0.011737 -0.013418 0.884000
-0.001891 0.021986 0.874000
-0.010212 -0.050548 0.878000
0.003160 0.017028 0.878000
-0.027019 -0.034885 0.884000
-0.017098 -0.007192 0.879000
-0.022886 -0.014428 0.879000
0.031092 0.010559 0.881000
0.004311 -0.019781 0.892000
-0.015976 -0.001040 0.877000
0.000644 -0.033183 0.897000
-0.023407 0.040475 0.885000
0.026134 0.025541 0.885000
0.003232 -0.036546 0.898000
0.007777 0.045824 0.869000
-0.030099 0.013948 0.889000
0.009105 -0.013202 0.894000
-0.026685 -0.034924 0.885000
0.007867 0.020665 0.879000
0.015059 -0.038024 0.898000
-0.012451 -0.014493 0.883000
-0.013810 0.001848 0.877000
-0.008726 0.014792 0.874000
0.011300 -0.003999 0.893000
0.032793 0.022448 0.878000
0.027257 0.008066 0.886000
-0.006553 0.023013 0.872000
-0.019586 -0.004649 0.877000
-0.008117 -0.008343 0.886000
-0.009076 0.016931 0.873000
0.015043 -0.022476 0.897000
0.002859 -0.035398 0.897000
-0.010489 0.022628 0.871000
-0.017059 -0.003205 0.877000
0.020397 0.000776 0.889000
-0.007396 -0.010178 0.887000
-0.011257 0.008686 0.875000
0.005787 -0.019436 0.893000
0.008600 0.029019 0.880000
-0.010785 0.039606 0.866000
-0.007039 -0.021885 0.888000
-0.004515 -0.037161 0.895000
0.021471 -0.004707 0.888000
-0.010525 0.014432 0.874000
-0.012954 0.033625 0.868000
0.027999 0.038578 0.875000
-0.027352 -0.029757 0.883000
0.018243 -0.001056 0.891000
-0.018864 0.032890 0.877000
0.012313 0.045402 0.861000
0.012799 -0.017269 0.895000
-0.016603 -0.052356 0.872000
0.001751 -0.028752 0.897000
-0.025477 0.014185 0.881000
-0.017781 -0.003566 0.877000
0.006154 -0.015760 0.893000
-0.017479 -0.010460 0.880000
0.022177 0.004425 0.887000
-0.010501 0.017629 0.872000
-0.003307 0.038626 0.868000
-0.006688 -0.044279 0.890000
-0.001193 -0.016440 0.890000
0.014841 0.013521 0.885000
-0.019496 0.010463 0.873000
-0.004485 -0.014592 0.889000
0.008388 -0.043471 0.896000
-0.025390 -0.006100 0.878000
0.005085 -0.037697 0.899000
-0.020261 0.027053 0.875000
0.009797 0.001875 0.890000
0.015916 0.014961 0.884000
-0.023195 -0.002844 0.877000
0.028917 0.029414 0.881000
-0.023275 0.023586 0.880000
-0.023043 0.042661 0.885000
-0.024054 -0.025004 0.882000
-0.016504 -0.046998 0.886000
0.012417 -0.010994 0.894000
-0.014466 -0.052057 0.873000
-0.012032 -0.000318 0.879000
-0.032477 -0.030519 0.884000
-0.033606 -0.032739 0.885000
-0.004050 0.021267 0.874000
-0.008367 0.014432 0.874000
-0.032514 -0.034196 0.885000
-0.026381 -0.043765 0.887000
-0.012582 0.041793 0.867000
-0.000464 -0.030229 0.897000
-0.038364 -0.022033 0.894000
0.003232 -0.037285 0.898000
-0.011923 0.018684 0.871000
0.000626 0.030225 0.873000
-0.022938 -0.021713 0.881000
0.012430 -0.018742 0.895000
-0.001176 0.015925 0.877000
-0.005246 -0.034176 0.894000
0.014081 0.025847 0.883000
-0.022422 0.011207 0.875000
0.019533 0.025847 0.883000
0.006154 -0.012085 0.893000
0.036919 0.009385 0.873000
-0.020957 0.007238 0.874000
-0.020621 0.000043 0.875000
-0.018460 0.003645 0.875000
-0.006343 -0.032667 0.893000
0.021447 0.013552 0.887000
-0.017078 -0.006100 0.878000
-0.013541 -0.014857 0.883000
-0.008916 -0.038180 0.893000
-0.015149 0.020477 0.871000
0.003232 -0.036916 0.898000
0.018630 -0.009501 0.892000
0.013655 0.030071 0.879000
-0.001930 -0.044746 0.892000
0.032432 0.012691 0.878000
0.005063 -0.026110 0.895000
-0.017579 -0.025454 0.885000
0.001350 0.022758 0.876000
-0.030031 0.004790 0.887000
-0.014499 0.006526 0.875000
-0.001891 0.024145 0.874000
-0.013794 0.005091 0.876000
-0.016542 -0.031388 0.888000
0.010994 -0.027676 0.898000
0.007513 0.026846 0.880000
-0.006350 -0.031968 0.894000
0.013263 0.033612 0.877000
0.001751 -0.031337 0.897000
-0.036565 -0.008428 0.895000
-0.000092 0.026303 0.874000
0.002071 0.026363 0.876000
-0.015686 -0.011197 0.881000
0.018284 -0.014290 0.893000
0.009522 0.046681 0.865000
-0.025535 -0.029757 0.883000
-0.018038 0.027678 0.872000
0.006774 0.022448 0.878000
-0.018142 -0.003566 0.877000
0.003235 -0.039547 0.899000
-0.012577 -0.041809 0.892000
-0.013810 -0.050130 0.877000
-0.018224 -0.015186 0.881000
-0.004495 -0.043962 0.891000
-0.017214 -0.024361 0.885000
0.037278 0.009745 0.873000
0.008294 0.011713 0.886000
0.017219 -0.024636 0.895000
-0.010375 -0.028592 0.892000
0.029743 0.017144 0.884000
-0.017273 -0.033946 0.888000
0.013138 -0.006204 0.893000
-0.029863 -0.046092 0.904000
-0.027653 -0.000319 0.881000
-0.014413 -0.041442 0.892000
-0.017700 0.036333 0.873000
-0.028174 0.013172 0.886000
0.009980 0.036375 0.874000
0.008416 -0.033257 0.899000
-0.019608 -0.048741 0.878000
-0.005489 0.020188 0.874000
0.011550 0.013870 0.884000
-0.000833 -0.041305 0.897000
0.037193 0.017609 0.871000
-0.001196 -0.025288 0.892000
0.029902 0.032928 0.878000
-0.009221 -0.021130 0.887000
-0.011511 0.034300 0.867000
-0.008666 0.031481 0.868000
0.018672 -0.024977 0.894000
-0.035380 -0.019436 0.893000
-0.022938 -0.021350 0.881000
0.017595 0.038666 0.877000
-0.014757 0.029729 0.869000
0.010049 0.029019 0.880000
0.012541 0.032890 0.877000
-0.016793 -0.048237 0.882000
-0.022808 0.000043 0.876000
-0.015526 0.013681 0.872000
-0.003698 0.016628 0.876000
0.026498 0.026270 0.885000
-0.036727 -0.027795 0.890000
0.031782 0.014531 0.880000
-0.041585 -0.025144 0.900000
-0.015615 0.000043 0.877000
0.013969 0.036098 0.876000
-0.024389 0.022888 0.881000
-0.013148 -0.053259 0.881000
-0.000095 -0.034252 0.896000
0.011887 0.016379 0.882000
0.001710 0.027805 0.876000
-0.001883 0.034060 0.870000
-0.017292 -0.037643 0.889000
0.022593 -0.003981 0.889000
-0.026595 -0.025367 0.882000
0.007983 -0.007299 0.892000
0.015360 -0.012834 0.894000
0.011887 0.018194 0.882000
-0.020621 0.003645 0.875000
0.000644 -0.038351 0.897000
0.022907 0.001504 0.887000
-0.033758 -0.012762 0.889000
-0.020151 -0.030588 0.886000
0.008397 -0.029860 0.897000
-0.030692 -0.008334 0.885000
0.029541 0.034012 0.878000
0.010060 0.026514 0.881000
0.032180 0.027601 0.881000
0.031782 0.019964 0.880000
-0.014365 -0.032155 0.889000
-0.029566 -0.034521 0.884000
0.011351 -0.025061 0.897000
-0.013449 0.002209 0.877000
0.017715 0.024030 0.883000
-0.034009 -0.024753 0.886000
-0.026202 -0.022075 0.881000
-0.021005 0.025281 0.876000
0.014690 -0.035807 0.898000
-0.009640 -0.035568 0.892000
-0.000818 0.014169 0.880000
-0.018842 0.038261 0.876000
-0.035588 -0.026667 0.889000
-0.013222 -0.024024 0.886000
-0.025898 0.017125 0.883000
-0.024555 -0.050336 0.887000
-0.019510 -0.042448 0.890000
0.014336 -0.032517 0.899000
-0.001166 0.036209 0.870000
0.003944 -0.016477 0.892000
0.001714 0.016305 0.878000
0.011199 0.012428 0.885000
-0.013388 0.014056 0.873000
0.020763 -0.002151 0.889000
-0.010922 0.004375 0.877000
-0.004510 -0.033072 0.894000
-0.019563 -0.001399 0.876000
-0.028474 0.003682 0.884000
0.025491 0.010643 0.888000
0.027591 0.025541 0.885000
-0.025621 -0.036787 0.886000
-0.011463 -0.036628 0.891000
-0.025419 0.005470 0.879000
-0.009211 -0.020013 0.886000
0.000625 0.033741 0.871000
0.027671 0.037901 0.876000
0.023975 0.019006 0.886000
-0.004142 -0.036015 0.894000
-0.014030 -0.038095 0.891000
-0.025228 -0.034560 0.885000
0.015781 -0.026168 0.897000
-0.022163 0.027539 0.879000
-0.010885 0.014072 0.874000
-0.016523 -0.030622 0.887000
-0.033606 -0.028732 0.885000
0.016851 -0.027952 0.895000
-0.008501 -0.045642 0.888000
0.011511 0.020349 0.881000
-0.026535 -0.019153 0.880000
0.015051 0.038622 0.876000
0.013578 0.040692 0.874000
-0.025781 -0.013704 0.879000
0.020787 -0.009480 0.890000
-0.010200 0.006541 0.877000
0.025319 0.032352 0.882000
0.006419 0.028986 0.879000
-0.023380 -0.030519 0.884000
-0.023433 -0.035328 0.886000
-0.022601 0.039249 0.882000
-0.028142 -0.045852 0.885000
0.013596 -0.038067 0.899000
0.011237 0.009181 0.888000
-0.018024 -0.038375 0.889000
-0.000094 -0.011691 0.891000
0.020397 -0.001786 0.889000
-0.024135 -0.032010 0.885000
-0.004480 -0.017865 0.888000
-0.029862 -0.015203 0.882000
-0.022912 0.028294 0.880000
-0.010585 0.001852 0.879000
-0.032367 0.004078 0.891000
0.003949 -0.013555 0.893000
0.002440 0.016324 0.879000
0.021302 0.030502 0.881000
-0.023486 -0.042352 0.888000
-0.026866 -0.009725 0.879000
-0.035548 -0.028098 0.888000
0.009473 -0.020561 0.894000
-0.006343 -0.034137 0.893000
-0.011463 -0.035528 0.891000
0.019896 0.025120 0.883000
0.011806 0.035016 0.876000
0.015535 0.025483 0.883000
-0.017000 -0.050318 0.874000
-0.026291 0.018599 0.884000
-0.015866 0.019760 0.871000
0.011338 -0.023926 0.896000
-0.005576 -0.014210 0.888000
0.004215 0.035933 0.872000
-0.017000 0.006158 0.874000
0.024056 0.010655 0.889000
-0.019466 -0.045642 0.888000
0.012458 -0.025061 0.897000
0.015429 -0.030632 0.898000
-0.031492 -0.005432 0.887000
-0.023917 0.009789 0.877000
-0.005583 -0.013128 0.889000
0.006354 0.045877 0.870000
0.016832 -0.014674 0.894000
0.013857 -0.001424 0.892000
-0.001563 -0.043645 0.892000
0.010411 0.020688 0.880000
0.007650 -0.027245 0.896000
0.037551 0.016175 0.871000
0.030073 0.020759 0.883000
-0.009839 -0.050852 0.877000
-0.014449 0.016552 0.872000
0.001013 -0.035398 0.897000
0.023325 0.009191 0.889000
0.011047 0.040286 0.873000
-0.025810 0.008374 0.880000
-0.015148 -0.043645 0.892000
0.013152 -0.010994 0.894000
-0.024555 -0.038289 0.887000
0.015026 -0.019501 0.896000
0.011389 -0.034035 0.900000
-0.019378 -0.024697 0.884000
0.001741 -0.022351 0.892000
0.016391 0.001143 0.890000
0.004239 0.024227 0.877000
0.032107 0.012706 0.879000
0.014297 0.041052 0.874000
-0.013668 0.042199 0.868000
-0.033910 0.001514 0.893000
0.031057 0.028294 0.880000
-0.016244 0.041316 0.872000
-0.035748 -0.009144 0.893000
-0.016641 0.007957 0.874000
-0.013282 -0.034023 0.890000
0.011085 0.033935 0.876000
-0.012712 0.006533 0.876000
-0.009065 0.020500 0.872000
-0.013058 0.006526 0.875000
0.020321 0.040159 0.855000
0.029048 0.019713 0.885000
-0.029499 -0.027909 0.882000
-0.026988 0.011310 0.883000
0.014690 -0.035437 0.898000
-0.005176 0.006941 0.882000
-0.034413 -0.025146 0.887000
0.011589 0.010631 0.887000
-0.018692 -0.030223 0.886000
-0.011009 -0.006869 0.884000
-0.025751 -0.008629 0.878000
-0.030294 -0.009052 0.884000
-0.015597 0.002928 0.876000
0.019019 -0.021273 0.893000
-0.004480 -0.019692 0.888000
0.016132 -0.029089 0.896000
0.031092 0.009109 0.881000
