-0.017548 -0.037949 0.942000
-0.040075 -0.010234 0.925000
0.040157 0.016597 0.914000
-0.013156 0.005806 0.933000
0.010801 0.032362 0.913000
-0.007276 0.038584 0.918000
-0.034608 -0.023604 0.942000
0.015721 0.021135 0.915000
-0.014028 -0.034773 0.940000
0.022104 -0.017944 0.930000
-0.001973 0.044338 0.912000
0.001434 -0.030225 0.931000
-0.041778 -0.012954 0.929000
-0.001228 0.042647 0.916000
-0.040080 -0.006489 0.934000
0.004064 0.026144 0.919000
0.026818 -0.005641 0.921000
0.001413 0.036278 0.917000
-0.024579 -0.031036 0.944000
0.002556 0.018241 0.921000
-0.025554 -0.000725 0.937000
0.023578 0.003051 0.913000
0.001816 -0.024834 0.930000
0.031160 0.026834 0.904000
-0.021470 -0.036087 0.944000
-0.005102 -0.031895 0.935000
-0.007292 0.036396 0.920000
0.018001 0.003061 0.916000
-0.037572 -0.011043 0.929000
0.024453 -0.016065 0.932000
0.024956 0.034302 0.895000
0.012046 -0.011718 0.922000
0.019821 0.011318 0.913000
0.031162 0.003811 0.915000
0.010160 0.004984 0.923000
0.011604 0.014387 0.917000
0.018047 -0.028522 0.938000
-0.018957 -0.000723 0.935000
0.003325 0.014497 0.924000
0.001416 0.027657 0.919000
0.024056 0.029316 0.889000
-0.014802 -0.033226 0.940000
0.031991 0.031759 0.896000
-0.010910 -0.030067 0.938000
0.014984 0.022289 0.916000
0.021534 -0.013236 0.922000
0.013028 0.036040 0.911000
0.032793 0.014246 0.908000
-0.002023 -0.040746 0.935000
-0.009741 -0.031577 0.937000
-0.004717 -0.034973 0.935000
0.012778 0.002317 0.920000
-0.006627 -0.013778 0.933000
0.022827 0.006057 0.913000
0.004846 0.010314 0.924000
0.033319 0.029002 0.902000
0.008448 -0.045412 0.944000
-0.025248 -0.007304 0.940000
-0.035383 -0.018951 0.942000
-0.005086 -0.018366 0.932000
-0.016263 -0.003032 0.935000
0.030046 0.031285 0.893000
0.013271 -0.027454 0.928000
-0.012042 -0.006118 0.936000
0.032222 0.006809 0.913000
-0.011926 0.021030 0.927000
-0.016630 0.003506 0.934000
-0.006283 -0.040534 0.939000
-0.007427 -0.038905 0.937000
-0.012029 -0.014962 0.935000
-0.026437 -0.008861 0.941000
0.017566 0.015828 0.913000
0.016962 -0.015117 0.921000
0.017942 0.015828 0.913000
0.008612 0.012541 0.920000
-0.005777 0.037911 0.920000
0.018257 0.030008 0.910000
0.008287 -0.022059 0.926000
-0.026853 -0.015462 0.942000
0.030856 0.018316 0.906000
0.012588 -0.033398 0.934000
0.026206 0.035605 0.900000
-0.022153 -0.013495 0.940000
0.025112 -0.012558 0.928000
0.024277 0.012418 0.911000
0.006368 0.008793 0.924000
0.019821 0.012821 0.913000
0.018337 0.012083 0.914000
0.011238 0.026116 0.918000
0.006675 0.037288 0.914000
0.000281 0.036695 0.918000
0.016045 0.027822 0.912000
0.023076 0.028074 0.908000
-0.005865 -0.025710 0.934000
-0.008941 -0.019559 0.934000
0.008207 0.020803 0.917000
-0.016754 -0.019318 0.941000
0.026597 -0.018524 0.940000
-0.033473 -0.001872 0.932000
0.038439 0.005769 0.927000
0.009492 -0.034861 0.932000
-0.030149 -0.004191 0.936000
0.010908 0.006117 0.922000
0.006382 -0.012150 0.926000
-0.030439 -0.022901 0.945000
0.000281 0.032196 0.919000
-0.022636 -0.038030 0.944000
0.003758 -0.046232 0.937000
0.022694 0.034226 0.893000
0.005656 -0.000721 0.932000
-0.005796 0.026638 0.923000
-0.021836 -0.029063 0.943000
0.013099 0.027190 0.916000
0.004485 -0.023253 0.928000
0.025027 0.009794 0.911000
0.004059 0.033672 0.918000
0.040401 0.018793 0.911000
0.006382 -0.001860 0.926000
0.030177 0.014620 0.908000
-0.027241 -0.012748 0.942000
0.002545 0.035900 0.917000
-0.018128 0.007334 0.932000
0.001416 0.028035 0.919000
0.031673 -0.004930 0.930000
0.006770 -0.007585 0.927000
-0.000099 -0.040318 0.934000
-0.009965 0.030404 0.922000
0.017956 0.036881 0.895000
0.030584 0.010520 0.909000
-0.025663 -0.011960 0.941000
-0.037572 -0.010278 0.929000
-0.027356 -0.032270 0.946000
0.043592 0.015241 0.923000
0.020241 0.001928 0.915000
-0.001241 0.016053 0.926000
0.019696 -0.029451 0.943000
-0.017231 0.019462 0.925000
-0.025744 -0.024042 0.944000
-0.033832 -0.020890 0.942000
0.005255 -0.029013 0.929000
-0.011849 0.029234 0.921000
0.028246 0.025774 0.906000
-0.001635 -0.032594 0.933000
-0.027212 -0.007699 0.941000
0.003343 -0.023278 0.929000
0.009780 0.004984 0.923000
-0.024036 -0.002656 0.938000
-0.031939 -0.040615 0.932000
-0.009710 -0.012640 0.934000
0.024972 0.019874 0.909000
-0.012068 -0.033155 0.938000
-0.022200 -0.018176 0.942000
-0.037410 -0.004523 0.925000
-0.012799 -0.012653 0.935000
0.018398 -0.003351 0.917000
-0.002754 0.024712 0.922000
-0.005411 0.031922 0.922000
-0.028076 -0.022488 0.944000
0.016080 0.016221 0.914000
0.003685 0.026522 0.919000
-0.028914 -0.033049 0.946000
-0.025856 -0.043393 0.934000
-0.007788 -0.005720 0.934000
0.028713 0.012391 0.909000
-0.009255 0.019123 0.927000
0.014968 0.011343 0.915000
-0.002017 -0.013763 0.932000
0.000285 -0.034094 0.932000
-0.005091 -0.021842 0.933000
0.020925 0.013933 0.912000
-0.015980 -0.023966 0.941000
-0.018651 -0.045558 0.939000
-0.005740 0.042554 0.914000
0.031904 0.024601 0.904000
0.012749 -0.040836 0.946000
-0.008864 0.020626 0.926000
-0.016772 -0.042602 0.942000
0.003685 0.028792 0.919000
0.028991 0.022045 0.906000
-0.018611 -0.011138 0.937000
0.033240 -0.003403 0.931000
0.022795 -0.015216 0.927000
0.015738 0.005700 0.916000
-0.003559 -0.035320 0.934000
-0.013627 -0.030099 0.939000
0.026953 0.030745 0.888000
0.019006 0.028884 0.910000
-0.024941 -0.023629 0.943000
0.000668 -0.012982 0.931000
0.009400 -0.004893 0.923000
-0.026465 -0.017013 0.942000
-0.018977 -0.004962 0.936000
0.010483 0.012892 0.918000
0.042072 0.013722 0.923000
0.026872 0.009034 0.910000
0.024652 0.007169 0.911000
0.019675 -0.028644 0.942000
-0.001247 -0.016030 0.930000
-0.034220 -0.023216 0.942000
0.032648 0.023485 0.904000
0.011434 -0.034551 0.934000
-0.040499 -0.010245 0.926000
0.001413 0.039297 0.917000
-0.000476 0.027687 0.920000
0.018317 0.014325 0.913000
-0.032636 -0.003399 0.930000
0.024223 0.018003 0.909000
0.008287 -0.021297 0.926000
-0.020283 -0.037601 0.943000
-0.000475 0.033709 0.919000
-0.019853 -0.024353 0.941000
-0.018206 -0.003036 0.936000
-0.009355 -0.030806 0.937000
0.004524 -0.043871 0.936000
0.002970 -0.038313 0.932000
-0.000099 -0.045558 0.939000
-0.014400 -0.029712 0.939000
0.002587 -0.006859 0.932000
-0.007679 0.034541 0.921000
0.004126 -0.040275 0.933000
0.017623 0.001930 0.916000
0.032383 0.016470 0.907000
-0.001984 0.042316 0.917000
-0.030278 -0.008465 0.940000
-0.001624 0.014926 0.927000
-0.017343 0.009242 0.931000
-0.016297 -0.014994 0.937000
-0.033868 -0.026346 0.943000
-0.000867 -0.032978 0.933000
-0.014384 -0.018871 0.938000
0.012792 -0.008673 0.921000
-0.025222 -0.004978 0.939000
-0.000097 0.032953 0.919000
0.011981 0.023823 0.917000
0.024002 0.031440 0.887000
0.008584 0.019294 0.917000
-0.025356 -0.025985 0.944000
0.016888 -0.001087 0.917000
-0.011657 -0.004191 0.936000
-0.003939 -0.012242 0.933000
-0.017142 -0.044880 0.941000
0.002196 -0.022131 0.929000
0.015395 -0.004111 0.918000
0.026123 0.010907 0.910000
0.009674 0.036119 0.913000
-0.003563 -0.038822 0.935000
-0.009997 0.024411 0.925000
0.000285 -0.032943 0.932000
0.001051 -0.027543 0.931000
-0.006585 0.018360 0.927000
0.027500 0.028012 0.906000
0.027864 -0.001844 0.918000
0.011214 0.021158 0.916000
0.004117 -0.034057 0.931000
-0.033127 -0.025985 0.944000
0.011895 -0.038255 0.940000
0.019615 -0.013601 0.921000
-0.025222 -0.004591 0.939000
0.022451 0.003803 0.913000
-0.006606 0.009615 0.930000
0.012305 0.032362 0.913000
-0.030502 -0.003417 0.935000
-0.031640 -0.028376 0.946000
-0.009910 0.037787 0.917000
-0.009365 -0.029681 0.938000
-0.003151 0.016070 0.927000
-0.014613 0.016470 0.928000
0.008650 0.004229 0.924000
0.032776 0.004579 0.918000
0.010149 0.007256 0.922000
0.028277 0.017590 0.907000
0.008864 0.040362 0.907000
-0.027241 -0.012360 0.942000
-0.009335 -0.021504 0.935000
-0.008137 0.013443 0.930000
0.018317 0.016203 0.913000
-0.019017 -0.013080 0.938000
-0.014707 0.003506 0.934000
0.007051 0.038792 0.914000
0.024584 -0.019236 0.937000
0.015050 -0.009042 0.920000
-0.006535 0.036396 0.920000
0.038066 0.012136 0.918000
-0.015963 -0.025101 0.940000
-0.005796 0.028157 0.923000
0.004857 -0.016724 0.926000
0.020130 0.024390 0.910000
-0.031250 -0.029934 0.946000
0.019090 0.008321 0.914000
0.029737 0.022045 0.906000
-0.022976 -0.021665 0.942000
-0.019341 0.001970 0.935000
0.009533 -0.038478 0.936000
0.008180 0.035407 0.914000
0.001049 -0.016778 0.929000
-0.005481 -0.009949 0.934000
-0.008556 -0.010718 0.934000
0.023177 0.008678 0.912000
-0.032738 -0.024042 0.944000
0.008278 -0.018609 0.925000
0.013838 0.014732 0.915000
-0.000851 0.042270 0.916000
0.009400 0.006124 0.923000
0.017066 0.033996 0.887000
0.005710 -0.046429 0.941000
-0.036307 -0.005671 0.926000
-0.017783 0.001968 0.934000
0.003340 -0.014850 0.928000
-0.034571 -0.015833 0.941000
-0.008041 0.036357 0.919000
0.025402 0.006419 0.911000
0.021438 0.038283 0.902000
-0.001610 0.034844 0.919000
-0.022707 0.004261 0.931000
0.011654 -0.003745 0.921000
0.010471 0.016652 0.917000
0.027682 0.005300 0.912000
0.001434 -0.028693 0.931000
-0.023000 -0.030615 0.943000
-0.007788 -0.009949 0.934000
-0.000099 -0.033710 0.932000
0.002175 0.022007 0.920000
-0.007788 -0.004951 0.934000
0.009844 -0.031308 0.929000
-0.000483 -0.041087 0.934000
0.018985 0.031472 0.909000
-0.004667 0.019081 0.925000
-0.017417 0.000431 0.935000
0.024779 0.036798 0.902000
0.029639 0.029406 0.903000
0.017341 -0.014738 0.921000
-0.007019 -0.006105 0.934000
-0.021448 -0.040706 0.943000
-0.000098 -0.012599 0.931000
0.009030 0.002327 0.924000
0.017171 0.026696 0.912000
0.019528 -0.024583 0.935000
-0.032704 -0.017419 0.943000
-0.008529 0.010392 0.931000
0.021699 0.008688 0.913000
0.007090 0.028035 0.919000
0.020374 0.033303 0.888000
0.000671 -0.043824 0.935000
0.030958 0.012391 0.909000
-0.008050 0.035260 0.920000
-0.017287 0.013032 0.928000
0.029023 0.017217 0.907000
-0.012454 -0.020801 0.938000
-0.029272 -0.022901 0.945000
-0.021859 -0.033756 0.944000
0.014772 0.036839 0.903000
0.008278 -0.004523 0.925000
0.002576 -0.017524 0.928000
0.018898 -0.016290 0.923000
0.019006 0.027386 0.910000
0.021324 0.007561 0.913000
0.004481 -0.016742 0.927000
0.029559 0.006051 0.912000
0.009030 -0.000335 0.924000
0.010908 0.007256 0.922000
0.016379 -0.026394 0.931000
0.034547 0.020159 0.905000
-0.026882 -0.018971 0.943000
-0.009751 -0.036630 0.938000
-0.018691 -0.030937 0.941000
0.009118 -0.036818 0.933000
0.007829 0.022313 0.917000
0.012020 -0.003362 0.920000
-0.018691 -0.029388 0.941000
0.027773 0.000422 0.915000
0.004820 0.021227 0.919000
0.031367 0.009408 0.910000
0.015412 -0.007519 0.919000
0.020174 0.016936 0.912000
0.026209 0.003051 0.913000
0.010920 -0.012871 0.923000
-0.020970 -0.011934 0.939000
-0.016158 0.013428 0.929000
0.006388 -0.006440 0.927000
-0.014930 0.021343 0.924000
-0.040880 -0.012150 0.926000
-0.030472 -0.029544 0.946000
0.023604 0.000798 0.914000
0.026783 0.021323 0.907000
0.026813 0.016488 0.908000
-0.009355 -0.034277 0.937000
0.042590 0.012242 0.926000
0.014153 0.034540 0.911000
-0.033868 -0.029063 0.943000
0.016780 -0.026422 0.932000
-0.009295 0.011541 0.931000
0.043543 0.021488 0.914000
0.028471 -0.014624 0.938000
0.027591 0.010895 0.909000
-0.004702 -0.021052 0.932000
-0.011272 -0.005347 0.936000
-0.001628 0.013428 0.929000
-0.021720 -0.043965 0.938000
0.026843 0.012391 0.909000
0.006000 -0.001098 0.926000
0.019006 0.030008 0.910000
-0.029179 -0.011197 0.942000
0.015395 -0.003355 0.918000
0.030542 0.000802 0.919000
0.017981 0.022264 0.915000
0.010540 -0.015530 0.923000
-0.015793 0.011529 0.930000
0.030974 -0.007242 0.932000
0.002210 -0.043824 0.935000
0.043403 0.017823 0.919000
0.013899 -0.002981 0.919000
0.012736 0.009481 0.917000
0.023220 0.031005 0.885000
0.022451 0.003427 0.913000
-0.006176 0.027398 0.923000
-0.015311 0.020962 0.924000
0.025692 0.022468 0.908000
-0.017783 0.003121 0.934000
-0.021470 -0.039195 0.944000
-0.006542 0.035678 0.921000
-0.010105 -0.003802 0.935000
-0.008120 0.016470 0.928000
0.024543 0.026549 0.907000
-0.023339 -0.016607 0.941000
-0.010747 0.026667 0.924000
0.007838 0.026871 0.918000
0.024570 -0.009441 0.922000
0.007829 0.020426 0.917000
-0.011520 0.024792 0.925000
0.019842 0.008321 0.914000
0.014703 -0.015134 0.922000
-0.001989 0.037113 0.919000
0.019348 -0.031458 0.945000
0.019994 -0.013222 0.921000
-0.010019 0.017978 0.927000
0.022080 -0.017160 0.929000
0.016869 0.005323 0.916000
-0.026739 -0.040490 0.938000
-0.009689 0.009636 0.932000
0.020879 0.024390 0.910000
0.038398 0.006525 0.926000
0.031470 0.006433 0.913000
-0.010677 0.034806 0.918000
0.014607 0.008716 0.916000
-0.005422 0.022103 0.924000
-0.005411 0.028506 0.922000
-0.026967 -0.031880 0.946000
0.016133 0.000800 0.917000
-0.010524 -0.035858 0.938000
0.020276 -0.022634 0.934000
-0.018957 0.001585 0.935000
0.031532 0.023857 0.904000
-0.020283 -0.039930 0.943000
0.003372 -0.046232 0.937000
-0.015559 -0.028166 0.939000
0.038949 0.012176 0.921000
-0.024062 -0.004205 0.939000
-0.028525 -0.030323 0.946000
-0.006936 0.030817 0.923000
0.020505 0.023641 0.910000
0.012736 0.025332 0.917000
0.002213 -0.045412 0.936000
0.030685 0.006426 0.912000
-0.013113 0.013060 0.930000
-0.008172 -0.005720 0.934000
-0.000853 0.036317 0.918000
-0.014013 -0.028939 0.939000
-0.040631 -0.014484 0.929000
0.013256 -0.025517 0.927000
-0.032316 -0.016255 0.943000
-0.000478 0.018300 0.924000
0.012291 0.036080 0.912000
-0.033832 -0.016237 0.942000
-0.029661 -0.034958 0.945000
0.010801 0.034616 0.913000
0.009780 -0.011351 0.923000
0.026193 0.029250 0.887000
0.025720 0.015758 0.909000
0.039071 0.014732 0.915000
0.024517 -0.007906 0.920000
0.013056 0.030859 0.913000
-0.032179 -0.010002 0.939000
0.013476 0.027567 0.916000
-0.011657 -0.006118 0.936000
-0.005771 0.039761 0.919000
-0.006936 0.029297 0.923000
0.021771 -0.002971 0.916000
0.007182 -0.035973 0.931000
-0.012799 0.000431 0.935000
0.020950 0.030687 0.897000
-0.006183 0.024765 0.924000
-0.023339 -0.016995 0.941000
0.011968 0.019273 0.916000
-0.014043 -0.039071 0.941000
0.034919 0.021276 0.905000
0.019381 0.029634 0.910000
0.009727 0.025360 0.918000
-0.032350 -0.023654 0.944000
0.020363 -0.025434 0.938000
0.018526 0.033265 0.887000
0.015001 0.001932 0.917000
0.001049 -0.015631 0.929000
0.015213 -0.026748 0.930000
0.029151 0.007169 0.911000
0.001794 0.029927 0.919000
-0.005487 -0.033049 0.935000
-0.003123 0.037113 0.919000
0.015988 0.034399 0.888000
0.010050 0.036119 0.913000
-0.008102 0.019864 0.926000
0.013868 0.023823 0.917000
0.001439 -0.042240 0.934000
0.023127 -0.013279 0.925000
0.016354 0.033668 0.888000
0.031741 0.010907 0.910000
0.005619 -0.018629 0.926000
0.009400 0.006504 0.923000
0.019020 -0.033509 0.948000
-0.008146 0.008476 0.931000
0.001038 0.032574 0.919000
-0.008529 0.011925 0.931000
-0.014154 0.022839 0.923000
-0.006535 0.037911 0.920000
0.016528 -0.004489 0.918000
-0.017821 -0.007659 0.936000
-0.015189 -0.035160 0.940000
-0.031019 -0.037442 0.939000
-0.002793 -0.041130 0.935000
0.004867 -0.026691 0.928000
-0.013627 -0.032031 0.939000
0.021347 0.004559 0.914000
-0.028374 -0.037909 0.941000
0.035526 0.012418 0.911000
-0.016505 0.016070 0.927000
0.025720 0.016507 0.909000
0.035370 0.016843 0.907000
0.012359 0.012123 0.917000
-0.017142 -0.030937 0.941000
-0.004272 0.026230 0.922000
-0.007371 0.013443 0.930000
0.026556 0.005300 0.912000
0.008395 -0.041649 0.938000
-0.019507 -0.036437 0.943000
0.018526 0.032900 0.887000
-0.008989 -0.026620 0.939000
0.010528 0.004979 0.922000
-0.018691 -0.017382 0.941000
-0.026493 -0.017419 0.943000
-0.022177 -0.041782 0.941000
-0.033820 -0.005702 0.931000
-0.007316 0.028537 0.923000
-0.008163 -0.013778 0.933000
0.018693 0.021464 0.913000
0.021842 -0.008276 0.919000
0.013476 0.021535 0.916000
-0.013540 0.006574 0.933000
0.035463 0.000428 0.929000
-0.021037 -0.041826 0.942000
-0.025828 0.001582 0.933000
-0.012414 -0.008035 0.935000
-0.010875 -0.002648 0.935000
-0.039313 -0.007569 0.925000
-0.016683 -0.014608 0.937000
0.019517 0.037786 0.899000
-0.025608 -0.003818 0.939000
0.017643 -0.004106 0.917000
-0.004318 -0.014531 0.932000
0.032892 -0.004557 0.932000
-0.005020 0.037911 0.920000
-0.014216 0.019123 0.927000
0.016168 -0.008654 0.919000
-0.009255 0.018741 0.927000
-0.002017 -0.010311 0.932000
-0.030082 -0.026819 0.946000
-0.014354 -0.016904 0.936000
0.022377 0.019896 0.910000
-0.029693 -0.033438 0.946000
-0.013482 0.014193 0.929000
0.036117 0.016843 0.907000
0.004862 -0.004533 0.927000
0.034080 -0.003794 0.933000
0.022827 0.005306 0.913000
0.033026 0.000046 0.925000
-0.025356 -0.027539 0.944000
0.017209 0.014716 0.914000
0.023475 0.023989 0.909000
-0.033516 -0.026374 0.944000
-0.019445 -0.016590 0.940000
-0.019362 -0.001880 0.936000
-0.032322 -0.040231 0.932000
-0.028792 -0.010422 0.942000
0.017341 -0.013222 0.921000
-0.033711 -0.003392 0.928000
-0.008015 0.040385 0.916000
-0.007011 -0.018770 0.933000
0.002961 -0.027102 0.929000
0.025290 0.027296 0.907000
-0.025499 -0.043055 0.935000
-0.010299 0.037073 0.918000
-0.002023 -0.042285 0.935000
-0.003517 0.022839 0.923000
-0.003521 0.020582 0.924000
0.022771 -0.014056 0.926000
-0.030472 -0.027987 0.946000
0.011929 0.031610 0.913000
-0.010411 0.017233 0.928000
-0.001630 -0.020241 0.930000
-0.023364 -0.022441 0.942000
-0.003935 -0.020284 0.932000
0.023126 0.019521 0.910000
0.004857 -0.017105 0.926000
-0.002405 -0.033783 0.934000
-0.007403 -0.021866 0.934000
-0.004646 0.035299 0.921000
-0.017160 -0.040275 0.942000
0.007501 0.010683 0.923000
-0.015124 -0.003036 0.936000
0.020397 0.033706 0.889000
0.002584 -0.034057 0.931000
-0.028314 -0.038988 0.939000
-0.020562 -0.012308 0.938000
-0.033365 -0.042396 0.929000
0.006078 -0.044737 0.938000
-0.001249 -0.010695 0.932000
0.008034 -0.043718 0.941000
0.001427 0.012623 0.926000
0.010072 0.031679 0.915000
-0.013968 -0.016519 0.936000
-0.016701 -0.016168 0.938000
0.012033 -0.000334 0.921000
-0.017916 -0.029388 0.941000
-0.012427 -0.019601 0.936000
0.032928 -0.005330 0.933000
-0.022707 0.003495 0.931000
0.014788 0.035391 0.904000
-0.002784 -0.009927 0.932000
-0.029536 -0.008861 0.941000
0.025663 0.024683 0.907000
0.015149 -0.040226 0.950000
0.032645 -0.000716 0.925000
-0.032392 -0.005720 0.934000
0.018001 -0.000332 0.916000
0.020482 0.027730 0.909000
-0.032704 -0.022464 0.943000
-0.026825 -0.010023 0.941000
-0.003551 -0.025271 0.932000
0.034509 0.020881 0.904000
-0.029987 -0.012373 0.943000
-0.024062 -0.007297 0.939000
0.028682 -0.002605 0.920000
-0.002727 0.044386 0.913000
-0.036003 -0.006829 0.928000
-0.037872 -0.004151 0.927000
0.006887 -0.046140 0.943000
0.029737 0.020927 0.906000
-0.036779 -0.017121 0.948000
0.023456 0.034264 0.894000
-0.003168 -0.022586 0.932000
-0.022829 0.000817 0.936000
0.008269 0.003088 0.924000
-0.003555 -0.029906 0.933000
-0.010828 0.011925 0.931000
-0.024553 -0.026346 0.943000
-0.033618 -0.046085 0.958000
0.024944 0.025084 0.908000
-0.010524 -0.036630 0.938000
-0.000097 0.038206 0.918000
0.023501 0.016150 0.910000
-0.026493 -0.019359 0.943000
0.025805 0.005300 0.912000
-0.023499 -0.045985 0.932000
0.019530 -0.005616 0.917000
0.015086 -0.033438 0.946000
-0.011115 0.027778 0.923000
0.001437 -0.039891 0.933000
0.029215 0.003803 0.913000
0.000659 0.036695 0.918000
-0.014723 -0.008420 0.935000
-0.035733 -0.016995 0.941000
-0.006634 -0.010718 0.934000
0.017035 -0.020894 0.925000
-0.023751 -0.020502 0.942000
0.013417 0.033828 0.912000
0.005198 0.026901 0.919000
0.038234 0.015076 0.913000
-0.029148 -0.008861 0.941000
-0.009647 0.016852 0.928000
0.001035 0.040429 0.917000
0.009390 0.009532 0.922000
0.015927 -0.023609 0.927000
0.041525 0.021042 0.911000
-0.021697 -0.044689 0.937000
0.005244 -0.004914 0.927000
0.009791 -0.016307 0.924000
0.030276 0.007919 0.911000
0.045673 0.020849 0.919000
0.012345 0.015126 0.916000
-0.011248 -0.011486 0.934000
-0.029599 -0.014702 0.943000
0.007932 -0.032072 0.929000
-0.013184 -0.008035 0.935000
-0.028046 -0.013926 0.943000
0.015697 -0.030388 0.936000
-0.032426 -0.038437 0.935000
0.022027 0.015418 0.911000
-0.035033 -0.024793 0.943000
-0.007403 -0.022634 0.934000
-0.030050 -0.020567 0.945000
0.007923 -0.029746 0.928000
0.019111 0.002681 0.915000
0.008753 -0.038437 0.935000
-0.009679 0.011925 0.931000
-0.002408 -0.040361 0.935000
0.023682 -0.004484 0.917000
0.007752 0.039285 0.908000
0.008386 -0.040833 0.937000
-0.010875 -0.008035 0.935000
0.020174 0.013183 0.912000
0.013974 -0.020110 0.924000
-0.028314 -0.004591 0.939000
-0.011644 0.000046 0.935000
-0.022636 -0.039195 0.944000
0.012722 0.027567 0.916000
0.004086 0.011455 0.924000
0.041845 0.016292 0.918000
-0.006606 0.010381 0.930000
-0.005069 0.011517 0.929000
-0.020606 -0.016203 0.940000
-0.005475 -0.022226 0.933000
0.045722 0.020114 0.920000
-0.003120 0.041229 0.918000
-0.028547 -0.000338 0.934000
-0.027838 -0.000724 0.936000
0.033349 0.008312 0.913000
-0.004652 0.026988 0.922000
-0.000869 -0.044594 0.935000
0.006741 0.012582 0.923000
0.017490 0.035209 0.890000
-0.029661 -0.023290 0.945000
0.013403 0.035290 0.911000
0.014246 0.006084 0.917000
0.013256 -0.026280 0.927000
-0.004657 0.023599 0.923000
0.014528 0.034540 0.911000
-0.017069 -0.014994 0.937000
-0.032706 -0.005324 0.932000
-0.014644 0.013443 0.930000
0.030822 0.020904 0.905000
-0.024888 -0.039845 0.941000
0.018673 0.019189 0.912000
-0.021859 -0.039584 0.944000
-0.040456 -0.009472 0.925000
0.023254 -0.001461 0.915000
-0.016683 -0.015765 0.937000
0.024374 -0.014101 0.929000
-0.010817 0.012677 0.930000
0.032865 0.010907 0.910000
-0.012799 -0.000723 0.935000
-0.012662 0.023269 0.925000
-0.021402 -0.017382 0.941000
0.025076 -0.021255 0.941000
-0.007395 -0.016466 0.933000
-0.023339 -0.041007 0.941000
0.029212 -0.012680 0.937000
-0.006606 0.008850 0.930000
-0.019895 -0.033720 0.943000
-0.016996 0.004270 0.933000
0.008631 0.011430 0.922000
0.022593 0.032609 0.889000
0.007846 0.014797 0.919000
-0.017897 -0.025875 0.940000
0.024890 -0.016484 0.934000
0.008189 0.033562 0.915000
0.016151 -0.001466 0.918000
0.014758 -0.040617 0.950000
-0.022035 -0.046903 0.935000
-0.011632 -0.011102 0.934000
0.031567 0.019786 0.905000
-0.000481 -0.022538 0.930000
-0.014833 -0.042989 0.942000
0.009822 -0.027806 0.927000
-0.016754 -0.023191 0.941000
-0.000868 -0.041471 0.934000
-0.015980 -0.023579 0.941000
0.031253 0.032128 0.896000
0.008659 -0.021274 0.925000
0.017228 0.023018 0.915000
0.006375 -0.014802 0.925000
0.000286 -0.044209 0.935000
-0.018304 -0.029388 0.941000
-0.005387 0.040096 0.918000
0.035081 0.000428 0.929000
-0.007779 -0.013778 0.933000
0.003347 -0.032490 0.930000
-0.005096 -0.028016 0.934000
-0.008447 0.032681 0.922000
-0.015691 0.019821 0.924000
0.029061 -0.001848 0.920000
0.026094 0.016881 0.909000
-0.001253 -0.044209 0.935000
0.011604 0.027974 0.917000
0.008269 0.002708 0.924000
-0.003127 0.034503 0.920000
0.030856 0.017944 0.906000
0.019445 0.014700 0.913000
-0.013198 -0.018445 0.936000
0.009727 0.026494 0.918000
0.027138 -0.012229 0.932000
0.026931 0.005675 0.912000
-0.005422 0.021723 0.924000
-0.024980 -0.047035 0.930000
-0.033089 -0.039848 0.932000
0.025409 0.035156 0.898000
0.008556 0.034278 0.914000
-0.017268 0.014544 0.927000
0.008706 -0.033255 0.930000
0.045623 0.021204 0.918000
0.001036 0.036317 0.918000
-0.032316 -0.021688 0.943000
0.010149 -0.007924 0.922000
0.020528 -0.018670 0.928000
0.035196 0.004979 0.922000
-0.004267 0.033782 0.921000
-0.018304 -0.044106 0.941000
0.019799 0.015810 0.912000
0.024996 -0.019257 0.938000
-0.012401 0.003506 0.934000
0.024732 0.031075 0.887000
-0.016736 -0.018524 0.940000
0.014984 0.007962 0.916000
-0.017548 -0.022441 0.942000
0.007525 -0.022441 0.926000
0.010083 0.019273 0.916000
-0.010910 -0.033927 0.938000
-0.009668 0.013826 0.930000
0.031916 0.004941 0.915000
0.027157 0.020203 0.907000
0.005955 0.017066 0.919000
0.008584 0.031371 0.917000
-0.022468 -0.002268 0.937000
-0.003171 -0.011858 0.933000
-0.022200 -0.026318 0.942000
0.041286 0.021864 0.914000
-0.014354 -0.001880 0.936000
-0.029241 -0.017049 0.944000
0.004846 0.012596 0.924000
-0.002754 0.023573 0.922000
-0.008538 0.007334 0.932000
-0.005422 0.022864 0.924000
-0.009997 0.024031 0.925000
0.000281 0.034050 0.918000
0.002551 0.032196 0.919000
0.011616 0.011380 0.918000
0.006395 -0.028600 0.928000
-0.015493 -0.001108 0.935000
0.036117 0.017590 0.907000
0.027157 0.021696 0.907000
-0.001637 -0.037242 0.934000
-0.000866 -0.029491 0.932000
0.026558 0.030345 0.887000
0.000668 -0.013365 0.931000
-0.005493 -0.038863 0.936000
0.004825 0.017464 0.920000
-0.031539 -0.013538 0.943000
-0.018691 -0.030163 0.941000
0.019147 0.038156 0.899000
0.006306 0.035069 0.915000
-0.007427 -0.036205 0.937000
-0.026133 -0.027151 0.944000
-0.015173 -0.029712 0.939000
-0.013085 0.018379 0.928000
0.032439 -0.003782 0.930000
-0.027482 -0.040833 0.937000
0.019111 0.005694 0.915000
0.045822 0.019019 0.922000
-0.016384 -0.040275 0.942000
0.001039 0.026551 0.920000
-0.000860 0.014147 0.926000
0.006333 0.030305 0.919000
-0.004323 -0.008786 0.933000
-0.016210 0.006567 0.932000
-0.028425 -0.043590 0.930000
-0.012607 0.027717 0.921000
0.029818 -0.000712 0.920000
-0.007253 0.041471 0.915000
-0.017707 0.010381 0.930000
0.003307 0.022362 0.919000
-0.028105 -0.035347 0.945000
0.008584 0.020426 0.917000
0.009441 -0.026662 0.927000
0.007059 0.035445 0.915000
-0.010467 0.006190 0.933000
0.007812 0.033186 0.915000
0.004442 0.020471 0.919000
0.013520 0.002315 0.919000
-0.008120 0.016852 0.928000
-0.012621 0.026609 0.922000
-0.000856 0.024685 0.921000
0.000284 -0.024451 0.930000
0.015345 0.012849 0.915000
0.022599 -0.008654 0.919000
0.029934 0.005675 0.912000
0.001819 -0.036012 0.932000
-0.006513 0.040429 0.917000
0.029183 0.005300 0.912000
-0.010875 -0.019580 0.935000
0.014902 0.034166 0.911000
-0.018413 0.013018 0.927000
0.023126 0.016899 0.910000
-0.002387 0.016452 0.927000
-0.004702 -0.019517 0.932000
-0.000097 0.041184 0.917000
-0.020649 -0.017788 0.942000
-0.023701 -0.041737 0.940000
0.033948 0.030755 0.899000
0.003693 0.017103 0.921000
-0.011211 0.010392 0.931000
-0.002784 -0.026038 0.932000
0.007647 -0.044106 0.941000
0.011312 -0.020491 0.924000
0.031497 0.029777 0.903000
-0.015592 -0.039071 0.941000
-0.015493 0.001585 0.935000
-0.018323 -0.018951 0.942000
0.015640 0.035536 0.889000
-0.015980 -0.019706 0.941000
0.009020 -0.009832 0.923000
-0.012321 0.016852 0.928000
-0.001248 -0.024478 0.931000
0.017228 0.024147 0.915000
-0.003563 -0.037667 0.935000
-0.023025 -0.032590 0.944000
0.013873 -0.035661 0.943000
-0.024446 -0.049034 0.954000
-0.028135 -0.032659 0.946000
-0.036648 -0.005284 0.925000
0.022127 0.031005 0.885000
-0.008864 0.021770 0.926000
-0.014139 0.024712 0.922000
0.024679 0.006802 0.912000
-0.033516 -0.028705 0.944000
-0.005859 -0.022226 0.933000
-0.006542 0.034920 0.921000
-0.024967 -0.027539 0.944000
-0.031372 -0.037402 0.938000
-0.013240 -0.027780 0.939000
0.005643 -0.032872 0.930000
-0.008602 -0.027007 0.939000
-0.012454 -0.030453 0.938000
0.012778 -0.001091 0.920000
-0.009305 0.009636 0.932000
0.022246 -0.021527 0.936000
0.041105 0.021019 0.910000
-0.039866 -0.014101 0.929000
0.021324 0.009064 0.913000
-0.014338 0.000046 0.935000
-0.031961 -0.021323 0.944000
-0.015460 0.005806 0.933000
-0.018916 0.005422 0.933000
0.021207 0.030690 0.908000
0.012750 0.007602 0.918000
-0.039694 -0.007569 0.925000
0.027596 0.034010 0.897000
-0.013141 0.008869 0.932000
-0.020562 -0.008447 0.938000
0.023902 0.012793 0.911000
0.012778 -0.003741 0.920000
-0.022468 -0.001496 0.937000
0.016115 0.024551 0.916000
-0.002400 -0.008009 0.932000
0.001818 -0.030992 0.931000
-0.001633 -0.025655 0.932000
-0.006223 0.009615 0.930000
-0.003130 0.031887 0.921000
0.011955 0.029420 0.915000
0.008207 0.022691 0.917000
0.025095 0.035976 0.900000
-0.010910 -0.032769 0.938000
-0.002017 -0.011462 0.932000
0.026123 0.011281 0.910000
-0.006549 0.033819 0.922000
0.013520 0.001558 0.919000
-0.009710 -0.003029 0.934000
-0.015493 -0.000723 0.935000
-0.022130 -0.012707 0.939000
0.007452 0.023823 0.917000
-0.024113 -0.013896 0.941000
-0.005042 0.021723 0.924000
-0.029693 -0.032659 0.946000
0.040421 0.013298 0.920000
-0.028344 -0.005757 0.940000
0.015459 -0.036514 0.945000
0.007144 -0.001860 0.926000
-0.011644 0.001201 0.935000
0.013823 0.028635 0.914000
-0.025717 -0.038377 0.943000
0.002172 0.025388 0.919000
-0.015912 -0.014608 0.937000
-0.000481 -0.017925 0.929000
-0.003935 -0.023353 0.932000
0.007598 -0.040361 0.935000
-0.025690 -0.018564 0.942000
0.006704 0.019693 0.918000
-0.029179 -0.009646 0.942000
0.027903 0.018337 0.907000
0.032612 0.029406 0.903000
0.023220 0.030641 0.885000
0.043924 0.016743 0.922000
-0.002021 -0.038396 0.934000
0.025109 0.000421 0.914000
-0.009689 0.010019 0.932000
-0.013254 -0.025875 0.940000
0.007051 0.037664 0.914000
-0.000475 0.037073 0.918000
0.013687 0.037665 0.905000
0.035151 0.012418 0.911000
-0.032184 -0.042350 0.928000
0.013853 0.021912 0.916000
0.039520 0.020599 0.908000
0.018020 -0.001842 0.917000
0.010471 0.015520 0.917000
0.019069 0.015452 0.913000
0.036490 0.017217 0.907000
0.019048 0.021065 0.912000
0.001050 -0.014117 0.930000
0.014772 0.036095 0.903000
0.011654 -0.000713 0.921000
-0.006183 0.022864 0.924000
0.011604 0.012878 0.917000
0.015054 -0.036475 0.944000
0.008575 0.031714 0.916000
-0.001605 0.042647 0.916000
-0.011139 0.025173 0.925000
-0.023025 -0.034144 0.944000
0.025625 -0.006007 0.919000
-0.004323 -0.011858 0.933000
-0.006989 0.013826 0.930000
0.028808 0.004925 0.912000
0.001034 0.041516 0.916000
-0.024527 -0.017013 0.942000
-0.004328 -0.028785 0.934000
-0.030472 -0.029155 0.946000
-0.022903 -0.011161 0.939000
0.023823 0.027326 0.908000
-0.016297 -0.016151 0.937000
-0.034608 -0.022053 0.942000
0.032751 -0.002246 0.928000
-0.019078 -0.023966 0.941000
-0.024782 -0.000725 0.937000
0.045393 0.018999 0.921000
-0.005446 0.016470 0.928000
0.022377 0.018772 0.910000
-0.023025 -0.031813 0.944000
-0.014354 -0.016134 0.936000
0.018398 -0.002974 0.917000
-0.034608 -0.018951 0.942000
-0.024475 -0.008852 0.940000
0.022252 0.033378 0.890000
-0.016071 0.018680 0.924000
0.020440 -0.015547 0.924000
0.001050 -0.009906 0.930000
0.008687 -0.029746 0.928000
0.022727 0.025860 0.909000
-0.025772 -0.032236 0.945000
0.016254 -0.031102 0.946000
0.011692 -0.019730 0.924000
-0.010029 0.017615 0.928000
0.002198 -0.025982 0.930000
-0.015526 -0.016922 0.937000
0.006777 -0.028218 0.928000
-0.000482 -0.029107 0.932000
0.013461 0.017369 0.915000
0.006409 -0.032490 0.930000
-0.021037 -0.029419 0.942000
-0.029891 -0.006918 0.940000
-0.014354 -0.003036 0.936000
0.013099 0.015126 0.916000
0.025777 0.008669 0.911000
-0.009975 0.028917 0.923000
-0.008584 -0.029263 0.937000
-0.019078 -0.028226 0.941000
0.010471 0.024200 0.917000
-0.013569 -0.008805 0.935000
-0.008556 -0.011486 0.934000
-0.028135 -0.032270 0.946000
-0.000866 -0.012613 0.932000
0.029753 0.000045 0.918000
0.032398 0.003824 0.918000
-0.002398 -0.021029 0.931000
-0.020219 -0.015429 0.940000
-0.006981 0.014576 0.929000
-0.000097 0.025415 0.920000
-0.007041 -0.037748 0.937000
0.032901 0.010169 0.911000
-0.021988 0.008110 0.933000
-0.005452 0.011899 0.929000
-0.014723 0.000431 0.935000
-0.020176 -0.011150 0.938000
0.007082 0.024604 0.918000
-0.025195 -0.001884 0.938000
-0.021836 -0.032556 0.943000
-0.000482 -0.008767 0.931000
0.001050 -0.009141 0.930000
-0.010366 0.026667 0.924000
-0.009245 0.019483 0.926000
-0.021037 -0.019339 0.942000
-0.018031 0.013400 0.927000
0.004867 -0.022489 0.928000
0.014591 0.026784 0.915000
0.014623 0.004574 0.917000
0.003343 -0.025572 0.929000
-0.001232 0.034087 0.919000
-0.006634 -0.008411 0.934000
-0.011175 0.017615 0.928000
-0.012467 -0.034736 0.939000
0.015001 0.006084 0.917000
0.017662 -0.005244 0.918000
0.018714 0.007569 0.914000
0.017961 0.021112 0.914000
0.021370 -0.001838 0.915000
0.010943 -0.021274 0.925000
0.030077 0.027236 0.905000
0.007074 0.021558 0.917000
-0.020262 -0.018176 0.942000
0.009020 -0.010211 0.923000
-0.014058 -0.041826 0.942000
-0.009710 0.000815 0.934000
-0.020992 -0.015429 0.940000
0.011349 -0.026280 0.927000
-0.013789 0.023244 0.924000
-0.024553 -0.024017 0.943000
-0.019259 0.007326 0.931000
-0.023289 -0.007683 0.939000
0.005244 -0.003388 0.927000
-0.001995 0.024332 0.922000
0.019069 0.012446 0.913000
0.015721 0.009837 0.915000
0.022777 0.013543 0.911000
0.009716 0.024200 0.917000
0.026065 0.022094 0.908000
-0.005475 -0.022994 0.933000
0.018714 0.010202 0.914000
0.029023 0.016843 0.907000
0.000669 -0.036434 0.933000
0.029247 0.002678 0.914000
0.034726 0.031530 0.900000
0.016309 -0.023228 0.927000
0.021464 -0.009032 0.919000
0.008547 0.037622 0.913000
-0.008855 0.023269 0.925000
0.018354 -0.025710 0.934000
0.010426 0.036119 0.913000
0.019643 0.033668 0.888000
-0.001631 -0.014515 0.931000
0.002961 -0.007984 0.929000
0.021676 0.012432 0.912000
-0.011888 0.026286 0.924000
0.029704 0.024628 0.905000
-0.002403 -0.031826 0.933000
0.028198 -0.009131 0.929000
-0.023025 -0.035698 0.944000
-0.017821 -0.004962 0.936000
-0.002769 0.014163 0.927000
0.017566 0.018834 0.913000
-0.002398 -0.019880 0.931000
-0.026022 -0.008078 0.940000
-0.001247 -0.021389 0.930000
0.005210 0.015587 0.921000
0.007525 -0.021297 0.926000
-0.012029 -0.006881 0.935000
0.010094 0.015897 0.917000
0.031869 0.028291 0.903000
-0.007729 0.018741 0.927000
0.040312 0.020622 0.909000
0.002177 0.018999 0.921000
0.023203 0.002300 0.913000
0.003325 0.013356 0.924000
0.026238 0.001174 0.914000
-0.024344 -0.043824 0.935000
-0.017745 0.008102 0.932000
-0.027658 -0.017031 0.943000
0.004490 -0.029396 0.929000
-0.009235 0.024792 0.925000
0.026497 0.009783 0.910000
-0.028464 -0.018214 0.944000
0.015148 -0.022822 0.926000
0.000286 -0.042624 0.934000
-0.011644 -0.018426 0.935000
0.001045 0.013004 0.926000
-0.008584 -0.034277 0.937000
-0.015980 -0.036360 0.941000
-0.009720 -0.021504 0.935000
0.032045 0.014246 0.908000
0.002553 0.021629 0.920000
-0.022106 -0.005745 0.938000
0.032276 0.026090 0.904000
0.017902 0.027416 0.911000
-0.023776 -0.024405 0.943000
0.014246 -0.036398 0.942000
0.022943 -0.018770 0.933000
-0.024036 -0.002270 0.938000
-0.016193 0.009242 0.931000
0.001790 0.039297 0.917000
-0.008912 0.011541 0.931000
-0.015393 0.015340 0.929000
-0.013759 0.025471 0.922000
0.002203 -0.037546 0.932000
0.013199 -0.017809 0.923000
0.012958 -0.031826 0.933000
0.036037 0.020531 0.905000
0.017303 -0.009789 0.919000
0.001827 -0.045797 0.936000
0.016492 0.004946 0.916000
0.031332 0.012017 0.909000
-0.017548 -0.042602 0.942000
0.043306 0.013751 0.925000
0.021979 0.027356 0.909000
0.004068 0.018978 0.920000
0.023981 0.001174 0.914000
0.026701 -0.002219 0.917000
0.004019 0.041947 0.909000
0.009040 -0.001858 0.925000
0.022003 0.019146 0.910000
0.009833 -0.028218 0.928000
0.002958 -0.014850 0.928000
-0.013569 -0.013038 0.935000
-0.017178 -0.041094 0.943000
0.035575 0.005738 0.922000
-0.017142 -0.032874 0.941000
0.004064 0.026522 0.919000
0.022302 0.034187 0.892000
-0.019445 -0.044446 0.940000
0.017549 0.036431 0.893000
-0.035315 -0.007227 0.930000
-0.017142 -0.035585 0.941000
0.002578 -0.025955 0.929000
0.019236 -0.012843 0.921000
0.010471 0.029484 0.917000
0.002589 -0.039122 0.933000
-0.018711 -0.036010 0.942000
0.015412 -0.009032 0.919000
-0.030407 -0.017437 0.944000
0.023553 0.005300 0.912000
0.009349 0.028383 0.918000
-0.003939 -0.028754 0.933000
-0.035083 -0.010718 0.934000
0.039955 0.013647 0.918000
0.019090 0.007569 0.914000
0.018257 0.031132 0.910000
0.021628 0.023641 0.910000
-0.040925 -0.013308 0.927000
-0.006627 -0.005330 0.933000
-0.017935 -0.036010 0.942000
0.029087 0.010520 0.909000
0.012386 -0.042873 0.948000
0.032010 0.014604 0.907000
-0.002790 -0.032629 0.934000
-0.036227 -0.042359 0.954000
0.020255 -0.022226 0.933000
0.004064 0.023496 0.919000
0.013868 0.006839 0.917000
0.026947 0.035235 0.900000
-0.021425 -0.025542 0.942000
0.024303 0.004925 0.912000
-0.010456 0.008485 0.932000
0.031567 0.022766 0.905000
0.001439 -0.041087 0.934000
0.022777 0.012793 0.911000
-0.013699 -0.041526 0.944000
-0.013968 -0.005732 0.936000
-0.024941 -0.024405 0.943000
0.020595 0.002678 0.914000
0.032786 -0.003013 0.929000
-0.012029 0.000046 0.935000
-0.027247 -0.045073 0.929000
0.006326 0.023849 0.918000
-0.004636 0.039383 0.919000
-0.015878 0.000431 0.935000
-0.007696 0.028537 0.923000
-0.015980 -0.022804 0.941000
0.016925 -0.008654 0.919000
-0.028492 -0.049240 0.958000
-0.013085 0.017615 0.928000
-0.022878 -0.003814 0.938000
-0.018226 -0.011138 0.937000
-0.020970 -0.013867 0.939000
0.018652 0.026292 0.911000
-0.015092 0.002353 0.934000
0.005583 0.029581 0.920000
-0.022507 -0.048692 0.955000
0.006326 0.032917 0.918000
0.009611 0.039988 0.907000
-0.016350 -0.028970 0.940000
0.018317 0.014700 0.913000
0.027277 0.007169 0.911000
-0.010921 -0.025847 0.939000
-0.012744 0.010392 0.931000
0.003766 -0.046717 0.939000
0.008207 0.024578 0.917000
0.005631 -0.007975 0.928000
0.013944 -0.015134 0.922000
0.031869 0.028662 0.903000
-0.017802 -0.001493 0.935000
-0.005487 -0.032664 0.935000
-0.009710 -0.017253 0.934000
0.012708 0.017745 0.915000
0.038986 0.015828 0.913000
0.012345 0.021535 0.916000
0.011553 0.033489 0.913000
-0.032773 -0.027957 0.945000
-0.012986 0.027338 0.921000
0.001039 0.023143 0.920000
0.019307 -0.030227 0.943000
-0.034240 -0.008009 0.932000
-0.011248 -0.012640 0.934000
-0.000856 0.022031 0.921000
0.007074 0.021936 0.917000
0.010182 -0.023559 0.925000
-0.015543 -0.018099 0.938000
-0.001633 -0.029491 0.932000
-0.017916 -0.029775 0.941000
-0.012813 -0.004577 0.936000
-0.006499 0.042977 0.915000
0.001039 0.025037 0.920000
-0.029732 -0.040361 0.935000
-0.011260 -0.019580 0.935000
-0.025060 0.001966 0.933000
-0.026910 -0.037253 0.944000
-0.021674 0.000431 0.936000
0.022877 -0.000708 0.915000
0.009196 -0.042556 0.941000
0.017209 0.020359 0.914000
-0.016452 0.021343 0.924000
-0.002763 0.018701 0.925000
-0.024553 -0.039542 0.943000
0.020420 0.034111 0.890000
0.012778 -0.003362 0.920000
0.022003 0.022143 0.910000
-0.024113 -0.040620 0.941000
0.014919 0.029699 0.912000
0.002198 -0.027131 0.930000
0.023475 0.022867 0.909000
-0.015140 -0.017308 0.937000
0.032911 0.030082 0.901000
0.024615 0.034709 0.896000
0.033839 0.017944 0.906000
-0.021129 0.006546 0.929000
-0.024623 -0.045553 0.931000
0.028495 0.003055 0.914000
-0.016772 -0.020114 0.942000
-0.000098 -0.014882 0.930000
0.027473 0.032388 0.893000
0.002196 -0.024425 0.929000
0.027696 -0.006807 0.925000
-0.018323 -0.036010 0.942000
-0.024914 -0.018176 0.942000
-0.000097 0.030305 0.919000
0.035783 0.016115 0.908000
0.001034 0.041893 0.916000
0.006013 -0.026309 0.928000
-0.041778 -0.012572 0.929000
0.021391 0.037457 0.900000
-0.034256 -0.029839 0.943000
0.007082 0.020070 0.918000
0.037254 0.005000 0.926000
-0.019853 -0.043331 0.941000
0.030143 0.016843 0.907000
-0.019768 -0.006895 0.937000
-0.033796 -0.015058 0.941000
0.027500 0.028758 0.906000
-0.036159 -0.016625 0.942000
-0.014400 -0.032031 0.939000
0.013142 -0.000711 0.919000
-0.032704 -0.016643 0.943000
-0.006236 -0.018366 0.932000
0.008269 -0.015927 0.924000
-0.027453 -0.000724 0.936000
0.043309 0.019294 0.917000
0.022727 0.021744 0.909000
0.016777 0.029291 0.911000
-0.011532 0.023294 0.926000
0.029375 0.000045 0.918000
0.000286 -0.043824 0.935000
0.013844 -0.032874 0.941000
0.027903 0.020203 0.907000
-0.013170 0.003890 0.934000
0.023115 -0.023167 0.940000
-0.010148 -0.024688 0.939000
0.020994 0.000798 0.915000
-0.027212 -0.009636 0.941000
0.011667 0.004220 0.922000
0.023101 0.022118 0.909000
0.006257 0.041527 0.908000
0.017017 -0.018969 0.924000
0.012125 -0.027836 0.928000
0.015618 0.034091 0.909000
0.016456 0.026002 0.914000
0.025384 -0.009462 0.924000
0.012295 -0.037909 0.941000
-0.029637 -0.041766 0.932000
-0.023701 -0.013108 0.940000
0.024814 -0.003729 0.917000
-0.023751 -0.018951 0.942000
-0.020791 0.005027 0.931000
-0.021015 -0.024741 0.941000
-0.019895 -0.038766 0.943000
0.014246 0.004952 0.917000
0.000667 -0.008758 0.930000
0.036571 0.002719 0.928000
0.019423 0.017312 0.912000
-0.020176 -0.011922 0.938000
-0.015609 -0.042214 0.942000
0.027456 -0.001464 0.917000
0.037278 0.016862 0.908000
0.029612 0.030115 0.891000
-0.006190 0.020985 0.925000
-0.014786 -0.028553 0.939000
0.009441 -0.026280 0.927000
-0.013240 -0.027007 0.939000
-0.009954 0.032266 0.921000
-0.009751 -0.028908 0.938000
0.020971 0.002302 0.914000
0.004442 0.021984 0.919000
-0.030861 -0.030712 0.946000
0.021347 0.003055 0.914000
0.037635 0.005381 0.926000
-0.040118 -0.012150 0.926000
-0.019663 0.005416 0.932000
0.019734 0.030723 0.909000
0.006326 0.019693 0.918000
0.002961 -0.022513 0.929000
-0.019466 -0.025128 0.941000
-0.032669 -0.035623 0.942000
-0.013071 0.019504 0.927000
-0.032741 -0.005714 0.933000
0.011226 0.023823 0.917000
0.004862 -0.012163 0.927000
-0.008556 -0.018406 0.934000
0.006741 0.010683 0.923000
0.017942 0.013949 0.913000
-0.021448 -0.032944 0.943000
0.027546 -0.004120 0.920000
0.014735 -0.020110 0.924000
0.035118 -0.000337 0.930000
-0.026853 -0.013523 0.942000
-0.001995 0.023194 0.922000
-0.003164 -0.016048 0.931000
-0.019466 -0.025903 0.941000
0.016098 0.009837 0.915000
-0.025383 -0.034958 0.945000
-0.029860 -0.037828 0.939000
0.001411 0.041893 0.916000
0.001051 -0.027926 0.931000
0.025137 -0.000708 0.915000
0.005955 0.032196 0.919000
-0.022082 -0.000725 0.937000
-0.012717 0.015723 0.929000
0.013672 0.036135 0.904000
0.024652 0.010919 0.911000
-0.024888 -0.015445 0.941000
0.045442 0.018640 0.922000
-0.033868 -0.031003 0.943000
-0.020262 -0.022053 0.942000
0.001434 -0.030992 0.931000
-0.001633 -0.030258 0.932000
-0.004677 0.017596 0.927000
0.023114 0.035039 0.895000
-0.030469 -0.000338 0.934000
0.013085 0.020381 0.915000
-0.004707 -0.010322 0.933000
0.011730 -0.026280 0.927000
-0.013968 -0.004962 0.936000
0.011422 -0.034130 0.933000
-0.008864 0.019864 0.926000
-0.015205 -0.040233 0.941000
0.021979 0.025860 0.909000
0.010061 0.033149 0.914000
-0.006123 0.041094 0.915000
-0.031904 -0.003019 0.931000
-0.025356 -0.037641 0.944000
-0.023883 -0.047136 0.932000
-0.024475 -0.007691 0.940000
-0.002781 -0.019113 0.931000
0.007136 -0.017467 0.925000
0.030958 0.010895 0.909000
-0.008085 0.028568 0.924000
-0.040969 -0.014086 0.928000
-0.014415 -0.025101 0.940000
-0.018711 -0.021278 0.942000
0.026180 0.004549 0.912000
0.028308 0.013125 0.908000
0.011287 -0.000713 0.922000
-0.017631 0.015291 0.926000
0.019487 0.003811 0.915000
0.009716 0.017029 0.917000
-0.000481 -0.018327 0.930000
0.009431 -0.023203 0.926000
0.033057 0.020904 0.905000
-0.031138 -0.045553 0.931000
-0.009235 0.025934 0.925000
0.016888 -0.030067 0.938000
-0.003555 -0.026834 0.933000
-0.008538 0.007718 0.932000
-0.014430 -0.038683 0.941000
-0.038594 -0.009101 0.926000
0.034020 0.003836 0.921000
0.004423 0.038458 0.915000
-0.020903 -0.046953 0.936000
0.017566 0.019585 0.913000
-0.016176 0.012677 0.930000
-0.006913 0.037532 0.920000
0.012412 -0.007536 0.921000
0.013535 -0.004877 0.920000
0.032276 0.023857 0.904000
0.011591 0.020781 0.916000
-0.024165 -0.025569 0.943000
0.007582 0.006574 0.933000
0.009410 -0.017829 0.924000
0.009471 -0.032872 0.930000
0.012359 0.010613 0.917000
0.020572 0.007561 0.913000
-0.024190 -0.037253 0.944000
0.021705 -0.028376 0.946000
0.006007 -0.004914 0.927000
0.025653 -0.006392 0.920000
-0.022636 -0.037641 0.944000
0.007460 0.025360 0.918000
-0.014354 -0.004577 0.936000
0.020730 -0.011314 0.920000
-0.020518 -0.000339 0.936000
0.004490 -0.027102 0.929000
-0.002017 -0.028340 0.932000
0.032081 0.011643 0.909000
0.006382 -0.019392 0.926000
-0.018731 -0.041482 0.943000
-0.006951 0.022127 0.925000
0.036570 0.015758 0.909000
-0.018304 -0.027839 0.941000
-0.009355 -0.023478 0.937000
-0.026967 -0.032659 0.946000
-0.005036 0.025118 0.923000
-0.006243 -0.020690 0.933000
-0.000481 -0.020624 0.930000
0.010908 -0.008682 0.922000
-0.014723 -0.001108 0.935000
-0.026939 -0.027568 0.945000
0.006326 0.021582 0.918000
-0.037029 -0.004523 0.925000
0.021269 -0.017123 0.927000
0.002198 -0.012968 0.930000
0.011349 -0.027043 0.927000
-0.000866 -0.027956 0.932000
-0.017650 0.013781 0.927000
-0.013953 -0.006881 0.935000
-0.028344 -0.038255 0.940000
0.003322 0.015621 0.923000
-0.030986 -0.007289 0.938000
-0.005086 -0.013380 0.932000
-0.021059 -0.039930 0.943000
0.010574 -0.025871 0.926000
-0.038975 -0.009864 0.926000
-0.015827 0.006184 0.932000
-0.019961 0.011122 0.928000
0.021347 0.002302 0.914000
0.006020 -0.030161 0.929000
-0.022927 -0.013108 0.940000
-0.021859 -0.037641 0.944000
0.032257 0.006440 0.914000
-0.020197 -0.014253 0.939000
-0.023701 -0.013495 0.940000
-0.013759 0.026609 0.922000
0.002948 0.011086 0.925000
0.019090 0.006816 0.914000
-0.025222 -0.040920 0.939000
0.006000 -0.011007 0.926000
0.012059 -0.016290 0.923000
0.040086 0.012176 0.921000
-0.023364 -0.019727 0.942000
-0.035033 -0.027510 0.943000
0.021177 -0.014010 0.923000
0.006388 -0.022846 0.927000
-0.011694 -0.022756 0.939000
0.033532 0.004957 0.918000
-0.026768 -0.048263 0.939000
-0.010910 -0.033541 0.938000
0.006777 -0.028600 0.928000
0.022952 -0.007133 0.918000
-0.017935 -0.034847 0.942000
0.007517 0.007279 0.925000
0.023381 -0.009042 0.920000
0.036492 0.003857 0.926000
-0.003168 -0.007626 0.932000
0.019734 0.031472 0.909000
0.002958 -0.015232 0.928000
0.008962 0.030616 0.917000
-0.008970 -0.035434 0.937000
-0.009245 0.021389 0.926000
0.017981 0.005694 0.915000
-0.003521 0.020202 0.924000
0.007501 0.011442 0.923000
0.008962 0.023068 0.917000
0.029332 0.027236 0.905000
0.035822 0.014636 0.909000
-0.005872 -0.032664 0.935000
-0.001637 -0.038396 0.934000
0.013328 -0.031025 0.932000
-0.032565 -0.042732 0.928000
0.012764 0.005341 0.919000
-0.006641 -0.031895 0.935000
-0.010910 -0.031225 0.938000
-0.037733 -0.014546 0.933000
0.009769 0.009532 0.922000
0.023558 -0.014071 0.927000
0.004103 -0.007975 0.928000
-0.010770 0.022151 0.926000
-0.012241 0.026988 0.922000
0.025796 -0.018891 0.939000
-0.008931 -0.016850 0.933000
0.014671 -0.007528 0.920000
0.009400 -0.007932 0.923000
0.013167 -0.041702 0.948000
-0.003154 0.014560 0.928000
0.009716 0.022313 0.917000
-0.004652 0.028886 0.922000
0.025374 0.011656 0.910000
0.003689 0.018600 0.920000
-0.023264 -0.042807 0.938000
-0.012401 -0.011871 0.934000
-0.005405 0.033403 0.921000
0.018452 -0.028939 0.939000
-0.018342 -0.039154 0.943000
0.017643 -0.000332 0.917000
0.019821 0.013197 0.913000
0.034174 0.021649 0.905000
0.016833 0.012835 0.914000
-0.007101 -0.040404 0.945000
0.028959 0.027981 0.905000
-0.016228 0.003886 0.933000
-0.003555 -0.028370 0.933000
-0.026578 -0.033049 0.946000
-0.013467 0.017997 0.928000
-0.011296 -0.035085 0.938000
0.005227 0.010694 0.924000
0.031401 0.008669 0.911000
0.032721 0.016825 0.906000
-0.028761 -0.007699 0.941000
0.015017 -0.000710 0.918000
0.010932 -0.019730 0.924000
-0.009325 -0.004182 0.934000
0.004103 -0.024781 0.928000
-0.028700 -0.004205 0.939000
0.009359 0.012906 0.919000
0.028959 0.027608 0.905000
0.000286 -0.040702 0.934000
0.024056 0.032243 0.889000
0.004121 -0.038697 0.932000
0.012345 0.021912 0.916000
-0.000475 0.034466 0.919000
0.008678 -0.025517 0.927000
-0.031606 -0.023290 0.945000
0.014767 -0.023584 0.926000
0.034427 -0.002639 0.932000
0.010908 0.006876 0.922000
-0.009315 -0.015698 0.933000
0.004064 0.025766 0.919000
0.014623 0.006461 0.917000
0.004099 -0.020176 0.927000
0.009030 0.001187 0.924000
0.033725 0.009064 0.913000
-0.018711 -0.034847 0.942000
-0.010921 -0.037442 0.939000
0.021937 -0.013630 0.923000
-0.012689 0.021030 0.927000
-0.028494 -0.034958 0.945000
0.027463 -0.010672 0.930000
-0.024862 -0.010786 0.940000
-0.019403 -0.011922 0.938000
0.010517 0.009143 0.921000
-0.006257 -0.030740 0.935000
-0.012813 -0.018060 0.936000
0.012047 -0.044621 0.952000
0.013461 0.017745 0.915000
0.015001 0.002687 0.917000
-0.028578 0.001201 0.935000
-0.023625 -0.001111 0.937000
-0.008155 0.006567 0.932000
-0.035033 -0.024017 0.943000
-0.035270 -0.015413 0.939000
0.019132 0.000799 0.916000
0.013667 -0.027484 0.929000
-0.020240 -0.016995 0.941000
0.007067 0.033222 0.916000
0.028401 0.007919 0.911000
0.020707 -0.010167 0.919000
0.038773 0.020973 0.908000
0.029055 0.014620 0.908000
0.015546 -0.023609 0.927000
0.013185 -0.013995 0.922000
0.038441 0.018003 0.909000
-0.009355 -0.032348 0.937000
0.027815 -0.009513 0.929000
0.009706 0.019650 0.916000
-0.019445 -0.044059 0.940000
0.019048 0.020690 0.912000
-0.010875 -0.018041 0.935000
0.032323 0.030987 0.895000
0.034623 0.016097 0.907000
-0.019874 -0.042214 0.942000
-0.013641 -0.025488 0.940000
0.023115 -0.022780 0.940000
-0.032704 -0.034884 0.943000
0.030515 0.032497 0.896000
0.031060 0.007552 0.912000
