0.006897 0.034264 0.894000
-0.013099 -0.032455 0.929000
-0.007596 0.013918 0.911000
0.022099 -0.027793 0.914000
-0.018174 0.009460 0.915000
0.026468 -0.006315 0.909000
-0.026661 0.029227 0.909000
0.001413 -0.050529 0.917000
-0.012817 0.016881 0.909000
-0.009965 -0.016652 0.922000
0.030853 -0.011277 0.917000
-0.015182 0.039047 0.894000
0.011785 0.009697 0.902000
-0.008986 0.033383 0.900000
-0.001596 -0.054323 0.911000
-0.017497 -0.002981 0.919000
-0.028500 0.020226 0.908000
-0.002318 0.031901 0.900000
-0.015211 0.002312 0.918000
-0.019831 -0.031072 0.922000
-0.023096 -0.032001 0.916000
-0.003532 -0.028569 0.927000
-0.000475 -0.013571 0.919000
0.031231 -0.032790 0.917000
-0.004677 -0.034674 0.927000
0.023327 -0.037970 0.933000
-0.001582 0.020114 0.903000
0.003649 -0.053889 0.910000
-0.000854 -0.010924 0.919000
-0.014124 -0.008673 0.921000
0.014870 -0.009682 0.909000
0.028934 -0.035017 0.916000
-0.021941 0.009084 0.915000
-0.004556 0.030149 0.903000
-0.017623 0.029876 0.906000
-0.013909 0.025430 0.907000
0.008037 0.022590 0.898000
0.014739 0.008574 0.901000
-0.003069 0.022716 0.903000
0.024090 0.024973 0.904000
0.004432 -0.012032 0.917000
-0.005276 0.034085 0.899000
0.025402 -0.021327 0.911000
-0.001582 0.029034 0.903000
0.020948 -0.024380 0.913000
0.007067 -0.050474 0.916000
0.013657 0.005248 0.903000
0.005812 0.027733 0.897000
-0.004641 -0.009800 0.920000
0.006874 0.041117 0.891000
-0.003528 -0.031206 0.926000
-0.001580 0.021577 0.902000
0.005221 -0.029966 0.923000
0.037375 -0.022513 0.929000
0.001040 -0.023836 0.921000
-0.016887 -0.033148 0.927000
0.006912 0.029178 0.896000
-0.028531 0.017255 0.909000
-0.003418 0.035856 0.897000
0.010896 -0.026868 0.921000
-0.004687 -0.037808 0.929000
0.030442 -0.015412 0.916000
-0.020014 0.013197 0.913000
0.003336 -0.045739 0.927000
-0.027439 0.013903 0.910000
0.007693 0.016732 0.901000
0.008707 0.038916 0.891000
0.010790 -0.008588 0.912000
0.002948 -0.037264 0.925000
-0.011007 0.011707 0.914000
0.011389 0.015232 0.900000
-0.020993 -0.018189 0.923000
0.017431 -0.004803 0.906000
-0.010712 -0.006778 0.921000
0.005193 -0.021491 0.918000
0.032055 -0.013571 0.919000
-0.027319 0.033605 0.906000
-0.010747 -0.022392 0.924000
-0.012149 0.010590 0.915000
0.017265 -0.030148 0.917000
-0.006929 -0.020446 0.922000
0.013432 -0.016865 0.913000
-0.005031 -0.022344 0.922000
0.013702 -0.000701 0.906000
-0.021517 0.016203 0.913000
0.009494 0.025859 0.896000
-0.013162 0.022816 0.907000
-0.028469 0.032149 0.907000
0.022156 0.024149 0.901000
0.018775 -0.033168 0.917000
0.030853 -0.007126 0.917000
-0.006170 -0.021585 0.922000
0.034512 -0.010603 0.924000
-0.015377 -0.031656 0.928000
-0.014456 0.000423 0.918000
0.004442 -0.049505 0.919000
-0.020479 -0.001087 0.917000
0.016813 0.035328 0.893000
-0.002745 -0.017354 0.919000
0.025346 -0.012301 0.909000
0.001414 -0.016579 0.918000
0.008707 0.044050 0.891000
-0.020101 -0.003351 0.917000
-0.022146 0.027700 0.908000
0.002111 0.039739 0.893000
-0.000862 -0.039295 0.928000
-0.001937 0.038354 0.895000
0.027277 0.030791 0.911000
0.016456 -0.022526 0.914000
0.021200 -0.037224 0.924000
-0.020501 -0.011290 0.918000
0.007371 0.009377 0.907000
0.011824 0.003397 0.905000
-0.017612 -0.033838 0.925000
0.014225 0.034554 0.892000
0.025290 -0.006301 0.907000
0.004773 -0.053889 0.910000
-0.026719 0.022167 0.911000
0.009319 -0.018031 0.915000
-0.012175 0.005329 0.917000
-0.020947 -0.025731 0.921000
0.006580 0.017474 0.901000
-0.006196 -0.028539 0.926000
0.022254 -0.004425 0.905000
0.003300 -0.009390 0.917000
0.007974 0.040383 0.891000
-0.007662 -0.002224 0.919000
0.022677 -0.008541 0.907000
0.014853 -0.007056 0.908000
-0.001232 -0.013193 0.919000
-0.003825 0.016825 0.906000
-0.018845 0.016918 0.911000
0.000659 -0.019245 0.919000
-0.030302 0.026893 0.906000
-0.001580 0.024176 0.902000
-0.007356 -0.045024 0.928000
-0.007118 0.037744 0.898000
0.007761 0.005283 0.909000
-0.020036 0.010202 0.914000
-0.000097 -0.023836 0.921000
-0.024281 0.036135 0.904000
-0.004156 0.037332 0.897000
0.027247 0.021768 0.910000
0.016045 -0.017972 0.912000
-0.002748 -0.020402 0.920000
0.015311 -0.020622 0.913000
-0.004566 0.019041 0.905000
0.021747 -0.029706 0.915000
0.028026 -0.009704 0.911000
0.001414 -0.010534 0.918000
0.017585 -0.024407 0.914000
0.018427 0.010787 0.900000
0.024489 0.003025 0.905000
0.015721 -0.025187 0.915000
0.003264 0.013110 0.907000
-0.020501 -0.011667 0.918000
0.027743 -0.030050 0.914000
-0.019114 -0.027716 0.924000
-0.001232 -0.014328 0.919000
0.015904 0.000045 0.904000
-0.008236 0.035196 0.899000
-0.015950 0.004197 0.917000
-0.010826 0.037786 0.899000
-0.018774 -0.022059 0.926000
0.006763 -0.041878 0.926000
-0.001220 0.011281 0.910000
-0.003483 -0.054126 0.914000
0.000646 0.025632 0.901000
0.029624 -0.013498 0.914000
0.022328 -0.012288 0.908000
0.008500 0.005651 0.908000
0.024516 0.041436 0.906000
0.008350 0.037124 0.892000
0.007090 -0.049126 0.919000
0.026872 0.016150 0.910000
0.030820 -0.013527 0.916000
-0.018409 0.023963 0.908000
0.002125 0.027055 0.899000
0.025402 -0.022077 0.911000
0.027336 -0.024380 0.913000
0.020997 0.037416 0.899000
0.017568 0.029113 0.894000
0.016685 -0.003311 0.906000
0.010565 0.031285 0.893000
0.011226 -0.050906 0.917000
0.003589 0.033565 0.895000
0.009874 0.023303 0.897000
0.005552 -0.007110 0.915000
-0.017934 -0.013616 0.922000
0.006271 0.003416 0.910000
0.009632 0.000419 0.909000
0.002573 -0.041923 0.927000
0.009040 -0.046021 0.925000
-0.003536 -0.046170 0.928000
-0.022146 0.026952 0.908000
-0.015504 0.012446 0.913000
-0.011532 -0.025871 0.926000
0.001036 -0.016957 0.918000
0.007956 0.045049 0.889000
-0.022743 -0.003729 0.917000
0.020527 -0.020577 0.911000
0.003677 -0.015429 0.917000
-0.009225 -0.021632 0.924000
-0.007134 0.033012 0.900000
0.019232 0.001531 0.903000
0.002184 -0.047872 0.924000
0.011578 -0.020291 0.915000
-0.008692 0.016862 0.908000
0.000283 -0.047543 0.925000
0.004398 0.006412 0.910000
0.026585 -0.027386 0.913000
-0.012029 0.023537 0.906000
0.005565 -0.020335 0.917000
0.007051 -0.051492 0.914000
-0.018194 0.007208 0.916000
0.013747 -0.007438 0.909000
-0.001232 -0.010545 0.919000
0.006889 0.036063 0.893000
-0.011187 -0.033984 0.929000
0.012583 -0.000328 0.906000
-0.014518 -0.013995 0.922000
0.018693 0.030619 0.895000
0.027277 -0.014953 0.911000
-0.002354 0.010578 0.914000
0.001391 0.016769 0.903000
0.011759 0.013750 0.900000
0.008756 0.026596 0.896000
-0.019473 -0.031105 0.923000
-0.010712 -0.011706 0.921000
0.012183 0.004509 0.904000
0.022181 0.007098 0.902000
0.015033 -0.033240 0.919000
0.011312 -0.042548 0.924000
-0.002766 -0.047214 0.926000
0.019975 0.001531 0.903000
-0.023954 -0.001091 0.920000
-0.010378 -0.023559 0.925000
-0.023396 0.015828 0.913000
-0.017345 0.015793 0.911000
-0.020834 -0.004102 0.916000
0.000283 -0.039634 0.927000
0.001018 0.020092 0.902000
-0.008663 0.022766 0.905000
0.022923 0.039768 0.902000
-0.004263 -0.007906 0.920000
0.011772 0.011170 0.901000
0.001038 -0.012058 0.919000
-0.024335 0.034724 0.906000
-0.001201 0.036553 0.896000
0.012913 0.007478 0.903000
-0.021658 -0.030214 0.919000
-0.012082 0.015776 0.910000
0.009380 -0.032933 0.921000
0.030442 -0.024460 0.916000
0.018693 0.033197 0.895000
0.018345 0.024752 0.896000
-0.018287 0.036798 0.902000
-0.016141 -0.031656 0.928000
-0.003103 -0.054066 0.913000
0.026843 -0.007812 0.909000
0.024760 -0.033849 0.915000
0.033678 -0.028415 0.922000
0.022727 -0.016043 0.909000
0.007517 -0.041833 0.925000
0.017686 0.009675 0.900000
-0.022293 0.013964 0.914000
0.020673 0.007832 0.901000
-0.015897 0.011707 0.914000
0.017956 0.026198 0.895000
-0.024253 -0.021468 0.917000
0.030442 -0.001463 0.916000
0.023718 0.039484 0.904000
-0.018012 -0.022822 0.926000
0.008737 0.030952 0.894000
0.017916 0.037166 0.893000
0.004268 0.046199 0.883000
0.011300 -0.040603 0.923000
-0.020788 0.011707 0.914000
-0.004263 -0.017373 0.920000
0.023320 0.034980 0.903000
-0.021303 -0.015479 0.920000
-0.003441 0.024946 0.903000
-0.009128 0.040878 0.878000
0.020997 0.016695 0.899000
0.020108 -0.014172 0.909000
-0.004677 -0.046502 0.927000
0.008055 0.017825 0.900000
0.020241 -0.028953 0.915000
0.021761 0.031901 0.900000
0.023744 -0.002563 0.905000
0.020997 0.017065 0.899000
0.016420 -0.017597 0.912000
-0.021705 -0.016254 0.921000
-0.019051 0.035724 0.903000
-0.012484 0.014309 0.912000
0.019360 -0.014172 0.909000
-0.026719 -0.028451 0.911000
0.012375 0.035982 0.891000
-0.006793 0.024973 0.904000
0.016908 0.016307 0.898000
0.025663 0.007511 0.907000
0.001021 0.016788 0.904000
-0.002694 0.030858 0.902000
-0.025257 0.037046 0.899000
-0.014534 -0.016290 0.923000
0.025262 0.007875 0.906000
0.036953 -0.030510 0.928000
0.008805 0.015990 0.901000
-0.008058 -0.016633 0.921000
-0.003151 -0.029332 0.927000
0.015361 -0.027099 0.916000
0.021017 -0.033132 0.916000
0.009558 0.011924 0.902000
-0.022768 -0.027914 0.918000
0.023692 0.024202 0.903000
-0.026171 0.035058 0.905000
0.003224 0.032128 0.896000
-0.009356 0.034864 0.900000
0.027396 -0.033095 0.915000
0.006000 -0.045308 0.926000
0.010825 -0.019538 0.915000
0.026123 -0.014937 0.910000
0.007113 -0.032969 0.922000
-0.006485 0.010567 0.913000
0.020505 -0.017933 0.910000
-0.017701 0.018772 0.910000
0.023228 -0.028921 0.914000
0.021417 -0.035810 0.917000
-0.017992 -0.032696 0.925000
0.012033 -0.035587 0.921000
0.028526 -0.031589 0.915000
0.016078 0.032020 0.893000
-0.005270 0.035156 0.898000
0.023718 0.004509 0.904000
-0.020101 -0.003729 0.917000
0.011018 0.016343 0.900000
-0.005721 0.012418 0.911000
-0.004927 0.024574 0.903000
-0.024443 0.025888 0.910000
-0.022793 -0.021893 0.919000
-0.024121 0.018438 0.912000
0.007051 -0.005221 0.914000
0.015975 -0.008177 0.908000
-0.018254 -0.004872 0.919000
0.025692 0.037043 0.908000
0.025692 -0.006308 0.908000
-0.003326 0.041005 0.873000
-0.006975 0.042058 0.880000
0.008659 -0.046021 0.925000
-0.021917 0.012083 0.914000
-0.008058 -0.015875 0.921000
0.001747 0.035039 0.895000
-0.011798 0.003819 0.917000
-0.001220 0.011656 0.910000
-0.003846 0.011668 0.911000
-0.001580 0.029744 0.902000
0.017662 -0.033204 0.918000
-0.020613 -0.018569 0.923000
0.025663 0.009377 0.907000
-0.017249 -0.034255 0.926000
0.025457 -0.028890 0.913000
0.021367 0.025575 0.899000
-0.006421 0.024601 0.904000
0.011692 -0.043309 0.924000
0.013417 -0.016471 0.912000
-0.002769 -0.036200 0.927000
0.013094 0.038140 0.890000
-0.017631 -0.033112 0.926000
0.002189 -0.037304 0.926000
0.024760 -0.032342 0.915000
0.014256 0.028377 0.894000
0.005565 -0.020713 0.917000
-0.009965 -0.017031 0.922000
0.000657 -0.051228 0.916000
-0.008826 -0.018928 0.922000
0.019451 0.031759 0.896000
0.007983 0.038226 0.892000
0.013823 -0.020269 0.914000
0.012264 -0.008569 0.910000
-0.015228 -0.004115 0.919000
0.016832 0.028377 0.894000
-0.004152 0.038028 0.896000
0.004841 -0.030346 0.923000
-0.015487 0.013933 0.912000
-0.017759 0.012821 0.913000
0.023320 0.015654 0.903000
0.000659 -0.011302 0.919000
-0.008816 -0.014359 0.921000
-0.010040 -0.036661 0.929000
-0.002372 -0.022319 0.921000
0.013167 0.025830 0.895000
-0.000465 0.031830 0.898000
0.006889 0.036798 0.893000
-0.006471 0.013168 0.911000
0.019338 -0.011167 0.908000
0.000284 -0.043925 0.929000
-0.006002 0.038440 0.897000
-0.009116 0.010567 0.913000
0.002884 0.014571 0.905000
0.005787 0.036798 0.893000
0.030853 0.014387 0.917000
-0.009533 0.003819 0.917000
0.019820 0.030284 0.896000
-0.027966 0.012473 0.915000
-0.016123 -0.022846 0.927000
0.020879 -0.017933 0.910000
0.021930 -0.010781 0.907000
-0.012334 -0.035896 0.929000
0.005910 0.000420 0.912000
0.025430 -0.024729 0.912000
0.015756 -0.030526 0.917000
0.013123 0.033453 0.892000
-0.015584 0.037660 0.896000
-0.022471 0.032486 0.906000
-0.008874 -0.030096 0.927000
0.028495 -0.025535 0.914000
-0.017268 -0.030859 0.927000
0.028026 -0.007454 0.911000
0.005227 -0.028857 0.924000
-0.023498 -0.025619 0.917000
0.009547 0.015249 0.901000
-0.008437 -0.007536 0.921000
0.024090 0.014555 0.904000
0.000274 0.033972 0.896000
-0.025623 -0.030359 0.912000
-0.024550 -0.031931 0.914000
0.012913 0.006363 0.903000
-0.001204 0.032569 0.898000
0.025318 0.029568 0.908000
0.010243 0.023303 0.897000
-0.021635 -0.033204 0.918000
-0.001580 0.026774 0.902000
0.025663 0.015724 0.907000
-0.013476 0.032751 0.903000
0.015033 -0.034375 0.919000
-0.016363 -0.005628 0.919000
0.018016 0.015568 0.898000
0.030033 -0.000331 0.915000
0.001015 0.030015 0.899000
0.032469 -0.010936 0.920000
0.018357 -0.026317 0.915000
0.020257 0.014845 0.899000
-0.016019 -0.010947 0.921000
-0.018907 0.010202 0.914000
-0.014656 0.023563 0.907000
0.022974 -0.000327 0.904000
-0.008864 -0.027776 0.926000
0.008388 0.026965 0.896000
0.010920 0.033086 0.892000
-0.010995 0.013197 0.913000
0.001798 -0.048854 0.921000
-0.012135 0.012083 0.914000
0.022552 0.009326 0.902000
-0.017268 -0.025899 0.927000
-0.004687 -0.053484 0.929000
-0.013424 -0.021274 0.925000
0.021761 0.015602 0.900000
0.005187 -0.013164 0.917000
0.006306 -0.006734 0.915000
0.000659 -0.013193 0.919000
-0.014424 0.009093 0.916000
0.021761 0.042273 0.900000
-0.011470 -0.004882 0.921000
0.020604 0.024808 0.898000
0.000651 0.014246 0.908000
-0.020434 0.008330 0.915000
-0.007713 -0.025462 0.925000
0.031265 0.003824 0.918000
-0.008483 -0.027395 0.926000
0.015160 0.001533 0.904000
-0.025247 0.013933 0.912000
-0.011408 0.006077 0.916000
-0.019831 -0.032590 0.922000
-0.018659 0.036798 0.902000
0.006106 0.045626 0.886000
0.015834 0.010787 0.900000
0.017508 -0.015686 0.910000
-0.023323 -0.016325 0.925000
-0.023798 -0.035316 0.914000
0.006492 0.044317 0.889000
-0.011545 -0.041542 0.927000
0.022051 -0.024729 0.912000
-0.003066 0.023062 0.902000
-0.001178 0.043457 0.879000
0.027277 -0.014578 0.911000
0.024889 0.024283 0.906000
-0.016559 0.018751 0.909000
0.008117 0.008257 0.907000
-0.001208 0.030824 0.901000
-0.011836 -0.004877 0.920000
0.026614 -0.031178 0.914000
0.028840 -0.007846 0.913000
0.003609 0.022270 0.900000
-0.021349 -0.019687 0.922000
-0.000452 0.041771 0.874000
0.005903 0.003045 0.911000
0.019006 -0.017184 0.910000
0.033298 0.000046 0.922000
-0.009575 -0.013222 0.921000
0.015834 0.009675 0.900000
0.028057 0.003799 0.912000
-0.013322 0.003824 0.918000
-0.003066 0.024918 0.902000
0.010506 -0.048801 0.920000
-0.003123 -0.015841 0.919000
-0.006428 0.027608 0.905000
-0.018328 0.034275 0.904000
0.000278 0.013499 0.908000
-0.031864 0.026579 0.908000
-0.005064 -0.036239 0.928000
-0.010411 -0.031274 0.928000
0.004726 0.019328 0.901000
0.028464 -0.020247 0.913000
0.020212 0.033640 0.897000
0.024571 0.030690 0.908000
0.029656 0.013226 0.915000
0.032433 -0.023406 0.919000
-0.026373 -0.025480 0.912000
-0.002778 -0.043590 0.930000
-0.004530 0.034787 0.898000
-0.023954 -0.019645 0.920000
0.021020 0.015973 0.900000
0.008434 0.015249 0.901000
-0.031421 0.027639 0.906000
-0.015623 -0.007528 0.920000
0.000649 0.017160 0.904000
0.035310 -0.024701 0.925000
0.014168 -0.017222 0.912000
0.034094 -0.011731 0.923000
0.024383 -0.034225 0.915000
-0.000096 -0.052506 0.912000
-0.006542 -0.018529 0.921000
0.022552 0.039025 0.902000
0.005780 0.038593 0.892000
0.017568 0.032792 0.894000
-0.012930 0.004952 0.917000
0.013935 0.020350 0.897000
0.005987 -0.047492 0.924000
-0.009575 -0.014359 0.921000
-0.004591 0.014277 0.910000
-0.002974 0.041819 0.875000
-0.007729 -0.032003 0.927000
0.031642 -0.029048 0.918000
0.037798 -0.023303 0.930000
-0.014672 0.026205 0.908000
-0.024147 0.037416 0.899000
-0.020456 -0.005987 0.916000
0.026585 -0.027762 0.913000
0.005401 0.044001 0.890000
-0.015793 0.026952 0.908000
0.026439 0.004156 0.908000
0.000276 0.022665 0.901000
-0.019530 0.025831 0.908000
0.022552 0.037912 0.902000
0.024944 -0.012288 0.908000
0.000656 -0.051868 0.914000
-0.011772 0.008707 0.915000
0.028057 0.016561 0.912000
-0.019093 -0.015150 0.923000
-0.005346 0.013543 0.911000
0.013566 0.019242 0.897000
0.010648 0.014861 0.900000
-0.023772 0.005306 0.913000
0.031642 -0.027914 0.918000
0.024144 -0.002938 0.906000
-0.011849 -0.007536 0.921000
-0.025247 0.011306 0.912000
-0.010411 -0.031656 0.928000
0.000283 -0.034980 0.925000
0.017627 0.018135 0.897000
0.004689 0.035736 0.894000
0.004024 0.007910 0.910000
0.019647 -0.004425 0.905000
0.005102 0.016379 0.902000
0.008251 -0.054220 0.922000
-0.018571 0.007208 0.916000
0.017152 -0.016828 0.911000
0.000268 0.041098 0.875000
-0.008883 -0.033566 0.928000
0.006943 0.020047 0.900000
0.013314 0.000045 0.905000
0.030853 -0.031658 0.917000
-0.008102 -0.027014 0.926000
0.029247 -0.021397 0.914000
-0.018308 0.035352 0.903000
-0.015334 0.033865 0.903000
0.002954 -0.040779 0.927000
0.023320 0.038325 0.903000
0.014671 -0.036305 0.920000
-0.018254 -0.003737 0.919000
0.036150 -0.022083 0.927000
-0.010537 0.025029 0.906000
0.026468 0.031472 0.909000
0.028026 0.002295 0.911000
-0.015244 -0.008664 0.920000
0.011654 0.032719 0.892000
0.009748 -0.048801 0.920000
0.005227 -0.037224 0.924000
0.011202 -0.020291 0.915000
0.022949 0.007849 0.903000
0.005401 0.043635 0.890000
0.012444 0.024015 0.896000
0.008962 -0.022977 0.917000
0.018777 0.015215 0.899000
0.002168 -0.014674 0.917000
0.006733 -0.048148 0.922000
-0.002617 0.039703 0.876000
0.012264 -0.007446 0.910000
-0.019368 0.000423 0.918000
0.018077 0.007832 0.901000
-0.012268 -0.019350 0.924000
-0.007604 0.012432 0.912000
0.014496 -0.009682 0.909000
0.004086 -0.028477 0.924000
-0.021725 0.031368 0.906000
-0.028157 0.017255 0.909000
-0.001895 0.042227 0.876000
-0.008663 0.021649 0.905000
0.007362 0.009740 0.906000
0.006741 -0.027306 0.923000
0.006209 0.017845 0.901000
0.034512 -0.010983 0.924000
0.005364 0.046251 0.884000
-0.000095 0.030790 0.900000
0.012569 0.002280 0.905000
0.005601 -0.030346 0.923000
0.016420 -0.019098 0.912000
-0.016759 -0.007149 0.920000
0.009115 0.029513 0.895000
-0.011175 -0.038913 0.928000
0.003275 -0.054638 0.910000
-0.004295 -0.030477 0.927000
0.011427 0.007478 0.903000
-0.025969 0.012043 0.911000
0.021137 -0.004425 0.905000
0.010426 -0.016113 0.913000
0.026902 -0.019452 0.911000
0.015177 -0.001445 0.905000
0.004841 -0.029586 0.923000
-0.025998 0.017312 0.912000
0.002862 0.028504 0.898000
-0.012029 0.023910 0.906000
-0.001628 -0.045073 0.929000
0.002545 -0.014297 0.917000
0.029247 0.007193 0.914000
0.000281 -0.021917 0.920000
-0.021326 -0.024594 0.921000
0.015746 0.026198 0.895000
-0.000838 0.027888 0.902000
0.000664 -0.034599 0.925000
0.024571 0.031437 0.908000
-0.026026 -0.024004 0.913000
0.019338 -0.012662 0.908000
0.018965 -0.010419 0.908000
0.003228 0.030687 0.897000
0.032469 -0.002605 0.920000
0.008556 -0.014250 0.914000
0.001045 -0.037686 0.926000
-0.007237 0.010567 0.913000
-0.024200 -0.027070 0.915000
-0.011926 -0.039634 0.927000
-0.014656 0.022816 0.907000
0.021184 -0.009661 0.907000
0.030442 -0.012773 0.916000
-0.022944 0.022892 0.910000
-0.008663 0.025746 0.905000
0.023902 -0.021702 0.911000
0.010884 -0.048422 0.920000
-0.009356 0.035605 0.900000
0.025262 0.014960 0.906000
-0.020606 0.030622 0.906000
0.026065 0.017236 0.908000
0.003609 0.021899 0.900000
0.004432 -0.017693 0.917000
-0.007537 0.023857 0.904000
0.022652 -0.007413 0.906000
-0.031013 0.028726 0.905000
0.008162 -0.003333 0.912000
0.022949 0.033494 0.903000
0.004705 0.029210 0.897000
0.008189 -0.008993 0.915000
-0.009235 -0.023939 0.925000
0.004631 0.046199 0.883000
0.008251 -0.027277 0.922000
0.020041 -0.006294 0.906000
0.025457 -0.028514 0.913000
0.019152 -0.032035 0.917000
0.028057 0.017687 0.912000
0.007956 0.043220 0.889000
-0.014833 0.000045 0.918000
-0.003076 0.017551 0.905000
0.015728 0.029480 0.894000
0.028840 0.005306 0.913000
-0.025998 -0.033362 0.912000
0.010837 -0.023329 0.916000
0.032055 -0.026810 0.919000
-0.011383 0.010578 0.914000
0.007590 0.044317 0.889000
-0.003072 0.020136 0.904000
-0.021903 0.038483 0.898000
-0.009036 0.026118 0.905000
-0.000466 0.024520 0.901000
-0.027349 0.032896 0.907000
0.014199 -0.021021 0.914000
-0.011187 -0.037043 0.929000
0.010813 -0.018764 0.914000
0.014106 -0.006682 0.908000
0.014735 -0.042168 0.924000
0.006175 0.030284 0.896000
0.009400 -0.037564 0.923000
0.011694 0.025830 0.895000
-0.004404 0.039208 0.873000
0.012833 -0.044830 0.924000
0.008180 -0.008231 0.914000
0.012583 -0.000701 0.906000
-0.020924 -0.013965 0.920000
0.002501 0.020811 0.901000
0.015412 0.017765 0.897000
0.016906 -0.033960 0.918000
-0.013710 0.039047 0.894000
-0.014093 -0.002224 0.919000
-0.005399 -0.007906 0.920000
0.007273 0.029513 0.895000
0.032055 -0.011302 0.919000
-0.000837 0.024520 0.901000
0.014320 0.016307 0.898000
0.021391 0.017454 0.900000
-0.015402 0.023190 0.907000
0.016078 0.032388 0.893000
-0.010423 -0.034366 0.929000
0.010801 -0.014986 0.913000
-0.003888 -0.012085 0.921000
0.003264 0.013484 0.907000
-0.014688 0.018003 0.909000
-0.008437 -0.011706 0.921000
0.036571 -0.016378 0.928000
0.012183 0.005626 0.904000
0.020212 0.035486 0.897000
0.003718 -0.044975 0.927000
-0.007292 -0.006770 0.920000
0.018325 0.027672 0.895000
0.010138 -0.048096 0.921000
0.005601 -0.028826 0.923000
-0.008663 0.020904 0.905000
0.017021 0.000417 0.904000
0.017549 0.035696 0.893000
0.012399 -0.034412 0.920000
-0.020101 -0.004861 0.917000
-0.025109 0.033642 0.907000
-0.002970 0.041411 0.874000
0.007821 -0.020690 0.916000
0.022777 -0.021702 0.911000
0.010346 0.003401 0.906000
0.016438 -0.020622 0.913000
0.011104 -0.000329 0.907000
0.026065 0.002661 0.908000
0.019865 0.021851 0.898000
0.006278 0.002670 0.911000
0.010300 0.011924 0.902000
0.028871 0.020359 0.914000
-0.013365 -0.012085 0.921000
0.014592 0.033086 0.892000
-0.009275 -0.040867 0.929000
0.028840 -0.019119 0.913000
0.026468 -0.011927 0.909000
-0.019724 0.003065 0.917000
-0.016523 -0.032038 0.928000
-0.018632 -0.010167 0.919000
0.032847 -0.027218 0.920000
0.026643 -0.033095 0.915000
0.027277 0.031541 0.911000
-0.016814 -0.014010 0.923000
0.008397 0.025518 0.897000
-0.023096 -0.002217 0.916000
-0.015810 0.019125 0.909000
-0.017992 -0.033838 0.925000
0.007082 -0.049828 0.918000
0.001009 0.039415 0.894000
-0.007662 -0.004494 0.919000
0.005565 -0.019203 0.917000
0.010182 -0.042594 0.925000
-0.019970 0.017293 0.911000
-0.010886 0.030926 0.904000
-0.021965 0.004946 0.916000
0.008593 -0.053607 0.918000
0.006544 0.028440 0.896000
-0.020924 -0.032898 0.920000
-0.023045 0.007945 0.914000
-0.013365 -0.008673 0.921000
-0.018762 0.026549 0.907000
-0.018174 0.007954 0.915000
-0.000853 -0.050584 0.918000
0.002139 0.014944 0.905000
0.002945 -0.029998 0.924000
0.019887 0.013735 0.899000
-0.010232 0.013558 0.912000
0.011798 0.007478 0.903000
0.017209 -0.024031 0.914000
0.005102 0.017122 0.902000
0.013966 0.014845 0.899000
-0.012944 0.003824 0.918000
-0.028531 0.023241 0.909000
0.022205 0.032007 0.903000
0.031642 -0.027159 0.918000
0.029247 -0.026664 0.914000
0.019712 -0.010793 0.908000
0.015194 -0.002193 0.906000
0.005987 -0.036083 0.924000
0.000283 -0.026224 0.925000
0.001016 0.026345 0.900000
0.006313 -0.013904 0.916000
0.005516 0.007902 0.909000
0.010577 0.029480 0.894000
0.014384 0.008212 0.902000
0.004099 -0.041923 0.927000
-0.020501 -0.010156 0.918000
0.032469 0.003075 0.920000
0.026065 0.035174 0.908000
-0.005311 0.019414 0.905000
0.002118 0.033972 0.896000
-0.005069 -0.037425 0.929000
-0.002004 -0.032731 0.926000
-0.012228 -0.007157 0.921000
-0.001233 -0.021538 0.920000
-0.003914 -0.035056 0.927000
0.006889 0.034593 0.893000
-0.001200 0.038723 0.895000
0.023025 0.033232 0.906000
0.036111 -0.029682 0.926000
-0.019904 0.024710 0.908000
0.010300 0.010811 0.902000
-0.002742 -0.050584 0.918000
0.001728 0.041932 0.885000
0.028840 0.007936 0.913000
0.030065 -0.033886 0.916000
0.006340 -0.024567 0.920000
0.011642 -0.033655 0.920000
-0.023876 -0.022223 0.917000
0.009452 0.034921 0.892000
-0.029589 0.028416 0.907000
0.015210 -0.005181 0.907000
0.019821 -0.022877 0.913000
-0.008893 -0.035514 0.929000
0.017335 0.007461 0.901000
-0.018886 0.012070 0.913000
-0.020389 0.014325 0.913000
-0.016914 0.025458 0.908000
-0.018734 -0.033041 0.924000
-0.011115 -0.019709 0.923000
0.008388 0.026596 0.896000
-0.016704 0.002310 0.917000
-0.029054 0.034942 0.902000
-0.000475 -0.019623 0.919000
-0.000843 0.015350 0.907000
-0.018012 -0.027776 0.926000
-0.019114 -0.030759 0.924000
0.018438 -0.035888 0.919000
0.024889 0.041063 0.906000
-0.013416 0.037786 0.899000
-0.010333 -0.011327 0.921000
0.016427 0.036390 0.892000
-0.014995 -0.033184 0.928000
0.011325 0.026935 0.895000
0.026152 -0.021702 0.911000
-0.010310 -0.002224 0.919000
0.006471 0.047085 0.886000
0.001428 -0.046502 0.927000
-0.011055 0.002312 0.918000
0.001041 -0.024621 0.922000
-0.010176 0.018710 0.907000
0.026065 0.015367 0.908000
-0.018214 0.003442 0.917000
0.019820 0.035078 0.896000
0.011263 -0.031383 0.920000
-0.025257 0.036676 0.899000
-0.011798 0.005707 0.917000
0.002932 -0.055617 0.920000
0.021462 0.001903 0.903000
0.011275 -0.034829 0.921000
0.006646 0.004165 0.910000
0.014400 0.005248 0.903000
0.007693 0.015249 0.901000
-0.026026 -0.025883 0.913000
0.003980 0.021529 0.900000
0.025262 0.013842 0.906000
0.018304 0.033160 0.894000
-0.019135 -0.023178 0.925000
-0.004667 -0.025843 0.925000
0.004263 0.045783 0.882000
0.031642 -0.023758 0.918000
0.007121 -0.034904 0.923000
0.017643 -0.031281 0.917000
0.027652 0.028541 0.911000
-0.017650 -0.025899 0.927000
0.000647 0.020463 0.902000
-0.014597 -0.037726 0.927000
0.004810 -0.013542 0.917000
0.025374 -0.017184 0.910000
-0.001570 0.036553 0.896000
0.029247 -0.003717 0.914000
0.004810 -0.011277 0.917000
0.005153 -0.052823 0.911000
-0.016887 -0.023609 0.927000
-0.010922 0.038666 0.877000
-0.004662 -0.025054 0.924000
0.022099 -0.028169 0.914000
-0.028906 0.018751 0.909000
0.029656 0.015862 0.915000
0.007411 -0.002207 0.912000
0.011287 0.034921 0.892000
-0.024550 0.002678 0.914000
0.005619 -0.045689 0.926000
0.011968 -0.022952 0.916000
0.014902 -0.014953 0.911000
-0.021211 -0.006741 0.916000
0.032055 -0.023784 0.919000
-0.005428 -0.026224 0.925000
0.004684 0.038269 0.893000
0.012059 -0.040223 0.923000
0.011389 0.015973 0.900000
-0.012521 0.039516 0.888000
0.025692 0.028821 0.908000
-0.004295 -0.028188 0.927000
0.032847 -0.023431 0.920000
-0.010805 -0.035514 0.929000
0.007846 -0.024162 0.919000
-0.006568 0.040332 0.874000
0.028464 0.025598 0.913000
0.013171 -0.035587 0.921000
-0.014471 -0.004115 0.919000
-0.001232 -0.016976 0.919000
0.013108 0.038916 0.891000
-0.013380 -0.014754 0.922000
-0.020101 -0.000332 0.917000
0.012102 0.019264 0.898000
-0.021303 -0.013965 0.920000
0.027247 -0.011191 0.910000
-0.005840 -0.039762 0.930000
-0.026749 -0.032236 0.912000
0.021785 0.011170 0.901000
-0.008986 0.033753 0.900000
0.025692 0.036669 0.908000
-0.003517 -0.050100 0.923000
0.029247 -0.000707 0.914000
0.021020 0.043754 0.900000
0.005987 -0.036463 0.924000
0.000664 -0.037686 0.926000
0.005486 0.013811 0.904000
0.014592 0.034554 0.892000
0.000666 -0.044690 0.929000
0.021160 -0.008159 0.906000
-0.002775 -0.040867 0.929000
-0.006371 0.038440 0.897000
0.004321 0.036104 0.894000
-0.003069 0.020857 0.903000
0.012059 -0.040603 0.923000
-0.009595 -0.018949 0.923000
0.000276 0.027115 0.901000
0.009685 -0.010112 0.914000
0.027247 0.016150 0.910000
0.010277 0.015973 0.900000
0.016276 0.000045 0.904000
-0.004764 0.040286 0.873000
0.021114 -0.001444 0.904000
0.015816 0.013365 0.899000
0.013199 -0.047061 0.923000
-0.012986 -0.009810 0.921000
-0.011520 -0.023939 0.925000
0.020997 0.020025 0.899000
0.011263 -0.051452 0.920000
0.004326 0.033565 0.895000
0.001362 0.045523 0.884000
-0.001203 0.033271 0.897000
-0.016741 -0.002602 0.919000
-0.010958 0.015401 0.910000
-0.021588 0.006454 0.916000
-0.003479 -0.052563 0.913000
0.009105 0.030584 0.894000
0.012885 0.010799 0.901000
0.001745 0.037208 0.894000
0.007020 0.003416 0.910000
-0.023850 -0.036148 0.916000
0.027773 -0.034225 0.915000
-0.011470 -0.007157 0.921000
-0.001969 0.012779 0.910000
0.022802 -0.024354 0.912000
-0.000475 -0.011302 0.919000
-0.013745 -0.009052 0.921000
0.035310 -0.017086 0.925000
0.003705 -0.034562 0.924000
-0.010782 -0.041542 0.927000
0.006313 -0.009003 0.916000
0.016312 -0.005176 0.906000
-0.012717 -0.030543 0.929000
0.021761 0.019306 0.900000
0.002856 0.032865 0.896000
-0.025884 0.031811 0.908000
-0.007866 0.035936 0.899000
-0.021163 0.038483 0.898000
0.026497 -0.016060 0.910000
0.007257 0.034593 0.893000
-0.025969 0.019542 0.911000
0.007701 0.013781 0.902000
-0.021658 -0.030971 0.919000
-0.022471 0.033605 0.906000
0.007436 -0.009370 0.915000
-0.011746 0.013197 0.913000
-0.015294 -0.013630 0.923000
0.003340 -0.044260 0.928000
-0.026315 0.025888 0.910000
-0.005026 -0.019666 0.921000
0.008727 0.033490 0.893000
0.023797 -0.008541 0.907000
0.013241 0.014121 0.900000
0.022124 -0.031589 0.915000
0.006928 0.022960 0.898000
0.003304 -0.010912 0.918000
0.034512 -0.018969 0.924000
-0.023447 -0.034602 0.915000
-0.020456 -0.005610 0.916000
0.028840 0.017331 0.913000
0.002559 -0.048528 0.922000
0.010050 -0.010101 0.913000
0.013899 -0.031727 0.919000
0.006382 -0.044927 0.926000
0.025262 0.000418 0.906000
0.004862 -0.044594 0.927000
-0.015504 0.012821 0.913000
-0.005123 0.039208 0.873000
-0.004561 0.021253 0.904000
-0.002308 0.036553 0.896000
0.011477 0.000418 0.907000
0.029721 -0.036187 0.917000
0.017996 0.019980 0.897000
0.026094 -0.013798 0.909000
-0.003467 0.013154 0.910000
0.032469 0.002696 0.920000
0.002565 -0.033801 0.924000
0.012237 -0.003319 0.908000
0.021534 -0.037143 0.922000
0.020997 0.038156 0.899000
-0.013491 0.031671 0.904000
0.006733 -0.026138 0.922000
0.022075 -0.026635 0.913000
-0.005434 -0.026633 0.926000
0.010289 0.012653 0.901000
0.015816 0.014105 0.899000
0.027652 -0.011953 0.911000
-0.028531 0.026608 0.909000
0.031642 -0.030181 0.918000
-0.001575 0.031865 0.899000
-0.002395 -0.042824 0.930000
-0.018016 0.027669 0.907000
0.009400 -0.037184 0.923000
-0.012813 -0.041945 0.936000
0.002852 0.035039 0.895000
0.001422 -0.048200 0.923000
-0.003134 -0.023103 0.922000
-0.013940 0.018377 0.909000
0.015360 0.026537 0.894000
0.016520 0.019980 0.897000
0.005215 -0.048148 0.922000
-0.011849 -0.007157 0.921000
-0.001623 -0.033112 0.926000
-0.024899 -0.033775 0.913000
0.019887 0.015585 0.899000
-0.003072 0.018648 0.904000
0.030033 0.004564 0.915000
0.033407 -0.020894 0.925000
0.032469 0.003453 0.920000
0.020662 -0.034677 0.917000
0.020696 0.044223 0.902000
0.009288 -0.003709 0.912000
-0.002004 -0.035399 0.926000
-0.001612 -0.020023 0.920000
0.027652 -0.001455 0.911000
0.015177 -0.001073 0.905000
0.018157 -0.002563 0.905000
0.007582 0.046095 0.888000
0.032883 0.001183 0.921000
0.021347 -0.028545 0.914000
-0.008702 0.015384 0.909000
0.008180 -0.005974 0.914000
0.016630 0.003390 0.903000
0.005419 0.038269 0.893000
0.029311 -0.033886 0.916000
-0.015967 -0.001466 0.918000
0.009010 -0.028795 0.922000
-0.024042 0.026982 0.909000
0.012569 0.001162 0.905000
0.005825 0.021505 0.899000
0.008189 -0.017278 0.915000
0.011043 0.010439 0.902000
-0.015742 -0.036200 0.927000
0.024489 0.016434 0.905000
-0.014231 -0.035475 0.928000
-0.015046 0.026952 0.908000
-0.005322 0.016470 0.907000
-0.005026 -0.010189 0.921000
0.027277 0.023292 0.911000
0.012022 0.032352 0.892000
0.023475 -0.016791 0.909000
-0.011695 0.016507 0.909000
0.030853 -0.000710 0.917000
-0.006203 -0.046883 0.927000
-0.004189 0.027578 0.904000
-0.018774 -0.025490 0.926000
-0.001623 -0.030444 0.926000
-0.001969 0.012030 0.910000
-0.002369 -0.007906 0.920000
-0.010700 -0.002605 0.920000
0.026123 -0.015311 0.910000
0.024889 0.033232 0.906000
-0.015793 0.021347 0.908000
-0.025482 0.032896 0.907000
0.032469 -0.005634 0.920000
0.005601 -0.032245 0.923000
0.008932 -0.015378 0.914000
-0.003127 -0.017751 0.920000
-0.022415 -0.026432 0.919000
-0.006585 -0.031240 0.927000
0.001745 0.038679 0.894000
-0.029830 0.032379 0.903000
0.030442 -0.028984 0.916000
0.005142 0.007153 0.909000
0.010683 0.008593 0.903000
-0.010782 -0.027806 0.927000
-0.011669 0.028789 0.907000
-0.026749 -0.032611 0.912000
0.010884 -0.032519 0.920000
-0.003151 -0.028569 0.927000
0.006587 0.014523 0.902000
0.026843 -0.008560 0.909000
0.013241 0.012639 0.900000
0.012453 -0.043309 0.924000
-0.025791 -0.021869 0.918000
0.009452 0.036023 0.892000
0.014209 0.038183 0.891000
0.008922 -0.004464 0.913000
-0.012255 -0.016670 0.923000
0.014339 -0.046681 0.923000
0.020234 0.020742 0.898000
-0.006577 -0.028539 0.926000
-0.006801 0.020531 0.905000
-0.002344 0.012030 0.910000
-0.012162 0.008339 0.916000
-0.010665 0.003442 0.917000
-0.011458 -0.001848 0.920000
0.004705 0.027364 0.897000
0.003722 -0.044260 0.928000
0.026094 -0.009308 0.909000
-0.000477 -0.024241 0.922000
0.032055 0.003828 0.919000
-0.007729 -0.031622 0.927000
0.026468 0.029975 0.909000
-0.001911 0.044382 0.883000
0.012318 -0.018764 0.914000
0.017277 0.014828 0.898000
0.003585 0.037208 0.894000
0.018488 0.001531 0.903000
0.034512 -0.012885 0.924000
0.019820 0.028809 0.896000
-0.014503 -0.011327 0.921000
-0.009006 0.031601 0.902000
-0.020101 0.000045 0.917000
-0.025679 -0.024031 0.914000
0.011153 -0.006329 0.911000
0.026872 -0.015311 0.910000
0.010612 0.022565 0.897000
0.000284 -0.040823 0.928000
-0.001582 0.019371 0.903000
-0.011091 -0.007915 0.921000
-0.018429 0.021370 0.909000
-0.023447 -0.035355 0.915000
-0.011055 0.001179 0.918000
-0.014231 -0.034329 0.928000
-0.007332 -0.025462 0.925000
0.005806 0.028809 0.896000
0.015143 0.003390 0.903000
0.014968 -0.024810 0.915000
-0.027439 0.023266 0.910000
-0.010712 -0.011327 0.921000
-0.009408 0.023511 0.905000
0.024889 0.003774 0.906000
-0.018824 0.018772 0.910000
0.024197 -0.011914 0.908000
-0.002308 0.038397 0.896000
0.037375 -0.023278 0.929000
-0.028157 0.022118 0.909000
0.022156 0.043432 0.901000
-0.011209 0.035235 0.900000
0.010577 0.030216 0.894000
-0.005809 -0.026224 0.925000
0.006882 0.037859 0.892000
0.018488 0.001160 0.903000
0.009278 -0.001080 0.911000
-0.003157 -0.040102 0.929000
-0.001239 -0.025054 0.924000
-0.011091 -0.006778 0.921000
-0.023297 -0.016688 0.924000
0.006202 0.020418 0.900000
-0.030061 0.020270 0.910000
0.027652 0.027041 0.911000
-0.017459 0.003442 0.917000
0.006536 0.032092 0.895000
-0.003528 -0.026633 0.926000
0.024944 0.029942 0.908000
-0.029247 0.029195 0.908000
0.006313 -0.013527 0.916000
-0.013536 0.023936 0.907000
0.008019 0.028071 0.896000
0.019820 0.034709 0.896000
-0.003505 -0.017373 0.920000
0.026872 0.020270 0.910000
-0.012056 0.018731 0.908000
0.022923 0.020834 0.902000
0.010471 -0.024110 0.917000
0.011528 -0.008579 0.911000
0.019909 0.011898 0.900000
-0.019093 -0.031105 0.923000
-0.013565 0.017255 0.909000
-0.017593 -0.015927 0.924000
0.017431 -0.006294 0.906000
0.008556 -0.006726 0.914000
-0.001596 -0.053573 0.911000
0.037798 -0.023686 0.930000
-0.025998 -0.028482 0.912000
0.013013 -0.010068 0.910000
-0.002010 -0.040867 0.929000
0.024117 0.040645 0.905000
-0.002748 -0.014722 0.920000
0.019083 0.024752 0.896000
-0.014656 0.025430 0.907000
0.022527 0.016361 0.901000
-0.003505 -0.015479 0.920000
0.015261 -0.012315 0.910000
-0.001211 0.018628 0.903000
0.003677 -0.015806 0.917000
0.014641 0.023620 0.895000
0.011165 -0.011216 0.912000
0.028557 -0.033509 0.916000
0.004103 -0.056100 0.928000
0.008556 -0.014626 0.914000
0.017643 -0.032035 0.917000
0.002923 -0.013542 0.917000
-0.002367 -0.018110 0.919000
-0.020652 0.026579 0.908000
-0.016141 -0.033184 0.928000
0.004461 -0.032625 0.923000
0.033678 -0.003370 0.922000
-0.010243 0.012446 0.913000
0.022949 0.042414 0.903000
-0.003509 -0.021561 0.921000
0.005595 -0.025380 0.922000
0.033298 -0.001472 0.922000
0.021367 0.031865 0.899000
-0.008492 -0.044212 0.927000
0.012472 0.019633 0.898000
-0.024735 0.031402 0.907000
-0.024200 0.001175 0.915000
-0.022061 -0.023053 0.920000
0.000659 -0.010924 0.919000
-0.015708 -0.017848 0.925000
-0.003127 -0.014722 0.920000
0.026123 -0.014562 0.910000
0.023849 -0.016791 0.909000
-0.013832 0.034942 0.902000
0.019975 0.002646 0.903000
0.031231 -0.013542 0.917000
0.017843 -0.009298 0.908000
0.018714 0.025121 0.896000
-0.015897 0.010578 0.914000
-0.010910 0.038982 0.876000
-0.016650 0.011331 0.914000
0.001414 -0.015446 0.918000
0.002170 -0.010912 0.918000
-0.008318 0.016115 0.908000
-0.009265 -0.032420 0.928000
-0.009116 0.012446 0.913000
-0.012334 -0.035514 0.929000
0.021785 0.029340 0.901000
0.019090 -0.025159 0.914000
-0.011187 -0.032072 0.929000
-0.006599 -0.043925 0.929000
0.015773 -0.032826 0.918000
-0.015402 0.024683 0.907000
0.031265 -0.002222 0.918000
-0.023615 0.030656 0.907000
0.016042 0.038916 0.891000
0.010994 0.020003 0.898000
-0.014078 0.004201 0.918000
-0.013264 0.012083 0.914000
0.009001 -0.032933 0.921000
0.011591 -0.023329 0.916000
0.016777 -0.017578 0.911000
-0.002766 -0.030444 0.926000
-0.018348 0.031333 0.905000
0.024889 -0.001447 0.906000
-0.028683 0.035684 0.902000
0.018550 -0.007040 0.906000
-0.010468 0.036716 0.900000
0.024944 -0.010419 0.908000
-0.008893 -0.035896 0.929000
-0.001224 -0.052187 0.913000
-0.005777 -0.007149 0.920000
-0.001244 -0.040441 0.928000
0.015781 0.017765 0.897000
0.004002 0.014199 0.905000
-0.008673 0.020181 0.906000
-0.007679 -0.016633 0.921000
-0.009533 0.002310 0.917000
-0.018990 -0.007511 0.918000
0.024330 -0.027762 0.913000
-0.009965 -0.017790 0.922000
0.011238 -0.025647 0.918000
0.002437 0.043769 0.878000
0.032055 -0.009411 0.919000
0.011528 -0.007079 0.911000
0.023630 -0.031589 0.915000
-0.021941 0.001552 0.915000
0.009380 -0.032554 0.921000
-0.027168 0.036015 0.901000
0.005068 0.031390 0.896000
-0.026518 -0.034677 0.917000
-0.000862 -0.045788 0.928000
-0.015793 0.026579 0.908000
-0.014188 0.036386 0.901000
0.011720 0.022196 0.897000
0.003293 -0.051172 0.915000
-0.012888 0.011331 0.914000
0.016832 0.028745 0.894000
-0.018214 0.002687 0.917000
0.022156 0.035274 0.901000
0.018040 -0.033582 0.918000
-0.030268 0.030588 0.905000
0.001792 -0.013934 0.918000
0.015887 0.002646 0.903000
0.011642 -0.034034 0.920000
0.010837 -0.022198 0.916000
-0.003123 -0.009032 0.919000
0.001038 -0.020380 0.919000
-0.011939 -0.037767 0.928000
0.011401 0.011911 0.901000
-0.012334 -0.034366 0.929000
0.005091 0.020418 0.900000
-0.005821 -0.033148 0.927000
0.003966 0.028841 0.897000
0.009166 0.017454 0.900000
-0.028874 0.020599 0.908000
0.031642 -0.013557 0.918000
-0.013438 -0.037686 0.926000
-0.014108 -0.006013 0.920000
0.015043 0.017765 0.897000
-0.020970 -0.023482 0.922000
0.009973 0.004519 0.906000
-0.008050 -0.005256 0.920000
0.009030 -0.046731 0.924000
-0.022317 0.010213 0.915000
-0.011079 -0.002226 0.920000
0.011692 -0.041407 0.924000
0.002120 0.031795 0.897000
-0.006801 0.029098 0.905000
-0.003452 0.016079 0.906000
0.006354 -0.032210 0.922000
0.006741 -0.034904 0.923000
-0.028157 0.019874 0.909000
0.022552 0.040510 0.902000
-0.011570 -0.035896 0.929000
0.030065 -0.033132 0.916000
-0.003880 -0.008276 0.919000
0.025890 -0.034225 0.915000
0.005091 0.020788 0.900000
-0.001243 -0.036963 0.927000
0.005148 0.004165 0.910000
-0.006793 0.021997 0.904000
0.006580 0.016361 0.901000
0.002548 -0.019980 0.918000
-0.009781 0.022021 0.905000
-0.017554 -0.013236 0.922000
0.020307 -0.035471 0.918000
0.000666 -0.041205 0.928000
-0.010164 0.028012 0.906000
0.030033 -0.017655 0.915000
-0.012042 0.020577 0.907000
-0.017992 -0.034599 0.925000
0.020347 0.000788 0.903000
-0.019368 -0.002599 0.918000
0.009706 -0.050097 0.916000
0.002900 -0.053889 0.910000
-0.007671 -0.007528 0.920000
0.002125 0.026315 0.899000
0.006278 0.001920 0.911000
0.003332 -0.039591 0.926000
-0.012334 -0.032837 0.929000
-0.009647 -0.031274 0.928000
0.001425 -0.028888 0.925000
0.019006 -0.015311 0.910000
0.009329 -0.050474 0.916000
0.032055 -0.008276 0.919000
-0.030160 0.019585 0.913000
0.019402 -0.018328 0.911000
-0.026485 0.035352 0.903000
0.009268 0.000419 0.910000
0.015093 0.011898 0.900000
-0.005405 -0.013601 0.921000
-0.015393 -0.030543 0.929000
0.013447 -0.019517 0.914000
-0.017642 0.029163 0.907000
-0.004692 -0.041676 0.930000
-0.016795 -0.012857 0.922000
-0.006163 -0.011706 0.921000
0.005034 0.044367 0.890000
0.032433 -0.031349 0.919000
-0.001225 -0.051868 0.914000
-0.021025 0.027326 0.908000
0.036571 -0.015996 0.928000
0.005437 0.029915 0.896000
-0.014769 0.011707 0.914000
-0.010718 0.042902 0.890000
0.012059 -0.040983 0.923000
-0.010782 -0.042686 0.927000
-0.012704 0.035274 0.901000
-0.002721 0.011294 0.911000
0.034512 -0.017448 0.924000
0.021391 0.018195 0.900000
0.017296 0.012995 0.899000
-0.003532 -0.035437 0.927000
-0.005784 -0.019666 0.921000
0.021160 -0.008532 0.906000
-0.015572 0.005329 0.917000
-0.007371 -0.042059 0.930000
0.023660 -0.037889 0.931000
0.014804 -0.000328 0.905000
0.012928 0.003393 0.904000
-0.029962 0.023190 0.907000
-0.024121 0.019939 0.912000
-0.025109 0.033269 0.907000
0.008350 0.036757 0.892000
0.007718 0.011207 0.904000
-0.010164 0.020927 0.906000
-0.028500 0.020973 0.908000
-0.010164 0.026147 0.906000
-0.016327 0.002687 0.917000
-0.013700 0.002312 0.918000
0.000275 0.031125 0.899000
0.028026 -0.004454 0.911000
-0.011939 -0.029746 0.928000
0.032847 -0.031004 0.920000
-0.017193 0.034237 0.903000
0.003577 0.040796 0.892000
0.005232 -0.038787 0.925000
0.015635 -0.013438 0.910000
0.005221 -0.033005 0.923000
0.026094 -0.010431 0.909000
0.003713 -0.039591 0.926000
-0.014672 0.028447 0.908000
-0.028157 0.018377 0.909000
0.027247 0.019146 0.910000
-0.010805 -0.043925 0.929000
0.001396 0.014960 0.906000
-0.025969 0.022542 0.911000
-0.022520 0.028074 0.908000
0.030853 0.010236 0.917000
-0.015741 0.031706 0.905000
0.008575 -0.020313 0.916000
-0.000863 -0.042778 0.929000
0.020627 0.015215 0.899000
-0.019135 -0.019751 0.925000
0.033678 -0.002611 0.922000
-0.005815 -0.029682 0.926000
0.018529 -0.003680 0.905000
-0.020924 -0.030626 0.920000
0.013997 0.010428 0.901000
-0.005399 -0.016237 0.920000
0.010197 0.033123 0.893000
-0.014946 -0.018609 0.925000
-0.009215 -0.020848 0.923000
-0.016449 0.033494 0.903000
-0.012388 -0.042195 0.933000
0.023718 0.036135 0.904000
0.009547 0.013395 0.901000
-0.014345 0.014293 0.911000
0.028903 -0.029329 0.915000
0.034094 -0.026927 0.923000
-0.019304 0.008330 0.915000
-0.010758 -0.024701 0.925000
0.007906 -0.044927 0.926000
0.026872 0.019146 0.910000
-0.002721 0.010919 0.911000
-0.022061 -0.022674 0.920000
0.012444 0.022540 0.896000
-0.004672 -0.030825 0.926000
-0.019368 -0.012045 0.918000
0.005601 -0.028446 0.923000
0.026872 0.029259 0.910000
0.008331 0.044733 0.890000
-0.023370 0.019189 0.912000
0.016060 0.035656 0.892000
-0.004641 -0.014343 0.920000
-0.019853 -0.026547 0.923000
0.004427 0.005323 0.916000
-0.022844 0.032486 0.906000
-0.012402 0.030249 0.906000
-0.017759 0.011694 0.913000
-0.018035 0.023589 0.908000
0.006333 -0.023406 0.919000
0.021761 0.024863 0.900000
0.011287 -0.038282 0.922000
0.006990 0.010859 0.906000
-0.011043 0.003442 0.917000
-0.005790 -0.020067 0.922000
-0.016858 0.031706 0.905000
0.006382 -0.045308 0.926000
0.030853 -0.011655 0.917000
-0.016577 0.017648 0.910000
0.017976 0.022540 0.896000
0.011018 0.015232 0.900000
0.030033 -0.027823 0.915000
0.004081 -0.030725 0.923000
-0.003536 -0.036621 0.928000
0.009308 -0.013874 0.914000
-0.019114 0.030622 0.906000
-0.011570 -0.036661 0.929000
0.017627 0.021088 0.897000
0.011642 -0.031004 0.920000
-0.015674 -0.015150 0.923000
0.001031 -0.052187 0.913000
0.004466 -0.036083 0.924000
-0.003151 -0.029714 0.927000
-0.004309 -0.043973 0.930000
0.007121 -0.028066 0.923000
0.005552 0.000045 0.915000
-0.014550 -0.016688 0.924000
0.005528 0.002670 0.911000
-0.008845 -0.022392 0.924000
0.022552 0.043480 0.902000
-0.024200 -0.030083 0.915000
-0.011470 -0.011706 0.921000
0.019274 -0.004053 0.905000
0.008434 0.014507 0.901000
0.004862 -0.043449 0.927000
-0.025623 0.009054 0.912000
0.013085 -0.021797 0.915000
0.007906 -0.043784 0.926000
-0.017063 0.007962 0.916000
0.013717 -0.003688 0.907000
0.013873 0.029815 0.893000
0.011553 -0.017241 0.913000
0.007121 -0.035664 0.923000
-0.023447 -0.032342 0.915000
0.004403 -0.054698 0.911000
-0.013759 -0.013616 0.922000
-0.002274 0.044382 0.883000
-0.021941 -0.003721 0.915000
0.025663 0.017590 0.907000
0.021628 -0.017933 0.910000
-0.013365 -0.011706 0.921000
0.015210 -0.005555 0.907000
0.024889 0.036588 0.906000
0.003228 0.029210 0.897000
-0.017269 0.029163 0.907000
-0.003441 0.023459 0.903000
-0.006577 -0.028920 0.926000
-0.023197 -0.019266 0.920000
0.006966 0.012681 0.903000
-0.013424 -0.021655 0.925000
0.010277 0.014861 0.900000
0.004442 -0.023406 0.919000
-0.020902 -0.012815 0.919000
0.032883 -0.003745 0.921000
0.018775 -0.033545 0.917000
0.032055 -0.000333 0.919000
-0.007679 -0.009431 0.921000
0.023797 -0.007795 0.907000
0.005221 -0.032625 0.923000
-0.014656 0.024683 0.907000
-0.015828 0.016899 0.910000
-0.020811 0.007954 0.915000
0.013505 0.031285 0.893000
0.003705 -0.036083 0.924000
0.007289 0.026995 0.897000
-0.017100 -0.001844 0.918000
0.036571 -0.015232 0.928000
-0.016452 -0.015166 0.924000
-0.009543 0.042201 0.883000
-0.023096 -0.033509 0.916000
0.021114 0.000417 0.904000
0.019296 -0.007413 0.906000
-0.012402 0.022791 0.906000
0.031642 -0.027536 0.918000
0.034094 -0.009832 0.923000
-0.021869 0.018062 0.912000
-0.022244 0.018813 0.912000
-0.015300 0.037128 0.901000
-0.012789 0.028043 0.907000
-0.025656 0.037087 0.900000
-0.000479 -0.034637 0.926000
0.012680 -0.016113 0.913000
-0.002367 -0.016597 0.919000
-0.009215 -0.020468 0.923000
0.023228 -0.030050 0.914000
0.001407 -0.052187 0.913000
-0.023011 0.037374 0.898000
0.017373 0.003390 0.903000
0.012694 -0.019140 0.914000
-0.019882 0.028043 0.907000
0.008369 0.031688 0.894000
-0.006748 0.036265 0.898000
0.015261 -0.012689 0.910000
0.021020 0.011898 0.900000
0.013842 0.035616 0.891000
0.020650 0.014121 0.900000
0.009105 0.032056 0.894000
-0.025998 -0.032611 0.912000
0.009298 -0.004840 0.913000
-0.013759 -0.012477 0.922000
-0.017268 -0.022846 0.927000
0.002132 0.019349 0.902000
-0.010677 0.000423 0.918000
0.012899 0.008212 0.902000
0.032055 -0.000711 0.919000
-0.008816 -0.010947 0.921000
-0.017497 -0.005628 0.919000
0.030442 0.005323 0.916000
0.007983 0.037859 0.892000
-0.024763 0.029942 0.908000
0.033407 -0.020132 0.925000
0.008698 0.041437 0.890000
-0.021423 0.024363 0.909000
0.011528 -0.011204 0.911000
-0.017895 -0.009421 0.920000
-0.019992 0.016186 0.912000
0.035730 -0.021678 0.926000
0.027306 -0.022852 0.912000
-0.022061 -0.024946 0.920000
0.009515 0.021112 0.898000
0.019083 0.025859 0.896000
0.016926 0.012995 0.899000
0.008556 -0.011993 0.914000
0.021954 -0.012662 0.908000
-0.026344 -0.028826 0.911000
0.004090 -0.047163 0.925000
0.031231 -0.024110 0.917000
-0.005346 0.012043 0.911000
-0.018741 0.029503 0.906000
0.004099 -0.044212 0.927000
0.032433 -0.025675 0.919000
0.019820 0.030653 0.896000
0.014384 0.007469 0.902000
0.005193 -0.021113 0.918000
0.011772 0.011911 0.901000
0.024543 -0.007421 0.907000
0.005761 0.044683 0.889000
0.014935 -0.019495 0.913000
-0.006156 -0.006392 0.920000
0.015244 -0.011179 0.909000
0.007624 0.034226 0.893000
0.002565 -0.033421 0.924000
0.015009 0.023620 0.895000
0.003300 -0.016184 0.917000
-0.025941 0.025514 0.910000
0.020673 0.008203 0.901000
-0.023096 -0.032755 0.916000
0.000655 -0.052187 0.913000
0.013520 -0.032484 0.919000
-0.001232 -0.013571 0.919000
0.005068 0.029915 0.896000
0.011165 -0.012342 0.912000
0.023424 -0.009288 0.907000
-0.008692 0.016488 0.908000
-0.028343 0.013603 0.915000
-0.017992 -0.032315 0.925000
0.007509 -0.037985 0.924000
0.012514 0.011540 0.901000
0.024117 0.038038 0.905000
0.006182 0.025888 0.897000
0.024090 0.009718 0.904000
0.033678 -0.026897 0.922000
0.020856 -0.016417 0.909000
-0.025679 -0.024407 0.914000
-0.020697 0.020645 0.910000
0.018277 -0.018703 0.911000
-0.015487 0.013558 0.912000
0.002118 0.034341 0.896000
0.006257 0.007893 0.908000
0.020550 -0.023227 0.912000
-0.006056 0.020531 0.905000
-0.015953 0.039503 0.896000
0.009237 0.004524 0.907000
0.026872 0.022517 0.910000
0.028840 0.015828 0.913000
0.000276 0.020834 0.902000
-0.012241 -0.013616 0.922000
-0.020834 -0.001840 0.916000
0.033262 -0.009052 0.921000
-0.004300 -0.036239 0.928000
0.030065 0.017765 0.916000
0.010517 -0.034071 0.921000
-0.008864 -0.027014 0.926000
0.024033 -0.034263 0.916000
0.028057 0.010931 0.912000
-0.000860 -0.029301 0.926000
0.020856 -0.015294 0.909000
0.005565 -0.011277 0.917000
-0.025247 0.012432 0.912000
0.016330 -0.007421 0.907000
0.012819 -0.040983 0.923000
0.017976 0.025121 0.896000
0.018881 -0.001072 0.904000
0.021581 -0.013035 0.908000
0.001416 -0.021514 0.919000
-0.005942 0.044633 0.888000
0.007676 0.021505 0.899000
0.013959 -0.042882 0.923000
-0.028531 0.017629 0.909000
-0.013848 0.032007 0.903000
0.028026 -0.005579 0.911000
