0.009738 0.026144 0.919000
0.008631 -0.009441 0.922000
0.007949 -0.038272 0.931000
-0.011235 0.011182 0.933000
-0.012081 -0.028166 0.939000
-0.037084 -0.012667 0.936000
0.027985 -0.006406 0.922000
-0.032864 -0.046923 0.959000
0.010742 0.040032 0.908000
-0.000098 -0.029427 0.930000
0.016833 0.009074 0.914000
0.039075 0.005370 0.924000
0.002559 0.029645 0.922000
-0.014597 0.023319 0.927000
0.014919 0.034578 0.912000
0.017700 -0.015858 0.920000
-0.007292 0.042076 0.920000
-0.029630 -0.009667 0.944000
0.010138 -0.004124 0.921000
-0.005865 -0.006489 0.934000
-0.026939 -0.013955 0.945000
-0.006183 0.036935 0.924000
0.019257 -0.017410 0.922000
0.010237 -0.035169 0.930000
-0.031640 -0.023704 0.946000
-0.010434 0.022247 0.930000
-0.010898 -0.000725 0.937000
-0.028639 -0.040062 0.937000
-0.000863 -0.018307 0.929000
-0.028555 -0.023729 0.947000
-0.016193 0.014607 0.931000
0.003722 -0.032802 0.928000
0.025109 -0.002212 0.914000
-0.012717 0.022605 0.929000
-0.034038 -0.008438 0.937000
-0.019362 0.004669 0.936000
0.006719 0.032988 0.920000
-0.011507 0.033132 0.924000
0.027167 -0.006013 0.920000
0.019246 -0.032065 0.940000
0.026381 0.026893 0.906000
0.013859 -0.040275 0.942000
0.032081 0.010520 0.909000
-0.002382 0.024411 0.925000
-0.029724 -0.022950 0.947000
-0.030536 -0.027656 0.948000
-0.033760 -0.011173 0.940000
0.029397 0.011991 0.907000
0.017912 -0.026777 0.931000
-0.025100 -0.047996 0.949000
-0.022924 -0.048350 0.956000
0.004090 0.015274 0.925000
-0.008189 -0.007273 0.936000
0.013528 -0.044729 0.946000
0.010734 -0.042898 0.940000
0.010471 0.018539 0.917000
0.030113 0.031355 0.895000
0.022802 0.001546 0.912000
0.025352 0.034709 0.896000
0.013506 -0.001466 0.918000
0.005961 0.025037 0.920000
-0.027746 -0.017864 0.946000
0.022599 -0.010167 0.919000
-0.006966 0.027898 0.927000
0.027627 0.030721 0.898000
-0.004702 -0.027956 0.932000
-0.011888 0.031230 0.924000
-0.018875 0.013074 0.931000
0.005589 0.016345 0.921000
-0.003888 0.041743 0.921000
-0.017916 -0.046429 0.941000
0.021277 0.011668 0.911000
0.005232 -0.021274 0.925000
0.001431 -0.029013 0.929000
-0.012480 -0.024714 0.940000
0.012986 -0.033819 0.935000
0.016726 -0.026337 0.929000
0.003718 -0.023991 0.927000
0.027955 -0.006020 0.921000
0.003332 0.013766 0.926000
0.029440 -0.012996 0.932000
0.017190 0.015076 0.913000
0.001430 -0.015996 0.928000
-0.007011 0.011566 0.933000
0.029247 0.001550 0.914000
-0.007804 -0.029232 0.936000
-0.021859 -0.029482 0.944000
-0.002017 -0.011845 0.932000
-0.006634 -0.030707 0.934000
-0.014369 -0.002653 0.937000
0.007846 0.022740 0.919000
-0.023025 -0.029093 0.944000
0.027842 0.027981 0.905000
-0.021836 -0.027122 0.943000
0.037811 0.006111 0.921000
0.020241 -0.004474 0.915000
-0.003168 -0.031409 0.932000
-0.014692 0.012718 0.933000
0.025663 0.017963 0.907000
-0.006641 -0.005726 0.935000
0.007880 0.011822 0.923000
0.012385 -0.009411 0.919000
-0.015895 0.004284 0.936000
0.037154 0.019786 0.905000
0.004090 0.014893 0.925000
-0.011595 0.016906 0.931000
0.007966 -0.039891 0.933000
0.016420 0.031951 0.912000
-0.005463 0.014224 0.931000
-0.002017 -0.009927 0.932000
0.024172 -0.023068 0.936000
-0.015576 -0.018524 0.940000
-0.010148 -0.027780 0.939000
-0.000864 -0.029810 0.930000
-0.001245 0.014958 0.929000
0.016151 -0.036321 0.940000
0.031156 -0.006052 0.926000
-0.030894 -0.023729 0.947000
-0.025417 -0.046752 0.932000
0.034661 0.013872 0.908000
-0.007721 0.030917 0.926000
0.016851 0.000798 0.915000
0.013623 -0.027014 0.926000
-0.008556 -0.021866 0.934000
0.004862 -0.011019 0.927000
0.018498 -0.017410 0.922000
0.022317 -0.027393 0.939000
0.005232 -0.017086 0.925000
0.031041 -0.012640 0.934000
0.018079 -0.014722 0.920000
0.022933 0.030745 0.888000
-0.012441 -0.004582 0.937000
-0.012388 0.011566 0.933000
-0.036236 -0.008411 0.934000
-0.017473 -0.003428 0.938000
0.018059 -0.014328 0.919000
0.036985 0.014652 0.910000
-0.008593 -0.025048 0.938000
0.022317 -0.014390 0.923000
0.016098 0.009084 0.915000
0.021200 0.031250 0.892000
-0.032530 -0.037016 0.938000
0.015001 0.025332 0.917000
0.009020 -0.021228 0.923000
-0.028761 -0.037909 0.941000
0.012112 -0.029332 0.927000
0.002553 0.039804 0.920000
0.006333 0.021605 0.919000
-0.036075 -0.015593 0.950000
-0.017417 0.006203 0.935000
-0.023413 -0.019380 0.944000
-0.025383 -0.020567 0.945000
-0.000863 -0.022896 0.929000
0.000284 0.013046 0.929000
0.008341 -0.039081 0.932000
-0.019874 -0.024379 0.942000
0.031089 -0.004138 0.924000
-0.019098 -0.034847 0.942000
-0.033551 -0.030291 0.945000
0.019328 -0.035698 0.944000
-0.022636 -0.028316 0.944000
-0.000097 0.039089 0.921000
0.013128 -0.001466 0.918000
0.002954 -0.021320 0.927000
-0.003555 -0.010322 0.933000
0.030394 -0.006815 0.926000
-0.007411 -0.033819 0.935000
0.016420 0.030825 0.912000
-0.014277 0.016906 0.931000
0.017604 -0.002214 0.915000
-0.011991 0.013472 0.932000
-0.013909 0.015006 0.932000
-0.011669 0.001975 0.937000
-0.003521 0.037695 0.924000
0.001042 0.022459 0.923000
-0.025912 -0.042330 0.936000
-0.008128 0.021076 0.929000
-0.004318 -0.027956 0.932000
0.017359 -0.019308 0.922000
-0.007704 0.035794 0.924000
0.015328 0.017726 0.914000
-0.001630 -0.016030 0.930000
-0.032881 -0.037362 0.937000
0.020955 -0.021772 0.930000
0.009258 0.040825 0.909000
0.004471 -0.016325 0.925000
0.020572 0.000797 0.913000
0.000285 -0.044883 0.933000
-0.011644 -0.013038 0.935000
0.033765 0.020136 0.904000
-0.017529 -0.031325 0.941000
-0.018342 -0.040706 0.943000
0.010182 -0.026985 0.925000
0.009738 0.025388 0.919000
-0.030861 -0.017085 0.946000
-0.009345 -0.033855 0.936000
-0.020606 -0.004209 0.940000
0.034586 -0.001479 0.926000
0.005193 0.037451 0.918000
0.016133 -0.006748 0.917000
0.033605 0.002317 0.920000
0.012722 -0.043858 0.944000
0.021277 0.015043 0.911000
0.010896 0.008385 0.921000
-0.025799 -0.025651 0.946000
0.016869 0.024174 0.916000
0.013270 0.038283 0.902000
-0.006236 0.010787 0.932000
-0.030274 -0.043878 0.928000
-0.029756 -0.028046 0.948000
-0.014755 -0.012295 0.937000
-0.002400 -0.012996 0.932000
0.028745 0.006787 0.910000
0.031918 -0.005290 0.926000
0.015738 -0.002594 0.916000
0.007090 0.020849 0.919000
0.015345 0.010967 0.915000
0.023902 0.004544 0.911000
-0.012427 -0.011126 0.936000
-0.030082 -0.013970 0.946000
0.018418 -0.010912 0.918000
0.019215 -0.015101 0.920000
0.026754 0.028385 0.906000
0.013099 0.014749 0.916000
0.020707 -0.012058 0.919000
-0.002395 -0.023303 0.930000
-0.017783 0.009272 0.934000
0.025027 0.003420 0.911000
0.033532 0.003824 0.918000
-0.034755 -0.018642 0.946000
-0.016297 0.000818 0.937000
0.019528 -0.028046 0.935000
0.005261 -0.038614 0.930000
-0.009215 0.034616 0.923000
-0.028555 -0.025288 0.947000
-0.021037 -0.016625 0.942000
-0.007026 -0.037667 0.935000
0.005204 0.019357 0.920000
-0.028822 -0.007716 0.943000
-0.012068 -0.032383 0.938000
0.010160 -0.023887 0.923000
0.028396 -0.007172 0.923000
0.014799 -0.027454 0.928000
0.024543 0.026176 0.907000
0.025262 0.029130 0.906000
0.010620 -0.034403 0.930000
0.020174 0.007928 0.912000
-0.003547 -0.023328 0.931000
0.024972 0.008650 0.909000
-0.016315 -0.005745 0.938000
0.019871 -0.026066 0.933000
0.028927 0.030182 0.904000
0.008818 -0.046479 0.942000
-0.024216 -0.028346 0.945000
0.010872 0.026901 0.919000
-0.004682 0.019907 0.928000
0.007501 -0.015150 0.923000
-0.003517 0.039934 0.923000
0.011604 0.014010 0.917000
0.021628 0.019146 0.910000
0.007501 0.011442 0.923000
0.023527 0.004544 0.911000
-0.013156 0.013486 0.933000
-0.037189 -0.004542 0.929000
0.021254 0.018397 0.910000
-0.034932 -0.001868 0.930000
-0.013983 0.000046 0.937000
0.007517 -0.005284 0.925000
0.011263 -0.001848 0.920000
0.035768 -0.001480 0.927000
0.016869 0.022289 0.916000
0.013609 -0.025843 0.925000
-0.026967 -0.018642 0.946000
0.022414 -0.017505 0.927000
0.041602 0.011038 0.921000
0.028339 0.007527 0.909000
0.004095 -0.023584 0.926000
-0.002380 0.026286 0.924000
0.017171 0.027071 0.912000
-0.017087 -0.011922 0.938000
-0.012480 -0.025101 0.940000
0.006402 -0.036278 0.929000
-0.034970 -0.003786 0.931000
-0.015060 0.015390 0.932000
-0.002398 -0.026777 0.931000
-0.025020 -0.031491 0.946000
-0.011582 0.021481 0.930000
0.001819 -0.043684 0.932000
-0.006176 0.038794 0.923000
-0.015526 -0.006510 0.937000
0.006340 0.026930 0.920000
-0.011669 0.000046 0.937000
0.023508 -0.014802 0.925000
-0.014028 -0.025875 0.940000
0.032984 0.028291 0.903000
-0.024994 -0.023679 0.945000
-0.031690 -0.004191 0.936000
0.028713 0.009024 0.909000
0.030164 -0.001468 0.919000
-0.011607 0.015006 0.932000
-0.006585 0.026372 0.927000
0.029023 0.013484 0.907000
-0.020219 -0.009239 0.940000
-0.026511 -0.045504 0.930000
0.017961 0.024497 0.914000
0.024295 -0.014056 0.926000
-0.004323 -0.008018 0.933000
-0.017529 -0.044493 0.941000
-0.005469 0.011937 0.932000
0.024543 0.024310 0.907000
0.004485 -0.032802 0.928000
0.005244 -0.002243 0.927000
-0.003555 -0.009170 0.933000
-0.027897 0.001205 0.938000
0.017893 -0.025600 0.930000
0.028651 -0.003359 0.919000
0.031673 -0.008375 0.930000
0.009167 -0.043193 0.938000
-0.014802 -0.034000 0.940000
-0.009710 -0.018021 0.934000
-0.002784 -0.037163 0.932000
0.002576 -0.027072 0.928000
0.022402 0.003795 0.911000
0.006726 0.015208 0.921000
0.004117 -0.003786 0.931000
0.002573 -0.014453 0.927000
0.009380 -0.010568 0.921000
-0.039909 -0.009523 0.930000
0.006368 -0.017448 0.924000
-0.015827 0.013855 0.932000
-0.000863 -0.020219 0.929000
-0.022396 0.003506 0.934000
0.033349 0.007936 0.913000
0.044016 0.018519 0.916000
0.034703 0.004206 0.919000
0.025720 0.010146 0.909000
0.021961 -0.015166 0.924000
-0.023751 -0.008095 0.942000
0.010849 0.030994 0.917000
0.026410 0.015724 0.907000
0.018714 0.002302 0.914000
-0.001239 0.025526 0.924000
0.004862 0.009584 0.927000
-0.005853 -0.016449 0.932000
0.011263 -0.008664 0.920000
-0.028434 -0.036825 0.943000
0.014230 0.009093 0.916000
-0.030894 -0.031914 0.947000
-0.003555 -0.042579 0.933000
0.019132 -0.008626 0.916000
0.004862 -0.032766 0.927000
-0.033748 -0.042396 0.929000
-0.002400 -0.034477 0.932000
0.004514 -0.044931 0.934000
0.024505 -0.020712 0.934000
0.008631 -0.015134 0.922000
-0.021448 -0.030227 0.943000
-0.023049 -0.035736 0.945000
-0.002781 -0.027543 0.931000
-0.022588 -0.011972 0.942000
0.002958 -0.032802 0.928000
0.023152 0.004919 0.911000
0.017902 0.028541 0.911000
0.006368 -0.018969 0.924000
-0.022976 -0.008871 0.942000
0.022317 -0.014010 0.923000
0.036863 0.016843 0.907000
-0.012042 -0.011511 0.936000
0.023849 0.015384 0.909000
-0.035695 -0.013881 0.940000
-0.012055 -0.002268 0.937000
0.020130 0.024765 0.910000
-0.016210 0.013088 0.932000
0.010506 0.028445 0.920000
0.010471 0.021936 0.917000
0.017190 0.014325 0.913000
-0.016315 -0.011150 0.938000
-0.016630 0.009657 0.934000
-0.012068 -0.037402 0.938000
-0.011607 0.013472 0.932000
-0.031623 -0.001876 0.934000
-0.006210 0.021817 0.928000
-0.032773 -0.031847 0.945000
-0.032179 -0.007297 0.939000
-0.001249 -0.010311 0.932000
0.030262 -0.003370 0.922000
0.006340 0.025794 0.920000
-0.000098 -0.014117 0.930000
0.028308 0.010883 0.908000
0.035331 0.016452 0.906000
-0.033820 -0.040188 0.931000
0.002945 0.016779 0.924000
-0.003544 0.017271 0.930000
-0.012662 0.028980 0.925000
-0.014028 -0.020459 0.940000
0.009512 -0.038780 0.934000
0.032681 -0.003766 0.926000
-0.019038 -0.045558 0.939000
0.019799 0.007928 0.912000
-0.029756 -0.025705 0.948000
0.040421 0.010648 0.920000
0.004452 0.022789 0.921000
0.006395 -0.034711 0.928000
0.018939 -0.036087 0.944000
-0.016736 -0.028970 0.940000
0.016925 -0.013193 0.919000
0.031741 -0.010695 0.932000
-0.020090 0.005044 0.934000
0.009594 -0.045703 0.942000
0.004825 0.023522 0.920000
-0.023025 -0.027928 0.944000
-0.025635 -0.000727 0.940000
-0.029510 -0.044642 0.928000
-0.025967 -0.041649 0.938000
-0.022588 -0.011585 0.942000
-0.031238 -0.040318 0.934000
-0.013141 0.015773 0.932000
0.023076 0.029942 0.908000
0.010358 -0.043718 0.941000
0.025494 0.036386 0.901000
-0.011272 -0.018831 0.936000
0.007889 -0.024294 0.924000
-0.007395 -0.019154 0.933000
-0.002385 0.020626 0.926000
-0.022612 -0.016643 0.943000
-0.012068 -0.029294 0.938000
-0.015592 -0.042556 0.941000
-0.005440 0.025609 0.927000
-0.015759 0.021817 0.928000
-0.003171 -0.040275 0.933000
-0.017087 -0.006903 0.938000
-0.025717 -0.007328 0.943000
-0.007788 -0.011102 0.934000
0.001790 0.043449 0.917000
0.012007 0.001558 0.919000
0.013914 -0.015858 0.920000
-0.000097 0.043212 0.920000
0.031642 0.001179 0.918000
0.010908 -0.020826 0.922000
-0.032773 -0.016289 0.945000
0.015790 -0.013193 0.919000
-0.006620 0.015006 0.932000
0.008269 -0.024294 0.924000
0.041060 0.020248 0.909000
-0.006577 0.030536 0.926000
-0.027511 -0.040490 0.938000
0.004820 0.035979 0.919000
-0.026409 -0.001114 0.940000
-0.022059 -0.046568 0.936000
-0.004323 -0.038738 0.933000
0.002576 -0.026691 0.928000
0.010896 0.007627 0.921000
0.028401 0.004919 0.911000
0.007872 -0.011718 0.922000
0.001810 -0.017123 0.927000
0.024277 0.004544 0.911000
0.015704 0.013588 0.914000
-0.011669 0.002746 0.937000
0.028457 -0.008330 0.925000
0.014020 -0.027806 0.927000
-0.022829 -0.044256 0.936000
-0.026550 -0.036903 0.945000
0.019386 0.032020 0.893000
-0.033365 -0.042778 0.929000
-0.010501 0.004284 0.936000
-0.008874 0.028661 0.927000
-0.013240 -0.036669 0.939000
0.002942 0.017900 0.923000
-0.005784 0.040606 0.921000
-0.009335 0.006588 0.935000
-0.007356 0.024109 0.928000
-0.034111 -0.010388 0.939000
-0.013141 0.016924 0.932000
-0.017916 -0.016995 0.941000
-0.003551 -0.027573 0.932000
-0.007300 0.042501 0.921000
-0.030439 -0.011233 0.945000
-0.010512 -0.004196 0.937000
-0.020197 -0.001113 0.939000
-0.037248 -0.039835 0.950000
-0.023364 -0.005381 0.942000
0.013528 -0.044340 0.946000
-0.025799 -0.028766 0.946000
0.002954 -0.014834 0.927000
-0.005020 0.042076 0.920000
0.008225 0.024253 0.919000
-0.003555 -0.008402 0.933000
-0.007796 -0.004572 0.935000
0.009759 -0.011327 0.921000
-0.010083 0.012718 0.933000
0.015099 -0.021988 0.923000
0.014246 0.000045 0.917000
0.004452 0.033782 0.921000
0.009030 0.001947 0.924000
0.016474 0.002305 0.915000
0.004500 -0.040571 0.931000
0.013476 0.021535 0.916000
0.004108 -0.037043 0.929000
-0.014292 0.015390 0.932000
0.027469 0.030216 0.905000
0.026314 -0.015648 0.930000
0.012345 0.017388 0.916000
0.005994 -0.022036 0.925000
0.006388 -0.032003 0.927000
-0.035045 -0.038354 0.933000
0.003318 0.019399 0.922000
0.001816 -0.037848 0.930000
0.008971 0.021960 0.918000
-0.031961 -0.033756 0.944000
-0.028076 -0.008113 0.944000
0.009359 0.025766 0.919000
-0.007308 0.037993 0.922000
-0.018631 0.000046 0.938000
0.005204 0.020493 0.920000
0.011756 -0.032455 0.929000
-0.004631 0.044252 0.918000
-0.002751 0.042501 0.921000
0.023630 -0.003721 0.915000
-0.007004 0.015390 0.932000
-0.002395 -0.021772 0.930000
-0.016772 -0.022828 0.942000
0.017981 -0.002591 0.915000
0.027127 0.022791 0.906000
0.004090 0.014513 0.925000
-0.009335 -0.020735 0.935000
0.007452 0.037410 0.917000
-0.012744 0.018439 0.931000
0.015721 0.007201 0.915000
-0.003161 0.016122 0.930000
-0.011260 -0.016501 0.935000
-0.030472 -0.015917 0.946000
0.029087 0.008276 0.909000
0.003718 -0.028951 0.927000
-0.002380 0.028188 0.924000
0.012385 -0.001089 0.919000
-0.027299 -0.037253 0.944000
0.029151 0.005669 0.911000
0.005987 -0.018969 0.924000
-0.038927 -0.013024 0.934000
0.010861 0.023849 0.918000
0.034242 -0.003388 0.927000
-0.029924 -0.043925 0.929000
-0.040767 -0.014420 0.950000
-0.017380 0.010030 0.933000
0.018277 0.032291 0.911000
-0.007403 -0.022250 0.934000
-0.003140 0.035794 0.924000
0.003336 -0.023609 0.927000
0.027500 0.023164 0.906000
0.011074 -0.039248 0.936000
-0.022247 -0.027151 0.944000
0.009642 0.041244 0.910000
0.013550 -0.018908 0.921000
-0.016367 -0.018157 0.941000
-0.002375 0.040650 0.922000
-0.006570 0.034691 0.925000
0.018317 0.006809 0.913000
-0.012758 0.015390 0.932000
0.031436 0.006426 0.912000
0.032648 0.019764 0.904000
-0.003555 -0.011474 0.933000
-0.003137 0.039934 0.923000
0.011680 -0.022748 0.923000
-0.033365 -0.041631 0.929000
-0.008575 -0.003806 0.936000
0.023682 -0.007503 0.917000
-0.003161 0.015357 0.930000
0.036256 0.004968 0.920000
0.022702 0.028447 0.908000
-0.010490 -0.018041 0.935000
0.009349 0.016670 0.918000
-0.007788 -0.012255 0.934000
-0.031250 -0.020979 0.946000
-0.019383 0.002360 0.937000
-0.024605 -0.023290 0.945000
-0.013085 0.029838 0.928000
0.016757 0.033378 0.890000
0.015781 -0.034810 0.941000
-0.006974 0.025636 0.928000
0.012020 0.001939 0.920000
0.000664 0.017577 0.926000
-0.025302 -0.003443 0.942000
0.015102 -0.043217 0.947000
0.000282 0.033440 0.922000
-0.029365 -0.026485 0.948000
-0.007411 -0.006496 0.935000
0.039071 0.013226 0.915000
0.008575 0.039254 0.916000
0.009108 -0.037546 0.932000
0.040775 0.018418 0.911000
-0.012361 0.017672 0.931000
0.015807 -0.015858 0.920000
0.028618 0.017198 0.906000
0.022702 0.029568 0.908000
0.000662 0.022079 0.923000
-0.005865 -0.035705 0.934000
-0.040378 -0.012613 0.932000
-0.000857 0.037614 0.922000
0.024970 -0.023093 0.937000
0.016851 0.024901 0.915000
-0.031453 -0.042778 0.929000
-0.007403 0.005428 0.934000
0.014909 0.035902 0.889000
-0.023049 -0.031847 0.945000
0.001048 -0.019433 0.928000
0.035822 0.014262 0.909000
-0.007771 0.015390 0.932000
-0.021859 -0.036087 0.944000
0.032125 -0.000713 0.921000
-0.017142 -0.044493 0.941000
0.012385 -0.004115 0.919000
0.027873 0.021300 0.906000
-0.026967 -0.018253 0.946000
-0.033516 -0.017826 0.944000
0.000281 0.042833 0.920000
-0.020606 -0.004983 0.940000
-0.029637 -0.042533 0.932000
0.040775 0.018043 0.911000
0.029778 0.032865 0.896000
0.024330 -0.000706 0.913000
0.010884 -0.007528 0.920000
-0.000481 -0.019837 0.929000
0.001048 -0.025927 0.928000
0.033392 0.019020 0.904000
0.009329 0.037369 0.916000
0.025635 0.029503 0.906000
0.011642 -0.008285 0.920000
0.020902 0.010544 0.911000
0.029215 0.002676 0.913000
0.025862 -0.001836 0.914000
0.013808 0.031986 0.913000
0.027097 0.028353 0.905000
-0.035619 -0.012308 0.938000
0.004524 -0.046953 0.936000
0.014559 0.033865 0.913000
0.007484 0.030750 0.921000
-0.002019 -0.008018 0.933000
-0.038419 -0.009150 0.931000
-0.026606 -0.031524 0.947000
0.021476 -0.026535 0.936000
-0.031836 -0.042778 0.929000
0.038906 0.010269 0.920000
-0.030894 -0.024119 0.947000
0.027803 -0.001840 0.916000
0.005159 0.043587 0.912000
-0.038927 -0.012640 0.934000
0.017698 -0.034386 0.940000
0.009030 -0.001476 0.924000
-0.021059 -0.017419 0.943000
0.034212 0.015706 0.906000
0.013823 0.030516 0.914000
0.036490 0.016470 0.907000
0.034700 0.012765 0.909000
0.012750 -0.001844 0.918000
-0.027385 -0.024898 0.947000
-0.006250 -0.033398 0.934000
-0.024605 -0.026791 0.945000
-0.018870 -0.047655 0.950000
0.009769 -0.017790 0.922000
0.021114 0.039112 0.904000
-0.007788 0.009272 0.934000
-0.005865 -0.033014 0.934000
0.008640 -0.021228 0.923000
0.008668 -0.030444 0.926000
0.035228 0.010191 0.913000
-0.017935 -0.022828 0.942000
0.006388 -0.033148 0.927000
0.032648 0.022369 0.904000
-0.021470 -0.032979 0.944000
0.010292 -0.039206 0.935000
0.028277 0.012364 0.907000
-0.011939 0.024872 0.928000
-0.023827 -0.029124 0.945000
0.015442 -0.040749 0.944000
0.034624 -0.003007 0.927000
0.007821 0.038877 0.916000
-0.005015 0.042409 0.919000
-0.002400 -0.036012 0.932000
-0.004702 0.010403 0.932000
0.024625 0.008285 0.910000
-0.012454 -0.034313 0.938000
0.004820 0.035222 0.919000
-0.031640 -0.024093 0.946000
0.039541 0.004238 0.926000
0.002559 0.021296 0.922000
0.002191 -0.023991 0.927000
0.044256 0.014450 0.921000
0.016045 0.033077 0.912000
0.019551 -0.010912 0.918000
0.023527 0.005669 0.911000
0.032433 0.001180 0.919000
0.008612 0.012920 0.920000
0.002562 0.018280 0.923000
0.030361 -0.006426 0.925000
-0.007395 0.009262 0.933000
-0.007026 -0.039976 0.935000
0.019466 -0.002588 0.914000
0.002932 0.037154 0.920000
0.001042 0.022839 0.923000
-0.031539 -0.034884 0.943000
-0.012055 -0.001496 0.937000
0.014591 0.019628 0.915000
0.005232 -0.012899 0.925000
-0.022660 -0.034569 0.945000
-0.013268 -0.039845 0.941000
0.021604 0.023241 0.909000
0.027127 0.022045 0.906000
-0.011657 -0.009585 0.936000
0.006382 -0.001860 0.926000
-0.033127 -0.019769 0.944000
-0.007763 0.016906 0.931000
0.009329 0.038123 0.916000
0.035112 0.012030 0.910000
-0.003555 -0.036434 0.933000
0.016456 0.010202 0.914000
0.016115 0.021158 0.916000
0.019710 0.035249 0.891000
-0.011619 0.013102 0.933000
0.028799 0.030790 0.900000
0.008584 0.034013 0.917000
0.031125 0.028291 0.903000
0.021652 0.008294 0.911000
0.002191 -0.017886 0.927000
0.006326 0.037073 0.918000
-0.020176 -0.045123 0.938000
0.028137 -0.010637 0.927000
-0.000478 0.028917 0.923000
-0.031640 -0.022925 0.946000
-0.006250 -0.025710 0.934000
0.032716 -0.004914 0.927000
0.001431 -0.032455 0.929000
-0.025744 -0.015106 0.944000
-0.019098 -0.025542 0.942000
0.020212 0.036963 0.897000
0.040312 0.019874 0.909000
0.026990 -0.000331 0.914000
0.005613 0.011467 0.925000
-0.017783 0.008888 0.934000
0.000284 -0.023660 0.929000
-0.010366 0.031611 0.924000
-0.001236 0.037614 0.922000
0.013899 -0.013571 0.919000
0.026123 0.006412 0.910000
0.007476 0.026173 0.920000
-0.035367 -0.018761 0.952000
-0.023413 -0.025597 0.944000
-0.005096 -0.036858 0.934000
0.013667 -0.029778 0.929000
0.008668 -0.028920 0.926000
0.020948 -0.000706 0.913000
-0.003555 -0.035666 0.933000
0.030180 0.033271 0.897000
0.030328 -0.004898 0.924000
-0.029272 -0.010455 0.945000
-0.026996 -0.027627 0.947000
-0.009741 -0.030035 0.937000
0.009020 -0.022748 0.923000
0.022148 -0.006741 0.916000
0.017209 0.007945 0.914000
-0.019259 0.011925 0.931000
-0.003521 0.035794 0.924000
0.036953 -0.000336 0.928000
-0.007779 0.010414 0.933000
0.009632 0.040825 0.909000
0.014607 0.020404 0.916000
-0.012867 -0.025488 0.940000
-0.004712 -0.041855 0.934000
0.014246 0.000423 0.917000
0.014215 0.019252 0.915000
0.020373 -0.015117 0.921000
-0.020606 -0.006531 0.940000
-0.017707 0.015357 0.930000
0.008260 -0.018189 0.923000
0.023449 0.021720 0.908000
0.016354 0.034399 0.888000
-0.010116 0.003513 0.936000
-0.035353 -0.004169 0.931000
-0.005821 0.022556 0.927000
0.016492 0.022666 0.916000
-0.015377 0.021435 0.928000
0.041845 0.013647 0.918000
-0.002769 0.019123 0.927000
-0.014676 0.015006 0.932000
-0.008181 -0.034204 0.935000
-0.017802 0.006588 0.935000
0.017171 0.027446 0.912000
0.031987 -0.006447 0.928000
-0.005809 0.036213 0.925000
0.012750 0.004579 0.918000
0.015738 0.002307 0.916000
-0.002017 -0.041766 0.932000
-0.009265 0.025636 0.928000
0.014607 0.005700 0.916000
-0.019078 -0.044106 0.941000
-0.017087 -0.001884 0.938000
-0.007011 0.010414 0.933000
-0.003939 -0.007250 0.933000
-0.002382 0.023269 0.925000
0.002573 -0.021320 0.927000
-0.005053 0.024819 0.926000
-0.025329 -0.004611 0.943000
-0.005053 0.024057 0.926000
-0.025383 -0.023290 0.945000
0.029025 -0.012982 0.931000
-0.030894 -0.024898 0.947000
-0.010512 -0.007281 0.937000
-0.004712 -0.042240 0.934000
0.033154 0.003068 0.918000
0.038943 0.015435 0.912000
-0.020047 0.010019 0.932000
0.035526 0.012418 0.911000
-0.034002 -0.037322 0.936000
-0.003164 -0.020646 0.931000
-0.014739 0.003899 0.936000
0.015479 -0.021228 0.923000
0.038906 0.010648 0.920000
0.005981 0.014102 0.923000
-0.014028 -0.038642 0.940000
0.016420 0.031200 0.912000
0.008251 -0.013995 0.922000
0.026614 -0.000707 0.914000
0.002964 -0.038997 0.930000
-0.013583 0.003128 0.936000
0.014246 0.027220 0.917000
0.004095 0.011098 0.926000
0.010620 -0.034021 0.930000
-0.023025 -0.029482 0.944000
0.021652 0.012793 0.911000
-0.005075 0.016888 0.930000
0.010506 -0.004498 0.920000
-0.001635 -0.043731 0.933000
0.003365 -0.047288 0.935000
0.013883 -0.007511 0.918000
-0.034828 -0.029607 0.948000
0.016814 0.016203 0.913000
-0.025912 -0.042715 0.936000
0.038190 0.006869 0.921000
-0.018226 0.001589 0.937000
-0.030214 -0.003814 0.938000
0.005613 -0.022036 0.925000
-0.003144 0.026315 0.925000
0.028959 0.025001 0.905000
0.007517 -0.002619 0.925000
-0.009647 0.027546 0.928000
-0.025356 -0.015106 0.944000
-0.002390 0.018379 0.928000
-0.033127 -0.019380 0.944000
-0.010910 -0.029294 0.938000
0.002179 0.027747 0.922000
-0.001237 0.036515 0.923000
0.017152 0.030041 0.911000
-0.012055 0.001589 0.937000
0.016456 0.016973 0.914000
0.001431 -0.030925 0.929000
0.024598 0.013888 0.909000
0.015445 -0.018908 0.921000
0.028959 0.020531 0.905000
-0.034184 -0.012734 0.941000
0.022027 0.011668 0.911000
0.001049 -0.027102 0.929000
-0.006966 0.029424 0.927000
-0.026128 -0.045887 0.930000
-0.028945 -0.020221 0.947000
0.009801 -0.028508 0.925000
-0.020948 0.001977 0.938000
-0.013598 -0.004196 0.937000
-0.008128 0.022605 0.929000
0.011180 -0.046238 0.945000
-0.017473 -0.004200 0.938000
-0.011952 0.023370 0.929000
-0.000098 0.022103 0.924000
-0.009731 -0.031543 0.936000
-0.008575 -0.004191 0.936000
0.015640 0.034072 0.889000
0.028934 0.000045 0.916000
0.016869 0.023420 0.916000
-0.000865 -0.012982 0.931000
0.016115 -0.000709 0.916000
0.011604 0.017407 0.917000
0.019361 -0.021320 0.927000
-0.000864 -0.032107 0.930000
0.022820 -0.017906 0.928000
-0.026578 -0.023704 0.946000
0.005238 -0.024346 0.926000
0.028277 0.014230 0.907000
-0.016315 -0.014238 0.938000
-0.007679 0.041743 0.921000
0.010471 0.015897 0.917000
-0.016665 0.005825 0.936000
-0.020693 -0.019380 0.944000
0.007206 -0.042240 0.934000
-0.008120 0.026782 0.928000
0.014639 -0.011667 0.918000
0.029704 0.018669 0.905000
0.008278 -0.026604 0.925000
-0.024605 -0.025235 0.945000
0.009716 0.019671 0.917000
0.027773 -0.000331 0.915000
-0.015189 -0.035547 0.940000
0.018714 -0.002212 0.914000
-0.007011 0.008878 0.933000
0.025439 -0.013294 0.926000
0.020879 0.021394 0.910000
0.012385 -0.002224 0.919000
0.011718 -0.028920 0.926000
0.002589 -0.045267 0.933000
-0.009375 -0.025461 0.939000
-0.006250 -0.011871 0.934000
0.023889 -0.026649 0.940000
0.017017 -0.021632 0.924000
0.012007 -0.005250 0.919000
0.013113 0.007971 0.917000
-0.008137 0.019184 0.930000
0.022777 0.006419 0.911000
0.018317 0.008312 0.913000
0.019423 0.013558 0.912000
0.005994 -0.010614 0.925000
0.009748 0.029202 0.920000
0.022196 -0.009400 0.918000
-0.025690 -0.002667 0.942000
0.004505 0.009636 0.932000
0.024917 0.028043 0.907000
0.031231 0.001555 0.917000
-0.031927 -0.011985 0.943000
-0.015912 -0.008438 0.937000
-0.005853 -0.017216 0.932000
-0.018750 -0.018603 0.944000
-0.031673 -0.030745 0.947000
-0.008529 0.015756 0.931000
0.011459 -0.038478 0.936000
-0.016367 -0.034036 0.941000
0.029124 -0.004888 0.922000
-0.024579 -0.018603 0.944000
0.015704 0.013212 0.914000
0.032020 0.001557 0.918000
0.008622 0.012555 0.921000
-0.008189 -0.037322 0.936000
-0.024475 -0.041350 0.940000
0.036611 0.014277 0.910000
-0.002787 -0.043731 0.933000
-0.009365 -0.023890 0.938000
0.031904 0.026090 0.904000
0.005961 0.017085 0.920000
0.020196 0.000797 0.913000
0.002584 -0.040571 0.931000
-0.003161 -0.020241 0.930000
0.012237 0.037416 0.908000
-0.033551 -0.026013 0.945000
0.009502 -0.037970 0.933000
-0.012441 -0.007281 0.937000
0.029471 -0.014162 0.933000
-0.014369 -0.011138 0.937000
0.039938 0.019125 0.909000
0.016456 0.015469 0.914000
-0.006641 -0.039976 0.935000
0.031677 0.000802 0.919000
-0.008960 -0.031158 0.936000
0.002570 0.012623 0.926000
0.013491 0.004574 0.917000
0.019487 -0.005980 0.915000
0.002576 -0.028218 0.928000
-0.027356 -0.035774 0.946000
-0.007026 -0.034204 0.935000
-0.022878 -0.043193 0.938000
-0.002017 -0.013380 0.932000
0.010160 -0.022368 0.923000
-0.030504 -0.025288 0.947000
0.014687 -0.018150 0.921000
0.004476 -0.022441 0.926000
0.012020 -0.012072 0.920000
-0.007804 -0.003421 0.936000
0.026512 -0.020779 0.937000
0.012750 -0.004489 0.918000
0.031022 0.033383 0.900000
0.023501 0.008285 0.910000
0.016851 0.001552 0.915000
-0.013627 -0.020050 0.939000
0.013506 -0.009400 0.918000
-0.022224 -0.017419 0.943000
0.005625 -0.001099 0.927000
-0.000481 -0.026337 0.929000
-0.003939 -0.041427 0.933000
0.011994 0.024982 0.918000
0.027500 0.020927 0.906000
0.006368 -0.013645 0.924000
0.001417 0.040562 0.920000
0.012764 -0.010924 0.919000
-0.027125 0.000046 0.938000
0.009759 -0.012085 0.921000
-0.025356 -0.017437 0.944000
-0.018936 0.006581 0.934000
-0.012480 -0.022393 0.940000
-0.022224 -0.041094 0.943000
0.031605 -0.006829 0.928000
-0.013141 0.014623 0.932000
-0.031673 -0.026068 0.947000
-0.007011 -0.021074 0.933000
0.037053 0.007248 0.921000
-0.010411 0.025254 0.928000
-0.005086 -0.022202 0.932000
-0.009335 0.001970 0.935000
0.019951 -0.012058 0.919000
0.010369 -0.044928 0.942000
0.007128 -0.022392 0.924000
0.025663 0.019830 0.907000
-0.016736 -0.029357 0.940000
-0.004253 0.044630 0.918000
0.001032 0.044059 0.914000
0.008981 0.025388 0.919000
-0.028585 -0.029997 0.948000
-0.011545 0.026753 0.927000
0.032716 -0.005296 0.927000
0.018001 -0.005987 0.916000
0.014261 -0.007889 0.918000
0.020174 0.011306 0.912000
-0.017051 0.003513 0.936000
-0.023339 -0.002277 0.941000
-0.014597 0.021793 0.927000
-0.003547 -0.018730 0.931000
-0.000857 0.030817 0.923000
-0.019507 -0.021688 0.943000
-0.006542 0.040227 0.921000
-0.028105 -0.011233 0.945000
0.004831 0.017862 0.921000
-0.019937 -0.047405 0.945000
-0.035315 -0.040528 0.930000
0.006748 -0.009082 0.924000
-0.016701 -0.006903 0.938000
-0.000481 -0.019072 0.929000
-0.012068 -0.028908 0.938000
0.031125 0.022344 0.903000
-0.007011 -0.016466 0.933000
-0.026606 -0.028796 0.947000
-0.014430 -0.042169 0.941000
-0.033092 -0.013538 0.943000
-0.018711 -0.042214 0.942000
0.027726 -0.010245 0.926000
0.007074 0.038920 0.917000
0.029056 -0.013763 0.932000
0.014607 0.004192 0.916000
0.006755 -0.001477 0.925000
0.015704 0.015469 0.914000
0.010884 -0.001848 0.920000
0.023325 0.032975 0.889000
0.008991 0.030338 0.920000
0.019069 0.002676 0.913000
0.018673 0.014309 0.912000
0.027079 -0.002974 0.917000
0.002954 -0.020939 0.927000
0.010849 0.016274 0.917000
-0.005853 0.010019 0.932000
0.021652 0.010544 0.911000
0.014261 -0.011667 0.918000
-0.024941 -0.008492 0.943000
0.006719 0.015949 0.920000
-0.011284 0.001203 0.937000
0.008314 -0.035131 0.929000
-0.019507 -0.039930 0.943000
0.004033 0.043962 0.912000
0.005571 0.035939 0.918000
0.000285 -0.011833 0.931000
-0.008093 0.032787 0.925000
0.015851 0.039353 0.901000
0.023823 0.023963 0.908000
-0.033480 -0.013926 0.943000
-0.008172 -0.022634 0.934000
-0.010863 0.009657 0.934000
-0.016754 -0.038683 0.941000
0.009410 -0.024294 0.924000
-0.031283 -0.029576 0.947000
0.022648 -0.012464 0.921000
0.023101 0.019874 0.909000
-0.009710 -0.012255 0.934000
-0.014430 -0.041394 0.941000
-0.036965 -0.008018 0.933000
0.013914 -0.016237 0.920000
0.008640 0.006124 0.923000
-0.011520 0.028218 0.925000
0.011251 0.025009 0.919000
0.005662 -0.042579 0.933000
0.005637 -0.035896 0.929000
0.018161 0.033265 0.887000
-0.034932 -0.002251 0.930000
0.005232 0.010706 0.925000
0.026065 0.013125 0.908000
0.011968 0.017765 0.916000
0.003718 -0.026280 0.927000
-0.010875 0.006973 0.935000
0.030752 0.003807 0.914000
-0.000864 -0.029045 0.930000
0.044489 0.017048 0.918000
0.020749 -0.028522 0.938000
-0.013598 -0.008052 0.937000
-0.010512 -0.001496 0.937000
0.030033 0.001928 0.915000
0.001798 0.036436 0.921000
0.019487 -0.026066 0.933000
0.023406 -0.011327 0.921000
-0.007292 0.040940 0.920000
0.036276 0.013168 0.911000
-0.001626 0.017997 0.928000
-0.003171 -0.012242 0.933000
0.015613 -0.029459 0.931000
0.022462 -0.019454 0.929000
0.014591 0.013226 0.915000
-0.030375 -0.008880 0.943000
0.038610 0.013949 0.913000
-0.008501 0.024872 0.928000
0.004476 -0.027776 0.926000
-0.007871 -0.040749 0.944000
0.013476 0.013618 0.916000
0.029770 0.012737 0.907000
0.017961 0.004183 0.914000
-0.012467 -0.027007 0.939000
0.010039 0.038707 0.912000
0.003336 -0.013308 0.927000
0.017228 -0.001838 0.915000
-0.000482 -0.012599 0.931000
-0.030082 -0.017085 0.946000
-0.012055 -0.020008 0.937000
0.014968 0.014732 0.915000
-0.006974 0.022199 0.928000
0.015546 -0.025517 0.927000
0.025541 -0.004479 0.916000
0.019785 -0.022513 0.929000
-0.010501 -0.008044 0.936000
0.017164 -0.028340 0.932000
-0.012374 0.016157 0.932000
-0.015878 0.006588 0.935000
0.031497 0.021972 0.903000
-0.010400 0.027135 0.927000
0.016869 -0.005233 0.916000
0.027187 0.009761 0.908000
-0.008172 -0.012640 0.934000
-0.023827 -0.027957 0.945000
-0.009731 0.000046 0.936000
0.042647 0.013662 0.919000
0.010563 -0.026985 0.925000
-0.002010 0.014958 0.929000
-0.024941 -0.010821 0.943000
-0.013983 -0.004196 0.937000
-0.035441 -0.029009 0.954000
0.032645 -0.003381 0.925000
0.015721 0.020005 0.915000
-0.001617 0.035755 0.923000
-0.008874 0.030187 0.927000
-0.017324 0.014591 0.930000
0.009420 -0.026985 0.925000
0.026783 0.019083 0.907000
0.004095 -0.015199 0.926000
0.010226 -0.033602 0.929000
0.013476 0.019273 0.916000
0.008991 0.027309 0.920000
0.010528 0.006117 0.922000
-0.008950 -0.021504 0.935000
0.002534 0.044386 0.913000
0.010825 0.035445 0.915000
-0.002398 -0.027160 0.931000
0.020902 0.012793 0.911000
0.002576 -0.014086 0.928000
-0.004702 -0.016065 0.932000
-0.006620 0.013088 0.932000
0.026410 0.017590 0.907000
0.022451 0.000421 0.913000
-0.026578 -0.020589 0.946000
0.010138 -0.002608 0.921000
-0.003555 -0.041811 0.933000
-0.005481 -0.009180 0.934000
0.021113 -0.027335 0.937000
0.002556 0.033024 0.921000
-0.002784 -0.039081 0.932000
-0.001249 -0.042149 0.932000
0.011629 0.007610 0.919000
-0.020219 -0.006144 0.940000
0.020550 0.004174 0.912000
0.001810 -0.018649 0.927000
0.006763 -0.002241 0.926000
0.012764 -0.005628 0.919000
0.013853 0.012110 0.916000
0.006755 -0.000335 0.925000
0.014783 -0.027043 0.927000
-0.033904 -0.016660 0.944000
0.026065 0.011630 0.908000
0.031333 -0.000712 0.920000
-0.023000 -0.016643 0.943000
-0.025744 -0.009667 0.944000
-0.024862 -0.000340 0.940000
0.014942 0.034516 0.891000
0.040489 0.016203 0.913000
-0.003544 0.016505 0.930000
0.042368 0.018458 0.913000
-0.000864 -0.026748 0.930000
0.025290 0.027296 0.907000
-0.035852 -0.008411 0.934000
-0.003931 -0.021029 0.931000
-0.031995 -0.019401 0.945000
0.038773 0.018357 0.908000
-0.019916 -0.020934 0.944000
0.005595 0.015225 0.922000
0.025409 -0.023529 0.939000
0.020794 -0.030518 0.940000
0.010932 -0.025435 0.924000
0.015824 -0.018529 0.921000
0.022328 0.028074 0.908000
0.010105 0.017048 0.918000
0.011545 -0.044199 0.943000
0.019320 -0.019751 0.925000
-0.002017 -0.042149 0.932000
0.015756 0.024578 0.917000
0.000666 -0.026337 0.929000
0.008603 0.024631 0.919000
0.025635 0.028012 0.906000
0.030295 -0.004133 0.923000
-0.000863 -0.016778 0.929000
0.014591 0.015109 0.915000
0.026783 0.015724 0.907000
-0.005096 0.007734 0.934000
0.018980 -0.021320 0.927000
-0.017935 -0.036786 0.942000
-0.015980 -0.039071 0.941000
0.025318 0.014246 0.908000
-0.005475 -0.027602 0.933000
-0.003168 -0.034477 0.932000
-0.025554 0.002360 0.937000
0.000283 0.017215 0.927000
0.001420 0.026609 0.922000
0.021628 0.021019 0.910000
-0.001247 -0.026365 0.930000
0.010149 0.008015 0.922000
-0.008189 -0.039634 0.936000
0.008631 -0.011339 0.922000
-0.003168 -0.035628 0.932000
0.019777 0.024042 0.911000
0.014984 0.007208 0.916000
0.028991 0.015333 0.906000
0.030449 0.018296 0.905000
0.004476 -0.020154 0.926000
-0.038584 -0.013038 0.935000
0.013914 -0.015479 0.920000
-0.018651 -0.008843 0.939000
0.011616 0.009869 0.918000
0.022003 0.012030 0.910000
0.024243 -0.012885 0.924000
-0.013612 -0.019257 0.938000
0.008225 0.015932 0.919000
-0.010910 -0.022345 0.938000
0.025039 0.035526 0.898000
0.019871 -0.025682 0.933000
0.017874 -0.024807 0.929000
0.004852 -0.017086 0.925000
0.031197 0.002307 0.916000
0.010138 -0.014359 0.921000
0.013535 -0.016615 0.920000
-0.018265 -0.010388 0.939000
0.019069 0.006809 0.913000
-0.038719 -0.004160 0.929000
-0.014802 -0.040190 0.940000
0.017566 0.010943 0.913000
-0.011657 -0.018060 0.936000
0.020902 0.011668 0.911000
0.002559 0.022435 0.922000
-0.019507 -0.023241 0.943000
0.006748 -0.011744 0.924000
-0.033127 -0.018991 0.944000
-0.020197 0.000046 0.939000
0.006020 -0.036278 0.929000
-0.010512 -0.001882 0.937000
-0.000473 0.044107 0.915000
0.020255 -0.025298 0.933000
-0.005481 -0.005720 0.934000
-0.021037 -0.047254 0.942000
0.017367 -0.037213 0.943000
-0.001237 0.030817 0.923000
0.026783 0.017963 0.907000
0.022051 0.000796 0.912000
0.015345 0.007954 0.915000
0.002935 0.027717 0.921000
0.018028 -0.031577 0.937000
0.018394 -0.030388 0.936000
-0.006203 0.024846 0.927000
0.016456 0.010578 0.914000
0.021652 0.013543 0.911000
0.034997 0.015724 0.907000
0.008242 0.029234 0.921000
0.005968 0.033403 0.921000
-0.036779 -0.041702 0.948000
-0.024139 -0.004606 0.942000
0.008725 -0.037930 0.932000
0.000284 -0.037466 0.930000
-0.028975 -0.026095 0.948000
-0.026105 -0.005387 0.943000
-0.012029 -0.014192 0.935000
0.026088 -0.008682 0.922000
-0.013627 -0.028553 0.939000
-0.002377 0.034616 0.923000
0.007128 -0.017829 0.924000
-0.008242 -0.040275 0.942000
0.017431 0.034361 0.887000
-0.007411 -0.004572 0.935000
0.004476 -0.025490 0.926000
0.030449 0.017179 0.905000
-0.013511 0.018056 0.931000
0.010745 -0.043331 0.941000
-0.000098 -0.034021 0.930000
0.010314 -0.040447 0.937000
0.007880 -0.020848 0.923000
-0.028839 -0.043254 0.931000
-0.009710 0.010425 0.934000
-0.022781 -0.045315 0.934000
0.026917 0.035196 0.899000
-0.005777 0.041697 0.920000
-0.033127 -0.015106 0.944000
0.014935 0.031610 0.913000
-0.034497 -0.011548 0.939000
-0.000863 -0.019837 0.929000
-0.037349 -0.008786 0.933000
-0.020671 -0.022464 0.943000
0.018734 -0.005227 0.915000
-0.029693 -0.017474 0.946000
0.011806 -0.035282 0.933000
-0.008547 0.011950 0.933000
0.021908 -0.027364 0.938000
0.021017 -0.007495 0.916000
0.019090 -0.002588 0.914000
0.002954 -0.023609 0.927000
-0.010127 -0.006510 0.937000
0.019173 -0.010912 0.918000
0.004825 0.020871 0.920000
0.019466 -0.001083 0.914000
0.000666 -0.015631 0.929000
0.028642 -0.013365 0.931000
0.020038 -0.016670 0.923000
-0.009345 -0.023068 0.936000
0.002961 -0.010660 0.929000
0.033009 0.006064 0.914000
-0.009365 -0.028522 0.938000
0.013682 -0.030959 0.930000
-0.008575 -0.035781 0.936000
0.027197 -0.006778 0.921000
0.033839 0.015706 0.906000
0.020716 0.031440 0.887000
-0.025772 -0.018623 0.945000
0.028991 0.016452 0.906000
0.026760 -0.005628 0.919000
-0.026739 -0.040876 0.938000
0.004456 0.030404 0.922000
0.014990 -0.037482 0.940000
0.004852 0.013751 0.925000
0.020550 0.010180 0.912000
0.024170 0.029909 0.907000
0.013542 -0.045166 0.947000
0.016151 -0.012045 0.918000
0.023355 -0.009789 0.919000
-0.015929 -0.011536 0.938000
0.002201 -0.041721 0.931000
-0.031171 -0.041382 0.932000
0.030416 0.023485 0.904000
-0.001630 -0.021389 0.930000
0.011629 -0.006763 0.919000
0.011202 0.033562 0.915000
0.028745 0.007161 0.910000
-0.007796 -0.005341 0.935000
-0.011888 0.030470 0.924000
0.017246 0.023797 0.916000
-0.022612 -0.016255 0.943000
0.045524 0.019650 0.916000
0.003722 -0.009885 0.928000
0.007889 0.007652 0.924000
0.022365 -0.015564 0.925000
0.005619 -0.027014 0.926000
0.007182 -0.039039 0.931000
-0.008120 0.024109 0.928000
-0.009595 0.033856 0.923000
0.014607 0.021158 0.916000
-0.012427 -0.009200 0.936000
-0.002781 -0.022562 0.931000
-0.007411 -0.007266 0.935000
0.027500 0.022418 0.906000
0.016045 0.033452 0.912000
0.011226 0.015897 0.917000
0.023604 -0.003341 0.914000
-0.004697 -0.016814 0.931000
0.000284 -0.034403 0.930000
0.030382 0.027919 0.903000
0.020062 -0.033297 0.942000
0.029377 -0.011820 0.930000
0.019445 0.002676 0.913000
0.026037 0.017217 0.907000
0.016833 0.019983 0.914000
0.025137 -0.003344 0.915000
0.014984 0.002684 0.916000
-0.028555 -0.019831 0.947000
0.020174 0.011681 0.912000
-0.003884 0.042455 0.920000
0.005261 -0.038997 0.930000
0.025058 -0.013675 0.926000
0.004099 -0.028569 0.927000
0.006000 -0.009482 0.926000
0.022402 0.009794 0.911000
0.011642 0.000803 0.920000
0.018538 -0.019350 0.924000
-0.017454 0.003131 0.937000
0.019090 -0.000707 0.914000
0.030884 0.031390 0.896000
0.023904 0.035486 0.897000
-0.026188 -0.030323 0.946000
-0.018342 -0.040318 0.943000
0.036741 0.020136 0.904000
0.013128 0.024604 0.918000
0.008603 0.025388 0.919000
-0.024579 -0.021323 0.944000
-0.005872 -0.041130 0.935000
0.007476 0.015949 0.920000
-0.011682 -0.030453 0.938000
0.040711 0.012136 0.918000
-0.002754 0.041788 0.922000
-0.017529 -0.016995 0.941000
0.035253 0.019764 0.904000
0.020971 -0.002588 0.914000
-0.030828 -0.012400 0.945000
-0.004712 -0.007642 0.934000
-0.027957 -0.002662 0.940000
0.035498 0.004968 0.920000
0.019090 0.001174 0.914000
-0.019832 -0.011173 0.940000
0.019090 -0.001083 0.914000
-0.000858 0.024005 0.924000
-0.019811 -0.046717 0.939000
-0.016228 0.012334 0.933000
0.011616 0.029138 0.918000
0.016133 -0.009390 0.917000
0.001810 0.013400 0.927000
0.008287 -0.029301 0.926000
0.029656 0.001175 0.915000
-0.003547 -0.016814 0.931000
0.001431 -0.031690 0.929000
-0.010490 -0.013038 0.935000
0.043877 0.013692 0.921000
-0.010793 0.025254 0.928000
-0.009345 -0.036552 0.936000
0.004510 -0.044115 0.933000
-0.013511 0.016906 0.931000
0.033914 0.012751 0.908000
0.037595 0.002330 0.925000
0.003722 -0.034711 0.928000
0.033714 -0.000714 0.923000
-0.035315 -0.040145 0.930000
0.013844 -0.039458 0.941000
0.016538 -0.034000 0.940000
-0.005009 0.043496 0.918000
-0.013983 -0.009595 0.937000
0.005232 0.013371 0.925000
-0.029334 -0.022950 0.947000
-0.029334 -0.033473 0.947000
-0.031792 -0.037055 0.939000
0.000284 -0.022107 0.928000
0.033240 -0.008001 0.931000
0.017585 0.004936 0.914000
-0.010040 0.024517 0.929000
0.004121 -0.041766 0.932000
0.006423 -0.040999 0.932000
-0.003935 -0.031409 0.932000
-0.013894 0.016906 0.931000
0.004836 0.031163 0.922000
-0.032738 -0.035698 0.944000
0.005987 -0.013265 0.924000
-0.017548 -0.017400 0.942000
0.012764 -0.007898 0.919000
-0.016315 -0.011536 0.938000
-0.005853 -0.018366 0.932000
0.005619 -0.030063 0.926000
-0.021059 -0.027898 0.943000
-0.023600 -0.044256 0.936000
0.018317 0.024846 0.913000
0.028365 -0.006026 0.922000
0.007128 -0.008321 0.924000
-0.002745 0.043165 0.919000
-0.020925 -0.045846 0.937000
0.022008 0.035776 0.895000
0.023017 -0.024609 0.936000
0.021676 0.003048 0.912000
-0.024029 -0.048198 0.953000
0.011654 0.003078 0.921000
-0.023025 -0.026374 0.944000
0.010072 0.035822 0.915000
-0.019017 0.001205 0.938000
-0.033374 -0.010400 0.940000
-0.006243 -0.012626 0.933000
0.003722 -0.011413 0.928000
-0.002398 -0.027543 0.931000
-0.010828 0.017289 0.931000
0.036156 0.015741 0.908000
0.009451 -0.032420 0.928000
0.007517 0.000807 0.925000
0.005244 -0.009493 0.927000
-0.002778 -0.022155 0.930000
-0.031724 -0.038519 0.937000
0.016869 -0.002971 0.916000
0.039114 0.012487 0.916000
-0.019424 -0.004978 0.939000
0.039825 0.013979 0.915000
-0.014323 0.008888 0.934000
0.031094 0.005306 0.913000
-0.010512 -0.003425 0.937000
-0.004717 -0.005726 0.935000
0.000667 -0.010289 0.930000
-0.038543 -0.012255 0.934000
-0.028434 -0.006940 0.943000
0.028607 0.032792 0.894000
0.016080 0.015845 0.914000
0.033154 0.003446 0.918000
0.008269 -0.001476 0.924000
-0.034293 -0.017049 0.944000
-0.014629 0.025664 0.929000
0.032575 -0.001474 0.923000
0.023102 -0.014026 0.924000
0.020174 0.009054 0.912000
-0.025744 -0.008890 0.944000
-0.007019 -0.033014 0.934000
-0.018284 -0.014268 0.940000
0.029901 0.006419 0.911000
-0.019486 -0.032909 0.942000
-0.032808 -0.026040 0.946000
-0.003555 -0.008018 0.933000
-0.019895 -0.017031 0.943000
-0.019038 -0.007297 0.939000
0.010908 0.001943 0.922000
0.014277 -0.012058 0.919000
0.013199 -0.022748 0.923000
0.029727 -0.010660 0.929000
-0.000857 0.027398 0.923000
0.029397 0.011617 0.907000
0.001812 -0.029364 0.928000
0.033062 -0.003766 0.926000
-0.014430 -0.020480 0.941000
0.026497 0.004914 0.910000
0.027809 0.031617 0.892000
0.017623 -0.006364 0.916000
-0.012454 -0.033155 0.938000
-0.010105 -0.020350 0.935000
-0.028135 -0.017864 0.946000
0.004103 -0.008357 0.928000
0.005272 -0.041766 0.932000
-0.017032 0.006973 0.935000
0.022352 0.030952 0.894000
0.025346 0.011269 0.909000
-0.028012 -0.045073 0.929000
-0.015912 -0.004967 0.937000
0.003350 -0.040955 0.931000
0.022377 0.016150 0.910000
0.018816 -0.013571 0.919000
0.024327 0.036306 0.899000
0.012372 0.024604 0.918000
0.021628 0.018772 0.910000
-0.022224 -0.022853 0.943000
0.007090 0.020471 0.919000
0.002961 -0.035896 0.929000
0.038730 0.019083 0.907000
-0.018342 -0.020912 0.943000
-0.000857 0.026258 0.923000
0.000284 -0.038231 0.930000
0.034881 0.019392 0.904000
0.016888 -0.007881 0.917000
-0.006634 -0.030323 0.934000
-0.037814 -0.012268 0.935000
-0.002781 -0.028693 0.931000
-0.036620 -0.008795 0.934000
0.011490 0.038911 0.908000
-0.028525 -0.034995 0.946000
-0.000481 -0.029427 0.930000
0.018337 0.001926 0.914000
-0.028135 -0.014749 0.946000
-0.008163 0.013870 0.933000
-0.022976 -0.010034 0.942000
-0.002784 -0.035628 0.932000
-0.003939 -0.013010 0.933000
0.036530 0.016115 0.908000
-0.011223 0.015390 0.932000
0.040303 0.005381 0.926000
-0.008556 -0.013793 0.934000
-0.007671 0.040183 0.920000
0.007090 0.023496 0.919000
0.030558 -0.010683 0.931000
-0.008575 -0.001880 0.936000
-0.013656 -0.021642 0.941000
0.015721 0.010590 0.915000
0.025805 0.001546 0.912000
0.017566 0.016203 0.913000
-0.019895 -0.023241 0.943000
0.011226 0.017407 0.917000
0.005994 0.009183 0.925000
-0.016384 -0.022828 0.942000
0.029624 0.001926 0.914000
0.030924 0.011630 0.908000
0.004836 0.030404 0.922000
-0.023190 0.002355 0.935000
0.001819 -0.043300 0.932000
0.024999 0.007536 0.910000
0.031265 0.000801 0.918000
0.001049 -0.029013 0.929000
-0.028165 -0.023339 0.947000
-0.016367 -0.038683 0.941000
0.039160 0.003857 0.926000
0.030890 0.013484 0.907000
0.008952 0.038500 0.916000
0.008631 -0.016272 0.922000
0.015721 0.007577 0.915000
0.010160 0.000805 0.923000
0.004099 -0.027425 0.927000
-0.004314 -0.015664 0.931000
0.009695 0.036575 0.915000
0.015001 0.022691 0.917000
0.039879 0.005376 0.925000
0.009020 -0.020089 0.923000
-0.016736 -0.028196 0.940000
0.036823 0.017944 0.906000
0.005244 -0.004151 0.927000
0.004456 0.029645 0.922000
0.003742 -0.044115 0.933000
-0.009720 0.004664 0.935000
-0.003547 -0.022179 0.931000
-0.016630 0.008888 0.934000
-0.007754 0.018419 0.930000
-0.017715 -0.047314 0.951000
-0.003888 0.042122 0.921000
0.007190 -0.039848 0.932000
-0.000866 -0.041382 0.932000
0.013128 0.004579 0.918000
0.033226 0.001560 0.920000
0.006347 0.015587 0.921000
0.004852 -0.016325 0.925000
-0.022420 -0.045364 0.935000
0.016906 -0.012801 0.918000
0.043877 0.014071 0.921000
0.024944 0.019104 0.908000
0.007898 -0.002239 0.925000
-0.023776 -0.039542 0.943000
-0.026550 -0.036514 0.945000
-0.024967 -0.019380 0.944000
0.007898 0.006137 0.925000
0.017623 -0.007495 0.916000
0.027934 0.011256 0.908000
0.013447 0.030140 0.914000
0.014193 0.036675 0.890000
-0.037229 -0.005313 0.930000
-0.031487 -0.042442 0.930000
0.013506 -0.003355 0.918000
0.011145 -0.043765 0.942000
0.000284 -0.036700 0.930000
0.019006 0.030383 0.910000
0.007889 0.001187 0.924000
0.011202 0.033939 0.915000
0.032576 0.029002 0.902000
0.019402 0.019167 0.911000
-0.011507 0.030470 0.924000
0.020505 0.022892 0.910000
-0.001244 0.017615 0.928000
-0.009689 0.013855 0.932000
0.002935 0.033024 0.921000
-0.002362 0.045336 0.917000
-0.015609 -0.022441 0.942000
0.019382 -0.021725 0.928000
0.011942 0.035030 0.914000
0.023126 0.008285 0.910000
-0.016754 -0.025128 0.941000
-0.020197 -0.002272 0.939000
0.017585 0.007945 0.914000
0.022927 -0.007503 0.917000
-0.013583 0.005054 0.936000
0.030239 -0.013394 0.933000
0.025720 0.007527 0.909000
-0.028853 -0.036475 0.944000
-0.010512 -0.003039 0.937000
-0.026967 -0.025651 0.946000
-0.012480 -0.025875 0.940000
0.016456 0.012835 0.914000
0.015687 0.028604 0.913000
0.010608 -0.033602 0.929000
-0.021627 0.005812 0.934000
0.015054 -0.041138 0.944000
-0.033976 -0.030712 0.946000
-0.009751 -0.024276 0.938000
0.025748 0.004914 0.910000
0.011109 -0.041693 0.939000
-0.027775 -0.031914 0.947000
-0.004253 0.043874 0.918000
0.018433 -0.031611 0.938000
-0.017548 -0.036010 0.942000
0.007484 0.029613 0.921000
0.001859 -0.048539 0.952000
0.028214 0.028726 0.905000
0.009329 0.035107 0.916000
-0.005440 0.021412 0.927000
0.021838 -0.025353 0.935000
-0.005469 0.008102 0.932000
-0.027775 -0.033863 0.947000
-0.021357 0.000819 0.939000
-0.005853 -0.021435 0.932000
-0.010828 0.018056 0.931000
0.016098 0.009460 0.915000
0.017588 0.037249 0.895000
-0.018711 -0.016625 0.942000
-0.032063 -0.026457 0.947000
0.012007 0.006097 0.919000
-0.009627 0.030917 0.926000
-0.016941 0.014974 0.930000
0.032056 -0.008375 0.930000
-0.024941 -0.007716 0.943000
-0.020671 -0.041482 0.943000
-0.033906 -0.034542 0.955000
0.036156 0.015367 0.908000
0.010908 0.004220 0.922000
0.022027 0.009044 0.911000
