0.009665 -0.028076 0.949000
-0.001278 -0.030940 0.953000
-0.007721 0.019483 0.926000
-0.023239 0.003517 0.937000
0.009308 0.030140 0.914000
-0.023215 0.011603 0.936000
-0.009793 -0.001117 0.942000
0.027995 -0.006881 0.935000
-0.005941 -0.011245 0.946000
-0.028394 0.026811 0.929000
-0.011163 0.021030 0.927000
-0.029859 0.029424 0.927000
-0.010389 0.026343 0.926000
-0.005328 0.043022 0.908000
-0.006592 0.016088 0.928000
-0.012251 0.034302 0.895000
-0.030306 0.018781 0.929000
0.009604 -0.050409 0.943000
0.028410 0.001587 0.936000
-0.016959 0.016523 0.931000
-0.023314 -0.026649 0.940000
-0.016350 0.004302 0.940000
-0.025526 0.003513 0.936000
0.035483 -0.004254 0.950000
0.015721 0.030173 0.915000
0.000289 -0.011998 0.944000
0.005221 0.016761 0.923000
0.011593 -0.023729 0.947000
0.024756 0.009605 0.929000
-0.011819 -0.017920 0.949000
0.004227 -0.043628 0.956000
0.004993 -0.046580 0.952000
0.030434 -0.018118 0.939000
-0.005162 -0.012413 0.946000
-0.002066 -0.034149 0.955000
-0.005803 0.025906 0.924000
-0.026072 0.027928 0.928000
0.010437 0.029011 0.914000
0.023992 0.002340 0.929000
-0.004833 -0.039776 0.958000
0.034061 -0.012910 0.954000
-0.022372 0.016942 0.933000
0.000291 -0.048148 0.952000
0.012986 -0.009190 0.935000
-0.000095 0.039222 0.898000
0.029243 -0.001884 0.938000
-0.010278 -0.021872 0.951000
0.003440 -0.040480 0.956000
0.025193 -0.004935 0.931000
0.023558 0.008440 0.927000
0.024756 0.004252 0.929000
-0.017194 0.031197 0.923000
0.004553 -0.009646 0.942000
0.012255 -0.014238 0.938000
-0.010022 -0.040819 0.964000
0.020462 0.008041 0.925000
-0.015538 0.037328 0.915000
0.036656 -0.028496 0.950000
-0.024518 0.029424 0.927000
-0.000101 -0.026233 0.953000
-0.009245 0.021008 0.926000
-0.008666 -0.014749 0.946000
0.035949 -0.030907 0.952000
0.010325 -0.008833 0.938000
-0.006936 0.029297 0.923000
0.001804 0.017539 0.924000
0.016474 0.031679 0.915000
0.009288 0.032326 0.912000
0.029243 0.001591 0.938000
-0.020326 -0.029513 0.945000
-0.013424 -0.022679 0.952000
-0.009835 -0.007351 0.946000
0.007244 -0.052901 0.939000
0.002531 0.037581 0.912000
0.004384 0.044468 0.907000
-0.010181 0.000434 0.942000
-0.016541 0.024135 0.929000
0.004962 -0.049791 0.946000
-0.013496 0.016505 0.930000
-0.018453 0.024517 0.929000
0.003661 0.035368 0.913000
0.002229 -0.015090 0.943000
0.000680 -0.049116 0.948000
0.005170 0.032021 0.914000
0.005923 0.031269 0.914000
0.034129 -0.028346 0.945000
0.006690 0.027567 0.916000
0.022462 0.030252 0.929000
0.024558 -0.017290 0.936000
-0.021357 -0.004591 0.939000
-0.018551 0.034692 0.915000
0.026512 -0.018851 0.937000
0.011287 -0.042359 0.954000
-0.025856 0.013885 0.934000
0.003709 0.014513 0.925000
0.014990 -0.020072 0.940000
-0.007284 0.032196 0.919000
0.010039 0.031951 0.912000
-0.003509 0.029613 0.921000
0.011251 -0.035572 0.951000
0.018138 0.009543 0.923000
-0.017421 0.034692 0.915000
-0.012457 0.040495 0.910000
0.023584 0.018761 0.928000
0.009274 -0.030810 0.949000
-0.009377 0.039025 0.902000
0.034237 -0.000343 0.948000
-0.021379 0.001594 0.940000
-0.012547 -0.007732 0.945000
-0.013655 0.033939 0.915000
0.031728 -0.031003 0.943000
-0.023575 0.013130 0.935000
-0.003601 -0.015900 0.945000
0.006278 0.037540 0.911000
0.007260 -0.010023 0.941000
0.010688 -0.004577 0.936000
-0.007879 -0.007732 0.945000
-0.010557 0.001983 0.941000
0.002919 0.030960 0.916000
-0.021836 -0.026346 0.943000
-0.018459 -0.025732 0.949000
0.024374 0.004252 0.929000
0.038381 -0.024297 0.954000
-0.005200 -0.028586 0.953000
-0.005616 -0.035008 0.957000
0.007121 0.014861 0.923000
-0.000100 -0.022584 0.948000
-0.025114 0.008897 0.935000
0.003778 -0.051907 0.942000
0.006169 -0.034042 0.952000
0.004778 0.036790 0.911000
-0.016437 -0.010455 0.945000
0.026099 -0.016519 0.936000
-0.015205 0.001983 0.941000
-0.008364 -0.037333 0.956000
0.014607 0.026059 0.916000
0.014774 -0.050054 0.951000
0.002617 -0.016255 0.943000
0.002250 -0.029732 0.952000
0.018719 -0.009554 0.933000
0.009304 -0.036393 0.952000
0.024783 -0.000337 0.930000
-0.002062 -0.030547 0.953000
-0.016915 -0.017548 0.950000
0.003257 0.044370 0.905000
0.021651 0.002335 0.927000
0.014095 -0.004174 0.932000
0.025193 0.016906 0.931000
0.012345 0.024174 0.916000
-0.004416 -0.028978 0.953000
-0.027630 0.027958 0.929000
0.036265 -0.024195 0.950000
0.031728 0.003152 0.943000
0.014974 -0.018504 0.939000
0.022820 0.028692 0.928000
0.026399 -0.006866 0.933000
0.008575 0.026436 0.916000
-0.000851 0.033222 0.916000
0.021045 -0.013408 0.934000
-0.000888 -0.052285 0.956000
-0.019702 0.036238 0.916000
-0.002457 -0.032150 0.954000
0.027196 0.012732 0.934000
-0.009245 0.027487 0.926000
0.018138 0.010683 0.923000
0.008603 0.020849 0.919000
-0.000856 0.024685 0.921000
0.003031 -0.029309 0.951000
0.007152 0.010729 0.927000
0.012385 0.018958 0.919000
-0.022153 -0.033613 0.940000
0.012776 -0.031558 0.948000
0.012278 0.034915 0.911000
-0.010557 0.001596 0.941000
0.035092 -0.013638 0.950000
-0.020474 0.013501 0.934000
-0.004783 -0.020633 0.948000
-0.009056 -0.010077 0.946000
0.017385 -0.028705 0.944000
0.007329 -0.027323 0.950000
-0.005616 -0.035796 0.957000
-0.028102 0.015006 0.932000
0.011050 -0.002645 0.934000
-0.002745 0.030305 0.919000
0.007484 0.017862 0.921000
-0.004430 -0.035365 0.956000
0.035018 -0.021803 0.948000
0.001780 0.037581 0.912000
-0.013325 -0.008899 0.945000
0.019278 0.009923 0.923000
0.022024 -0.029451 0.943000
-0.033222 0.027457 0.925000
0.013056 0.032737 0.913000
-0.009027 -0.002670 0.943000
0.018939 0.005376 0.925000
0.026783 -0.003794 0.933000
0.003798 -0.022950 0.947000
-0.021743 0.001206 0.939000
0.032504 -0.011985 0.943000
0.026955 -0.023142 0.939000
0.016538 -0.020459 0.940000
0.003009 -0.019380 0.944000
0.001065 -0.051962 0.943000
0.014942 -0.014608 0.937000
0.003705 0.016018 0.924000
-0.031105 0.017653 0.930000
0.001767 0.044370 0.905000
0.029212 -0.008438 0.937000
0.003419 -0.047655 0.950000
-0.017510 0.003915 0.940000
-0.006798 -0.035008 0.957000
-0.024756 0.011603 0.936000
-0.021379 0.000820 0.940000
-0.013878 0.038410 0.905000
0.020955 -0.005313 0.930000
-0.018012 0.028630 0.926000
-0.020970 0.033819 0.922000
0.013199 0.010683 0.923000
-0.001626 0.014942 0.928000
-0.001228 0.033222 0.916000
-0.017659 -0.015170 0.948000
-0.000489 -0.019810 0.946000
0.014417 0.002338 0.928000
-0.010224 -0.013970 0.946000
-0.013073 -0.031398 0.955000
-0.031071 0.019929 0.929000
-0.012680 -0.034149 0.955000
-0.022106 -0.001498 0.938000
-0.016790 -0.003835 0.943000
0.031694 -0.001117 0.942000
0.010825 -0.047555 0.948000
0.032962 -0.003843 0.945000
0.025959 -0.001487 0.931000
0.020342 -0.016922 0.937000
0.014639 0.019315 0.918000
-0.015708 -0.013609 0.948000
0.011679 -0.043930 0.954000
-0.003414 0.038766 0.896000
0.004218 -0.036469 0.954000
0.030886 0.005469 0.941000
-0.016141 0.022199 0.928000
0.024374 0.001193 0.929000
0.005249 0.011504 0.928000
-0.013565 0.039328 0.909000
-0.003817 0.042089 0.904000
-0.022177 -0.030550 0.941000
0.020148 -0.032659 0.946000
0.039248 -0.025135 0.956000
0.015540 -0.037880 0.950000
0.019594 0.027687 0.920000
0.022032 0.003861 0.927000
0.030047 -0.008070 0.939000
0.011165 0.031951 0.912000
0.025576 0.000046 0.931000
-0.008356 -0.038866 0.955000
0.020081 0.006518 0.925000
0.024374 0.010370 0.929000
0.021961 0.014117 0.924000
-0.015791 -0.028586 0.953000
0.006485 -0.009249 0.941000
0.008913 0.033828 0.912000
-0.011296 0.007768 0.938000
0.016564 0.016706 0.920000
-0.021059 -0.029451 0.943000
0.003774 -0.007699 0.941000
0.021581 0.015258 0.924000
-0.033639 0.026343 0.926000
0.003693 0.020894 0.921000
0.023202 0.001574 0.928000
0.025659 -0.013408 0.934000
0.021931 -0.022756 0.939000
-0.006330 -0.016306 0.946000
-0.000097 0.025794 0.920000
0.021177 0.019800 0.923000
-0.004576 0.042975 0.907000
0.024121 -0.012640 0.934000
-0.021037 -0.033297 0.942000
0.016221 0.012189 0.922000
0.007590 0.002737 0.934000
0.007082 0.023849 0.918000
-0.013409 0.029329 0.924000
0.018124 -0.025155 0.942000
-0.007332 0.025553 0.925000
-0.000478 0.020560 0.923000
0.007720 -0.032015 0.950000
-0.023985 0.012374 0.936000
0.027167 -0.004946 0.933000
0.016744 -0.002633 0.930000
0.031307 -0.025542 0.942000
0.004941 0.001985 0.942000
0.004972 -0.048726 0.948000
0.009059 0.008058 0.927000
-0.007268 0.034391 0.917000
-0.000496 -0.040171 0.958000
-0.010759 -0.039029 0.959000
0.006974 -0.040831 0.955000
0.017931 -0.008009 0.932000
0.013432 0.032737 0.913000
-0.023883 0.019609 0.932000
-0.002823 -0.012788 0.945000
-0.005608 0.035696 0.893000
0.002168 0.029484 0.917000
0.017246 0.035861 0.916000
0.003774 -0.052626 0.941000
0.000660 0.025415 0.920000
-0.022012 0.015038 0.934000
0.024400 0.023778 0.930000
0.022680 -0.021573 0.938000
-0.008941 0.013116 0.934000
-0.018855 0.019184 0.930000
-0.008303 -0.019873 0.949000
0.015491 -0.031914 0.947000
-0.016647 0.011976 0.935000
0.022365 0.020985 0.925000
0.007352 -0.036823 0.953000
0.018197 0.002714 0.926000
0.021203 -0.025903 0.941000
-0.005217 -0.044022 0.956000
0.003394 -0.012373 0.943000
-0.022132 0.033476 0.923000
-0.000098 0.015291 0.926000
-0.006748 -0.023022 0.950000
0.036265 -0.028105 0.950000
0.002562 0.018280 0.923000
0.018598 0.001953 0.927000
0.009167 -0.005359 0.938000
0.009294 -0.034789 0.951000
-0.010030 0.034632 0.894000
-0.011781 -0.010466 0.946000
-0.024084 0.031645 0.925000
-0.015609 -0.000341 0.942000
0.013770 -0.011126 0.936000
0.001860 -0.033685 0.953000
0.016080 0.040297 0.914000
-0.011175 0.018761 0.928000
-0.015759 0.023345 0.928000
-0.015253 -0.005781 0.944000
-0.024370 0.012374 0.936000
0.004437 0.026116 0.918000
0.015311 0.034992 0.913000
0.012305 0.030859 0.913000
-0.012840 0.008154 0.938000
-0.012689 0.027898 0.927000
-0.003909 0.017959 0.926000
0.010979 0.005011 0.928000
0.004117 0.009626 0.931000
0.002170 0.026871 0.918000
-0.004002 -0.020633 0.948000
0.013726 -0.006482 0.933000
0.011667 -0.040353 0.953000
0.017643 0.039297 0.917000
-0.010310 -0.038432 0.954000
0.015781 -0.020868 0.941000
0.002614 -0.008483 0.942000
0.001454 -0.016660 0.944000
0.018836 0.038290 0.920000
0.005631 0.011122 0.928000
0.028441 0.015087 0.937000
-0.012627 -0.021089 0.951000
0.016203 0.014450 0.921000
-0.020348 -0.024872 0.946000
0.011275 -0.040353 0.953000
0.005522 0.038622 0.910000
-0.014430 0.002370 0.941000
0.020797 0.014481 0.923000
0.014696 -0.027987 0.946000
-0.021847 0.027516 0.927000
-0.007963 -0.031398 0.955000
-0.021720 0.006609 0.938000
0.007736 -0.036393 0.952000
0.011971 -0.048233 0.946000
0.022056 0.033275 0.928000
0.039248 -0.023955 0.956000
-0.024036 -0.030067 0.938000
-0.003055 0.040006 0.899000
0.008120 -0.034397 0.951000
0.015557 -0.039094 0.951000
0.019549 -0.015749 0.936000
-0.017212 0.030089 0.924000
0.012844 -0.043491 0.953000
-0.006741 -0.021045 0.949000
0.028410 -0.012281 0.936000
0.007880 0.014861 0.923000
0.037988 -0.014874 0.954000
-0.020737 -0.018642 0.946000
-0.005928 -0.007336 0.944000
0.029243 -0.017713 0.938000
-0.000493 -0.046629 0.953000
0.017454 0.001953 0.927000
0.002881 0.042833 0.904000
0.015445 0.014829 0.921000
0.019764 -0.000718 0.928000
-0.002012 0.014208 0.930000
0.037988 -0.020763 0.954000
-0.010105 0.011591 0.935000
0.002177 0.022410 0.921000
-0.013282 0.000434 0.942000
0.024810 0.026102 0.931000
0.002248 -0.024221 0.951000
-0.018453 0.022987 0.929000
-0.002454 -0.028194 0.953000
0.033740 -0.025235 0.945000
0.007267 -0.018564 0.942000
0.021604 0.035833 0.925000
0.015893 0.006518 0.925000
-0.009056 -0.008130 0.946000
0.009288 0.033452 0.912000
-0.020992 -0.006531 0.940000
-0.016523 0.022581 0.928000
-0.021082 -0.025985 0.944000
0.019266 -0.024353 0.941000
0.005009 -0.039652 0.955000
0.004452 0.020515 0.921000
-0.005222 -0.036584 0.957000
-0.010086 0.037416 0.899000
-0.024344 0.013130 0.935000
0.032082 -0.020502 0.942000
-0.007888 -0.012023 0.946000
0.008565 0.028290 0.915000
0.009206 -0.051131 0.942000
0.035445 -0.007765 0.949000
0.003422 -0.025395 0.951000
0.035911 -0.005433 0.951000
-0.014849 -0.004999 0.943000
-0.020518 0.010448 0.936000
0.006967 -0.038432 0.954000
0.004592 -0.024195 0.950000
0.006091 -0.008078 0.940000
0.019615 0.040985 0.921000
0.018919 -0.027510 0.943000
0.032116 -0.029839 0.943000
-0.006521 0.032161 0.918000
0.016600 0.012568 0.922000
-0.005422 0.027808 0.924000
-0.011119 -0.033398 0.956000
-0.006004 -0.042054 0.956000
-0.002434 -0.015900 0.945000
0.004028 0.038290 0.911000
-0.009938 -0.033004 0.956000
-0.008639 -0.003058 0.943000
0.002642 -0.031299 0.952000
0.011996 -0.047165 0.948000
0.031307 -0.025930 0.942000
-0.025499 0.008897 0.935000
-0.020791 0.019971 0.931000
-0.006748 0.038483 0.898000
0.017514 -0.044966 0.951000
0.009167 -0.006131 0.938000
-0.006634 0.010810 0.934000
0.010654 -0.001490 0.933000
0.025741 -0.019622 0.937000
0.010336 -0.014253 0.939000
0.017182 -0.008786 0.933000
-0.015576 0.004302 0.940000
-0.000479 0.016797 0.925000
-0.013834 0.021793 0.927000
-0.007395 0.013102 0.933000
0.033776 -0.011245 0.946000
-0.008979 0.009698 0.938000
0.007267 -0.017788 0.942000
0.020820 0.011835 0.924000
0.025713 -0.017675 0.936000
0.004121 0.007334 0.932000
-0.011175 0.017997 0.928000
-0.010008 0.022532 0.926000
-0.009647 0.017233 0.928000
0.028025 0.011218 0.936000
-0.008666 -0.008908 0.946000
0.005710 -0.014284 0.941000
0.000676 -0.053845 0.942000
-0.030755 0.016523 0.931000
0.005014 -0.041661 0.956000
0.005522 0.039746 0.910000
-0.023373 0.027516 0.927000
0.019956 -0.018079 0.937000
0.022390 0.023675 0.926000
0.029243 0.008154 0.938000
-0.009928 -0.039259 0.955000
0.020727 -0.018465 0.937000
0.003037 -0.034862 0.953000
-0.002062 -0.028978 0.953000
0.019994 0.023927 0.921000
0.033351 -0.010844 0.945000
-0.009151 -0.031037 0.956000
0.014968 0.027537 0.915000
-0.006570 0.025553 0.925000
0.009522 -0.001108 0.935000
-0.014991 -0.021895 0.952000
0.003814 -0.046923 0.951000
-0.000857 0.019800 0.923000
-0.010602 -0.005010 0.945000
-0.018070 0.020311 0.929000
0.015948 -0.039094 0.951000
0.006292 0.033865 0.913000
0.016626 -0.028735 0.945000
0.029692 -0.024714 0.940000
-0.002823 -0.012011 0.945000
0.024379 -0.031813 0.944000
0.004170 -0.017031 0.943000
0.017830 -0.033863 0.947000
0.014292 0.015570 0.920000
0.010056 -0.027685 0.949000
0.007940 0.007319 0.930000
-0.001282 -0.036939 0.956000
0.033386 0.002772 0.946000
-0.011906 -0.032611 0.956000
0.010711 -0.009991 0.938000
0.018040 0.034050 0.918000
0.004988 -0.026178 0.951000
0.012305 0.030483 0.913000
-0.010008 0.024819 0.926000
0.014634 -0.022828 0.942000
-0.002302 0.037208 0.894000
-0.015592 0.000434 0.941000
0.008395 -0.004972 0.938000
0.029661 0.013959 0.939000
-0.020262 -0.010034 0.942000
0.013918 -0.026429 0.946000
0.014543 0.037206 0.912000
0.006821 0.002353 0.934000
0.008547 0.031234 0.913000
0.013056 0.031234 0.913000
0.028085 -0.019257 0.938000
0.015948 -0.039877 0.951000
0.038814 -0.020785 0.955000
0.024810 0.031467 0.931000
-0.006183 0.024385 0.924000
-0.021037 -0.033684 0.942000
0.004505 0.006951 0.932000
-0.012215 0.033367 0.920000
0.006561 -0.034042 0.952000
0.029212 -0.010366 0.937000
0.001433 0.013060 0.930000
0.019758 -0.032270 0.946000
0.007344 -0.036001 0.952000
-0.000496 -0.040959 0.958000
-0.027335 0.021911 0.932000
-0.000097 0.033186 0.915000
-0.020004 0.021098 0.930000
-0.014991 -0.020328 0.952000
-0.023780 0.025636 0.928000
0.006485 -0.010411 0.941000
0.019633 -0.022393 0.940000
0.008102 -0.030810 0.949000
-0.000885 -0.025841 0.953000
0.016030 -0.007634 0.933000
0.006836 -0.000339 0.936000
0.004621 -0.040480 0.956000
-0.014369 0.010459 0.937000
-0.011003 -0.012413 0.946000
0.006547 -0.030451 0.950000
0.004597 -0.025786 0.951000
-0.017935 -0.001504 0.942000
-0.026016 0.030536 0.926000
-0.008666 -0.010077 0.946000
0.026371 -0.001488 0.932000
-0.003137 0.025878 0.923000
-0.023676 -0.029326 0.939000
0.011085 -0.008052 0.937000
0.015579 -0.001484 0.929000
0.015898 -0.047165 0.948000
-0.028193 0.009282 0.935000
0.030434 -0.015026 0.939000
-0.002778 0.014208 0.930000
0.019700 0.006518 0.925000
0.016256 0.008412 0.924000
0.003709 0.014132 0.925000
0.007631 -0.006910 0.939000
0.026783 -0.002642 0.933000
0.026841 -0.014962 0.935000
0.038814 -0.023143 0.955000
0.018799 -0.016537 0.937000
-0.025114 0.010052 0.935000
0.025741 -0.020779 0.937000
0.007484 0.018999 0.921000
0.000293 -0.042931 0.958000
0.025166 0.000429 0.930000
0.009137 -0.001108 0.935000
-0.029347 0.011976 0.935000
0.004804 0.029452 0.916000
-0.012308 0.020649 0.927000
-0.008356 -0.031005 0.955000
0.002526 0.040121 0.910000
-0.009575 0.030750 0.921000
0.029724 -0.026677 0.941000
-0.012613 -0.018721 0.950000
0.019225 -0.021210 0.939000
-0.016558 -0.028164 0.952000
0.007206 0.002353 0.934000
0.027669 -0.019622 0.937000
0.021613 -0.027093 0.942000
0.016467 -0.013052 0.936000
0.013520 0.018958 0.919000
0.015596 -0.002633 0.930000
-0.010725 -0.031037 0.956000
-0.021581 0.018075 0.932000
-0.023066 0.022247 0.930000
0.022771 0.022151 0.926000
-0.033018 0.021481 0.930000
0.014246 0.022313 0.917000
0.013756 -0.010344 0.935000
-0.020047 0.017691 0.932000
-0.023729 0.029773 0.926000
-0.022012 0.015423 0.934000
0.028826 -0.001111 0.937000
0.019215 0.037911 0.920000
0.016564 0.016328 0.920000
0.007198 0.003886 0.933000
0.002587 0.009636 0.932000
0.023992 0.001575 0.929000
-0.019982 0.023370 0.929000
-0.015609 -0.001504 0.942000
-0.013998 0.008540 0.938000
-0.013467 0.019143 0.928000
0.001065 -0.015478 0.943000
0.016450 -0.011114 0.935000
-0.000101 -0.027017 0.953000
-0.018711 -0.010034 0.942000
0.010149 0.015604 0.922000
-0.018413 0.027898 0.927000
-0.001672 -0.032935 0.954000
0.012480 0.006144 0.926000
0.012615 -0.008814 0.936000
0.022001 -0.027481 0.942000
-0.016367 0.000046 0.941000
0.025247 -0.009554 0.933000
0.021581 0.014117 0.924000
-0.018459 -0.024951 0.949000
0.019722 0.004619 0.926000
0.005771 -0.032440 0.951000
0.007846 0.022362 0.919000
0.008493 -0.029638 0.949000
-0.016541 0.024517 0.929000
0.027640 0.016997 0.936000
-0.000889 -0.038553 0.957000
0.015262 -0.006866 0.933000
0.006792 0.008850 0.930000
0.016080 0.037288 0.914000
0.026898 -0.019236 0.937000
-0.017734 -0.034825 0.952000
-0.021038 0.029361 0.925000
0.004227 -0.044415 0.956000
-0.026397 0.032060 0.926000
-0.002691 0.041207 0.901000
0.010825 -0.030387 0.948000
0.001796 0.024658 0.920000
0.017164 -0.006859 0.932000
-0.015758 -0.018741 0.951000
-0.016523 0.023727 0.928000
0.023177 0.019123 0.927000
-0.006577 0.019102 0.926000
0.035092 -0.015984 0.950000
-0.022540 -0.035547 0.940000
-0.015350 -0.016766 0.950000
0.006982 -0.042054 0.956000
0.018256 -0.001866 0.929000
-0.011582 0.015357 0.930000
-0.009235 0.027838 0.925000
-0.022276 0.022987 0.929000
0.012889 0.002338 0.928000
0.007614 -0.002268 0.937000
0.011287 -0.043537 0.954000
-0.017269 -0.014390 0.948000
-0.003901 0.021343 0.924000
0.008930 -0.039218 0.954000
0.012750 0.020070 0.918000
0.005607 0.014877 0.924000
0.009040 0.010706 0.925000
0.018816 0.029927 0.919000
0.023140 -0.026677 0.941000
-0.013786 0.035936 0.899000
0.012047 -0.045013 0.952000
0.009738 0.019714 0.919000
0.005936 0.027944 0.916000
0.019266 -0.024741 0.941000
0.002570 0.014528 0.926000
-0.026836 0.029074 0.928000
-0.015912 0.010073 0.937000
0.014323 0.012568 0.922000
0.012438 -0.039136 0.952000
-0.017688 0.021840 0.929000
0.016474 0.040341 0.915000
-0.009835 -0.009687 0.946000
-0.017529 0.000821 0.941000
0.025987 0.016541 0.932000
0.002548 0.026116 0.918000
-0.003901 0.020202 0.924000
0.012844 -0.041138 0.953000
0.012944 -0.003023 0.932000
0.016555 -0.022417 0.941000
0.007838 0.023471 0.918000
-0.021442 0.029392 0.926000
0.025274 -0.013793 0.934000
-0.016506 -0.015967 0.949000
0.020797 0.034995 0.923000
0.000656 0.033939 0.915000
0.023966 0.017997 0.928000
-0.014930 0.029709 0.924000
0.004384 0.043721 0.907000
0.021581 0.021343 0.924000
0.004170 -0.018195 0.943000
0.004205 -0.025395 0.951000
0.022341 -0.024327 0.940000
0.029243 -0.018485 0.938000
0.017643 0.028729 0.917000
-0.002341 0.043818 0.909000
-0.018284 0.001981 0.940000
0.019340 0.003857 0.926000
0.011642 0.018221 0.920000
0.021590 -0.025903 0.941000
0.007720 -0.026541 0.950000
0.005187 0.026087 0.917000
0.009950 -0.009229 0.939000
0.004597 -0.030092 0.951000
-0.000855 0.027687 0.920000
0.025436 -0.025101 0.940000
-0.017529 0.001208 0.941000
-0.026625 0.011579 0.934000
-0.020176 0.006609 0.938000
0.018959 0.003095 0.926000
-0.010944 0.001596 0.941000
0.009380 0.016724 0.921000
-0.014692 0.013486 0.933000
0.022771 0.019864 0.926000
0.013153 -0.028406 0.947000
0.024925 -0.034752 0.950000
0.013800 -0.015782 0.938000
0.015102 -0.031135 0.947000
-0.027306 0.022654 0.931000
-0.028283 0.008926 0.938000
-0.027749 0.010798 0.933000
-0.014237 -0.033721 0.954000
0.010468 -0.035180 0.951000
-0.006570 0.027457 0.925000
0.010711 -0.007675 0.938000
0.006117 -0.021323 0.944000
0.024783 0.011146 0.930000
0.023502 -0.025101 0.940000
-0.021581 0.017691 0.932000
0.026210 -0.027036 0.940000
0.010778 0.036040 0.911000
-0.005422 0.024385 0.924000
0.027758 -0.025101 0.940000
0.014339 0.010683 0.923000
0.008799 -0.014655 0.940000
-0.010549 0.040735 0.907000
-0.020992 -0.002275 0.940000
0.022008 0.039302 0.926000
0.024794 -0.034180 0.945000
-0.019038 0.005457 0.939000
0.023584 0.005011 0.928000
-0.026550 -0.029513 0.945000
-0.019098 -0.008095 0.942000
0.000289 -0.050180 0.946000
0.022056 0.032893 0.928000
0.012776 -0.031948 0.948000
-0.000100 -0.020589 0.946000
0.012466 0.008041 0.925000
0.027610 0.002740 0.935000
0.021246 0.003476 0.926000
0.016185 -0.024379 0.942000
0.015898 -0.033118 0.948000
0.024400 0.022629 0.930000
0.023584 0.002719 0.928000
0.016048 -0.009180 0.934000
-0.009265 0.016852 0.928000
-0.016923 0.024517 0.929000
0.026071 -0.013808 0.935000
-0.012388 0.013486 0.933000
0.013974 0.009173 0.924000
0.033740 -0.024457 0.945000
0.015996 -0.004169 0.931000
0.006733 0.017502 0.922000
-0.022271 -0.020956 0.945000
0.032116 -0.004611 0.943000
-0.011061 -0.022655 0.951000
-0.025828 0.018094 0.933000
-0.029605 0.021504 0.931000
0.033740 -0.028346 0.945000
0.021581 0.025906 0.924000
-0.006791 -0.034185 0.956000
0.019636 0.043686 0.922000
0.018578 0.002714 0.926000
0.030175 -0.031003 0.943000
0.005283 0.003121 0.934000
-0.025581 -0.030839 0.938000
0.024890 -0.013793 0.934000
0.016528 0.020826 0.918000
0.015246 -0.005708 0.932000
-0.015775 -0.022287 0.952000
0.008475 -0.048284 0.947000
0.009284 -0.046482 0.950000
0.028857 0.010470 0.938000
-0.001995 0.024712 0.922000
0.018335 -0.045060 0.953000
-0.016808 -0.008501 0.944000
0.019722 0.003095 0.926000
-0.016019 0.033024 0.921000
-0.007462 0.036881 0.895000
0.007267 -0.051131 0.942000
-0.026625 0.013501 0.934000
0.012803 -0.035534 0.950000
0.019679 0.008412 0.924000
-0.000494 -0.035721 0.955000
-0.019853 -0.006925 0.941000
-0.026981 0.010414 0.933000
-0.010782 0.025609 0.927000
0.016564 0.015192 0.920000
-0.009017 -0.001892 0.942000
-0.005771 0.031061 0.919000
0.011275 -0.039177 0.953000
0.023966 0.015706 0.928000
-0.011284 0.008916 0.937000
-0.019052 0.034161 0.921000
0.007631 -0.007297 0.939000
0.034165 -0.026819 0.946000
-0.018774 0.029011 0.926000
-0.020606 -0.002275 0.940000
-0.016384 -0.001117 0.942000
0.031661 -0.016607 0.941000
-0.014073 -0.002670 0.943000
-0.016158 0.019164 0.929000
-0.022942 0.030883 0.925000
0.015311 0.037998 0.913000
-0.020219 -0.005757 0.940000
0.031661 -0.018931 0.941000
0.026155 -0.021187 0.938000
-0.013401 0.035896 0.898000
0.004389 0.042648 0.908000
0.001761 0.042367 0.902000
-0.008666 -0.010466 0.946000
0.028235 -0.032556 0.943000
0.019615 0.040227 0.921000
0.037125 -0.025422 0.952000
-0.001624 0.015689 0.927000
0.006540 -0.047996 0.949000
0.020683 -0.014192 0.935000
0.011074 -0.004577 0.936000
-0.004505 0.036063 0.893000
0.008162 0.033077 0.912000
0.018079 0.018600 0.920000
0.030466 -0.020459 0.940000
0.023477 -0.022756 0.939000
0.016305 -0.047215 0.949000
-0.029956 0.017271 0.930000
0.016869 0.038123 0.916000
0.030919 0.008188 0.942000
-0.027394 0.008888 0.934000
0.006953 -0.034434 0.952000
-0.019916 -0.033367 0.944000
0.017051 -0.033473 0.947000
-0.010400 0.019123 0.927000
0.011630 -0.046091 0.950000
-0.007482 -0.006170 0.944000
0.022080 -0.002631 0.929000
-0.015007 -0.031724 0.953000
0.010325 -0.006903 0.938000
0.031273 -0.008861 0.941000
0.004988 -0.046923 0.951000
0.003311 0.022386 0.920000
-0.005222 -0.036190 0.957000
0.016979 -0.025958 0.943000
0.006974 -0.040045 0.955000
0.034981 -0.026068 0.947000
0.002229 -0.013538 0.943000
0.005777 -0.033650 0.952000
-0.005563 -0.019462 0.948000
-0.015270 -0.008899 0.945000
0.038381 -0.020371 0.954000
-0.009783 0.001983 0.941000
0.020865 0.003476 0.926000
0.012709 -0.050021 0.943000
0.021961 0.017539 0.924000
0.004988 -0.027352 0.951000
-0.005997 -0.031398 0.955000
-0.022991 0.028279 0.927000
0.004601 -0.034434 0.952000
0.032116 -0.009656 0.943000
0.012426 0.014086 0.922000
-0.005803 0.022103 0.924000
-0.012299 -0.031037 0.956000
-0.018187 0.010821 0.935000
-0.000856 0.026580 0.921000
-0.023239 0.009688 0.937000
-0.017324 -0.019132 0.951000
-0.016402 -0.003835 0.943000
0.024374 0.014958 0.929000
-0.022396 0.014654 0.934000
0.014352 -0.034325 0.949000
0.029661 0.005457 0.939000
0.024810 0.029551 0.931000
0.012282 -0.018137 0.940000
0.009294 -0.034397 0.951000
0.026812 0.017729 0.934000
-0.007176 -0.031005 0.955000
0.006828 0.001585 0.935000
0.009319 0.027160 0.915000
-0.023239 0.006602 0.937000
-0.025060 0.019246 0.933000
0.006485 -0.015058 0.941000
-0.007498 -0.012023 0.946000
0.006547 -0.026541 0.950000
0.031273 -0.011185 0.941000
0.010534 -0.054703 0.957000
-0.011038 -0.017920 0.949000
0.004028 0.037540 0.911000
-0.007348 0.018360 0.927000
0.007484 0.018620 0.921000
-0.014818 0.002370 0.941000
0.010979 0.004247 0.928000
0.011471 -0.008438 0.937000
0.038421 -0.016461 0.955000
-0.000097 0.025064 0.921000
0.002255 -0.045893 0.954000
0.012669 -0.018137 0.940000
0.023252 -0.004165 0.930000
0.013638 0.003480 0.927000
0.024783 0.023778 0.930000
0.020428 -0.023966 0.941000
0.031728 0.003928 0.943000
-0.033294 0.024083 0.927000
0.022771 0.007668 0.926000
-0.017612 0.029741 0.925000
-0.006974 0.015706 0.928000
-0.003191 0.010095 0.939000
-0.017123 0.004302 0.940000
0.029661 0.012027 0.939000
-0.016950 -0.026205 0.952000
0.006052 0.003121 0.934000
0.002612 -0.054175 0.941000
0.027013 -0.028614 0.941000
0.016749 -0.043054 0.952000
0.021090 -0.016519 0.936000
-0.002454 -0.025448 0.953000
-0.025444 0.017710 0.933000
0.029243 0.010084 0.938000
0.033740 -0.024068 0.945000
-0.027335 0.011554 0.932000
0.021721 -0.004547 0.930000
0.038421 -0.016854 0.955000
0.018217 0.000809 0.927000
-0.003252 -0.042886 0.957000
-0.002400 0.011937 0.932000
-0.020305 -0.030259 0.944000
0.022631 -0.018060 0.936000
-0.010289 -0.024246 0.952000
0.015590 -0.042315 0.953000
0.029011 -0.033332 0.943000
-0.017992 0.029741 0.925000
0.006098 -0.014284 0.941000
0.004024 0.039746 0.910000
0.024069 -0.007242 0.932000
0.023584 0.017615 0.928000
-0.000493 -0.025448 0.953000
-0.025745 0.024926 0.930000
0.023017 -0.017675 0.936000
-0.021488 0.026018 0.928000
-0.021104 -0.022901 0.945000
-0.023831 0.023012 0.930000
-0.005009 0.031405 0.918000
0.008799 -0.011173 0.940000
0.001428 0.014163 0.927000
-0.024011 0.005445 0.937000
0.026783 0.006958 0.933000
0.011983 -0.047895 0.947000
-0.003154 0.015324 0.928000
0.017182 -0.009170 0.933000
0.011756 0.001958 0.929000
-0.021720 0.005451 0.938000
-0.013834 0.021412 0.927000
0.029629 -0.003042 0.938000
0.010437 0.029388 0.914000
0.022317 -0.023142 0.939000
-0.022927 -0.029357 0.940000
0.014862 -0.004941 0.932000
0.019785 -0.003395 0.929000
0.015131 0.006518 0.925000
-0.006390 -0.042796 0.955000
-0.027570 0.030950 0.927000
-0.034240 0.024596 0.932000
0.007966 0.002734 0.933000
0.027610 0.007743 0.935000
0.011133 -0.018931 0.941000
-0.019445 0.001207 0.940000
0.013726 -0.005714 0.933000
0.022894 -0.007234 0.931000
0.004946 -0.018971 0.943000
-0.016777 0.033782 0.921000
-0.001619 0.018680 0.924000
-0.003604 -0.018253 0.946000
-0.033186 0.028949 0.924000
-0.007578 -0.032611 0.956000
-0.017306 -0.028105 0.950000
0.020298 -0.013808 0.935000
0.005148 0.038622 0.910000
-0.001672 -0.033328 0.954000
0.007863 0.018620 0.921000
-0.006357 -0.023413 0.950000
0.017510 -0.004165 0.930000
-0.002670 0.038311 0.894000
0.018438 0.023496 0.919000
-0.011906 -0.030644 0.956000
-0.032322 0.019609 0.932000
-0.014995 0.024490 0.928000
0.031694 -0.002667 0.942000
0.007761 -0.041224 0.955000
0.001080 -0.039735 0.957000
-0.000877 -0.013552 0.944000
-0.019979 -0.021390 0.947000
0.027225 0.016979 0.935000
0.012817 -0.037920 0.951000
-0.016350 0.003528 0.940000
0.005329 -0.015074 0.942000
0.025166 0.005405 0.930000
-0.007184 -0.033791 0.956000
-0.017764 0.013870 0.933000
-0.000101 -0.038947 0.957000
0.013491 0.021936 0.917000
-0.020970 0.003138 0.939000
-0.009886 -0.022655 0.951000
0.001023 0.040317 0.906000
-0.014058 0.000434 0.942000
0.003307 0.025009 0.919000
0.011263 -0.038352 0.952000
0.015557 -0.038312 0.951000
-0.015399 -0.022703 0.953000
-0.011732 0.001210 0.942000
-0.022610 0.027516 0.927000
0.011227 -0.032763 0.949000
-0.008347 -0.029009 0.954000
0.002153 0.039415 0.911000
0.020418 0.011822 0.923000
0.009738 0.020471 0.919000
0.013000 -0.009970 0.936000
-0.012274 -0.027046 0.954000
-0.006370 -0.026597 0.952000
-0.001280 -0.045155 0.955000
-0.023701 -0.024714 0.940000
-0.011107 -0.034542 0.955000
-0.011146 0.034671 0.895000
0.001065 -0.008880 0.943000
0.000284 0.013443 0.930000
-0.009525 -0.028224 0.954000
-0.007662 0.032196 0.919000
-0.000478 0.020180 0.923000
-0.019979 -0.022950 0.947000
0.010028 0.035665 0.911000
-0.027009 0.007350 0.934000
-0.028072 0.022654 0.931000
0.038381 -0.020763 0.954000
0.030466 -0.004209 0.940000
-0.012145 -0.003839 0.944000
-0.014802 0.006237 0.940000
0.015557 -0.044966 0.951000
0.007098 0.019736 0.920000
-0.026749 0.032406 0.925000
0.011434 -0.003798 0.934000
0.010028 0.034915 0.911000
0.006568 -0.036039 0.953000
0.021158 -0.022369 0.939000
0.010149 0.015225 0.922000
0.024400 0.027223 0.930000
0.015165 -0.038312 0.951000
0.031694 -0.000729 0.942000
0.006894 -0.021323 0.944000
-0.024423 -0.027364 0.938000
-0.022540 -0.031291 0.940000
-0.015022 -0.027438 0.954000
-0.029956 0.023778 0.930000
0.010528 0.015225 0.922000
0.023627 -0.034180 0.945000
0.002531 0.036455 0.912000
0.006340 0.020114 0.920000
0.019615 0.017862 0.921000
0.021223 0.034310 0.925000
0.018438 0.042409 0.919000
-0.021037 -0.008483 0.942000
0.018143 -0.025958 0.943000
0.005936 0.028698 0.916000
-0.005616 -0.040917 0.957000
0.004831 0.020136 0.921000
0.025193 0.016523 0.931000
0.001405 0.037581 0.912000
0.001417 0.023522 0.920000
-0.021104 -0.024457 0.945000
0.022413 -0.030227 0.943000
0.013142 0.017823 0.919000
0.025576 -0.001104 0.931000
-0.025791 0.033672 0.918000
-0.007578 -0.039300 0.956000
-0.002465 -0.037766 0.957000
0.016925 -0.020459 0.940000
-0.028839 0.018439 0.931000
-0.010191 -0.001894 0.943000
0.014261 0.020448 0.918000
-0.009938 -0.039693 0.956000
0.010501 -0.041966 0.954000
-0.021470 -0.022488 0.944000
-0.005167 -0.019052 0.947000
0.011165 0.032326 0.912000
-0.022942 0.031645 0.925000
0.011606 -0.029607 0.948000
0.012972 -0.006105 0.934000
-0.021588 0.034353 0.916000
-0.015708 -0.014390 0.948000
0.014846 -0.004169 0.931000
0.026015 0.019630 0.933000
0.026812 -0.011102 0.934000
-0.016950 -0.025813 0.952000
-0.032636 0.020716 0.930000
0.003629 0.044370 0.905000
0.036694 -0.017567 0.951000
-0.011163 0.019886 0.927000
-0.014833 0.001210 0.942000
-0.031420 0.024872 0.928000
-0.011038 -0.017530 0.949000
0.015859 0.009163 0.923000
0.016869 0.030206 0.916000
0.015948 -0.045357 0.951000
-0.033258 0.025200 0.926000
-0.030274 0.028310 0.928000
-0.005941 -0.017085 0.946000
0.019594 0.025415 0.920000
-0.018050 -0.032728 0.948000
0.016474 0.030550 0.915000
-0.027719 0.013472 0.932000
-0.019916 -0.034144 0.944000
-0.001654 -0.010055 0.944000
0.005266 0.008093 0.931000
0.007144 0.011098 0.926000
0.003040 -0.035291 0.954000
-0.000878 -0.016678 0.945000
-0.001616 0.022814 0.922000
0.030919 -0.029032 0.942000
-0.006755 -0.025004 0.951000
0.007105 0.018241 0.921000
-0.019217 0.022223 0.929000
0.018898 0.009923 0.923000
0.010336 -0.013480 0.939000
-0.019590 -0.027237 0.947000
-0.021813 -0.030195 0.942000
-0.013894 0.015373 0.931000
0.037556 -0.018780 0.953000
-0.006719 -0.008908 0.946000
0.019635 -0.035082 0.959000
-0.009196 0.030371 0.921000
-0.001283 -0.037766 0.957000
0.017792 -0.029513 0.945000
0.009512 0.000431 0.934000
0.006409 0.009615 0.930000
0.018099 0.014450 0.921000
0.006588 -0.042054 0.956000
-0.007971 -0.035365 0.956000
0.003300 0.027597 0.917000
-0.002730 0.036535 0.914000
-0.026954 0.032953 0.919000
0.004941 -0.010034 0.942000
-0.018711 -0.008483 0.942000
0.032116 -0.002670 0.943000
-0.016558 0.018802 0.930000
0.010745 -0.018157 0.941000
-0.019979 -0.023339 0.947000
0.031728 0.000435 0.943000
-0.005249 -0.045486 0.962000
0.022414 0.040489 0.927000
0.002617 -0.014702 0.943000
-0.002736 0.033599 0.916000
-0.009285 0.015357 0.930000
0.006960 -0.045452 0.953000
0.021361 -0.008001 0.931000
0.014758 -0.046091 0.950000
-0.021059 -0.032556 0.943000
0.004398 0.040121 0.910000
-0.015758 -0.019524 0.951000
-0.009017 -0.000729 0.942000
-0.006404 -0.040523 0.957000
0.009706 -0.045060 0.953000
-0.015776 0.019546 0.929000
0.033776 -0.008130 0.946000
0.018104 -0.023966 0.941000
-0.014613 0.027546 0.928000
-0.004383 -0.016306 0.946000
-0.016541 -0.019132 0.951000
-0.014833 -0.000729 0.942000
-0.020305 -0.032979 0.944000
0.007167 0.008840 0.929000
0.000686 -0.038907 0.956000
-0.007578 -0.033791 0.956000
-0.019569 -0.015917 0.946000
-0.024062 -0.025847 0.939000
0.003782 -0.018195 0.943000
-0.004626 0.033258 0.917000
0.026294 -0.032556 0.943000
0.014479 -0.004941 0.932000
0.000668 0.011541 0.931000
0.000656 0.032809 0.915000
0.008085 -0.048674 0.947000
-0.017175 0.031922 0.922000
0.014050 0.000811 0.929000
0.002617 -0.012373 0.943000
0.011553 0.030107 0.913000
-0.025472 0.016960 0.934000
-0.005173 -0.019852 0.948000
-0.012287 -0.034542 0.955000
-0.006791 -0.042841 0.956000
-0.016099 -0.014390 0.948000
0.021361 -0.007234 0.931000
0.014575 0.030892 0.914000
-0.026241 0.009657 0.934000
0.034165 -0.020200 0.946000
0.008350 0.002350 0.933000
0.020820 0.043780 0.924000
0.022771 0.020245 0.926000
0.003275 0.039746 0.910000
0.011168 -0.022488 0.944000
-0.005015 0.030683 0.919000
-0.000474 0.032845 0.916000
-0.012215 0.032231 0.920000
0.005981 0.016381 0.923000
0.026841 -0.011884 0.935000
-0.027189 0.030569 0.927000
0.013417 0.033452 0.912000
0.012386 -0.031948 0.948000
-0.006317 -0.006558 0.944000
0.016618 0.009923 0.923000
0.016943 -0.022417 0.941000
-0.010703 -0.038040 0.954000
-0.016183 -0.027802 0.953000
-0.012747 0.038740 0.904000
-0.011595 0.014990 0.931000
0.032116 -0.001506 0.943000
0.013153 -0.025678 0.947000
0.002250 -0.027381 0.952000
0.021407 -0.011474 0.933000
0.018256 -0.001484 0.929000
0.000279 0.036495 0.913000
-0.003425 0.040006 0.899000
0.006887 -0.020136 0.943000
-0.004773 -0.017864 0.946000
-0.008778 0.034391 0.917000
-0.019726 0.011591 0.935000
-0.017783 0.012732 0.934000
0.015915 -0.035497 0.949000
-0.007332 0.027076 0.925000
-0.013939 0.012732 0.934000
-0.030837 0.030783 0.922000
0.011324 0.008421 0.925000
0.000683 -0.030124 0.952000
-0.003517 0.023979 0.923000
0.030434 -0.011548 0.939000
0.011819 -0.003798 0.934000
-0.024501 -0.023966 0.941000
-0.010557 0.000821 0.941000
0.012763 -0.028406 0.947000
0.016414 -0.008018 0.933000
-0.019078 0.000821 0.941000
-0.000496 -0.040565 0.958000
-0.010714 -0.028253 0.955000
-0.012680 -0.031005 0.955000
-0.009943 0.032231 0.920000
0.018438 0.024253 0.919000
0.017265 0.038920 0.917000
0.019123 -0.012255 0.934000
-0.015399 -0.030155 0.953000
-0.002043 -0.008501 0.944000
0.014398 -0.044621 0.952000
0.035874 -0.015984 0.950000
0.038421 -0.014889 0.955000
-0.027189 0.030187 0.927000
-0.003410 0.038354 0.895000
0.012778 0.016328 0.920000
0.022151 -0.008777 0.932000
-0.022177 -0.032099 0.941000
0.026371 -0.001105 0.932000
-0.020326 -0.026791 0.945000
-0.026894 0.025692 0.930000
0.002651 -0.037687 0.955000
-0.007078 0.036063 0.893000
0.014650 -0.023629 0.943000
-0.025226 0.032026 0.925000
0.012034 -0.036355 0.951000
0.018531 -0.027122 0.943000
-0.002757 0.025498 0.923000
-0.003225 -0.022607 0.949000
0.020126 -0.032236 0.945000
0.021767 -0.009927 0.932000
0.005942 0.027220 0.917000
-0.007904 -0.019462 0.948000
0.035055 -0.006203 0.949000
0.022390 0.035490 0.926000
-0.024423 0.000046 0.938000
-0.000098 0.013074 0.931000
0.001800 0.021296 0.922000
0.012426 0.013327 0.922000
0.023202 0.001956 0.928000
0.016474 0.035822 0.915000
0.024756 0.006928 0.929000
-0.018323 -0.002667 0.942000
0.026841 0.027754 0.935000
0.006437 0.003506 0.934000
0.010882 -0.039961 0.953000
0.014696 -0.048623 0.946000
-0.020386 0.021098 0.930000
0.014619 -0.020868 0.941000
-0.016650 0.036535 0.914000
0.002262 -0.044068 0.957000
0.008921 -0.045452 0.953000
0.033740 -0.030680 0.945000
0.018418 0.030650 0.918000
0.028410 -0.001109 0.936000
-0.011769 -0.008899 0.945000
-0.013745 0.032645 0.921000
0.001796 0.023143 0.920000
-0.004323 0.011566 0.933000
0.005546 0.032021 0.914000
0.017643 0.036278 0.917000
-0.007276 0.033295 0.918000
-0.007822 0.036104 0.894000
0.002999 -0.007312 0.941000
0.011133 -0.051851 0.941000
-0.019579 0.024109 0.928000
0.037086 -0.027743 0.951000
0.008799 -0.013881 0.940000
0.035836 -0.023389 0.949000
0.012507 0.002338 0.928000
-0.017287 0.027546 0.928000
0.001786 0.032056 0.915000
-0.021357 0.001979 0.939000
0.004784 0.036080 0.912000
-0.019681 0.035445 0.915000
-0.002387 0.015307 0.927000
0.038381 -0.022727 0.954000
0.010347 -0.015816 0.940000
0.008940 -0.043189 0.955000
0.018857 0.017483 0.921000
-0.014330 0.038622 0.910000
0.011642 -0.045748 0.951000
0.021744 -0.008001 0.931000
-0.021084 0.026753 0.927000
0.014308 0.013313 0.921000
-0.011003 -0.010855 0.946000
0.005408 -0.041661 0.956000
-0.028102 0.016924 0.932000
-0.003909 0.017577 0.926000
0.032539 -0.030259 0.944000
0.022771 0.014147 0.926000
0.005910 0.034578 0.912000
-0.013670 0.000822 0.942000
0.023966 0.006539 0.928000
0.022056 0.027928 0.928000
0.012086 0.009183 0.925000
0.001796 0.024279 0.920000
-0.000097 0.029861 0.917000
-0.020970 0.005457 0.939000
0.012345 0.024928 0.916000
0.012203 -0.004951 0.934000
0.010979 0.003865 0.928000
-0.007713 0.026315 0.925000
-0.010758 0.028980 0.925000
0.024374 0.021458 0.929000
0.008068 -0.049349 0.945000
0.007113 0.016363 0.922000
0.029274 -0.021596 0.939000
-0.020737 -0.020589 0.946000
0.000289 -0.013163 0.944000
-0.000488 -0.010444 0.944000
-0.011657 0.011218 0.936000
-0.001267 -0.012788 0.945000
0.000677 -0.051962 0.943000
0.015311 0.036495 0.913000
0.028980 -0.031358 0.942000
0.010483 0.022337 0.918000
-0.011893 -0.028646 0.955000
0.005340 0.000435 0.944000
-0.014192 -0.020307 0.951000
-0.000857 0.020180 0.923000
0.013214 0.010314 0.924000
0.018999 -0.033473 0.947000
-0.012666 -0.034899 0.954000
0.026399 0.013870 0.933000
-0.017715 -0.021481 0.951000
0.003408 -0.049064 0.947000
0.000291 -0.046629 0.953000
-0.017454 0.009302 0.937000
0.013242 0.006525 0.926000
-0.022707 0.020355 0.931000
0.007974 0.001968 0.934000
-0.007308 0.029645 0.922000
-0.011175 0.018379 0.928000
0.005987 0.014877 0.924000
0.005771 -0.026569 0.951000
0.018816 0.028035 0.919000
-0.009802 0.041108 0.907000
0.012817 -0.037529 0.951000
0.023992 0.032546 0.929000
-0.025884 0.013515 0.935000
0.014575 0.031269 0.914000
0.034664 -0.018701 0.949000
-0.008703 -0.022240 0.950000
0.021045 -0.012640 0.934000
0.018551 -0.029482 0.944000
0.004601 -0.046580 0.952000
-0.002045 -0.012011 0.945000
0.023992 0.021076 0.929000
0.025436 -0.026649 0.940000
-0.003631 -0.027017 0.953000
-0.016158 0.024899 0.929000
0.023252 -0.002633 0.930000
-0.012936 -0.009288 0.945000
0.023227 0.040958 0.929000
-0.001654 -0.009667 0.944000
0.001413 0.030239 0.917000
0.025301 -0.014192 0.935000
-0.009425 -0.004227 0.944000
0.011642 -0.037137 0.951000
-0.018090 0.019184 0.930000
-0.001675 -0.046776 0.956000
0.029692 0.014748 0.940000
-0.006190 0.020985 0.925000
0.001868 -0.043674 0.957000
-0.000102 -0.049445 0.962000
-0.011500 -0.027860 0.955000
0.016474 0.034316 0.915000
-0.003985 -0.008113 0.944000
0.015546 0.002335 0.927000
0.009685 0.029764 0.914000
0.034591 -0.031914 0.947000
-0.007139 -0.021849 0.950000
-0.014896 -0.010855 0.946000
0.012736 0.021558 0.917000
0.039248 -0.025922 0.956000
0.023177 0.016833 0.927000
0.001835 -0.052957 0.940000
0.005210 0.020136 0.921000
-0.004028 -0.030579 0.954000
-0.025087 0.016192 0.934000
0.015361 0.024551 0.916000
-0.004873 0.036798 0.893000
0.018079 0.018978 0.920000
0.027640 0.017382 0.936000
-0.021836 -0.024017 0.943000
0.029274 0.016278 0.939000
0.029274 0.017438 0.939000
0.028919 -0.024327 0.940000
0.027225 0.017748 0.935000
-0.019220 -0.025315 0.948000
-0.016923 0.024135 0.929000
-0.023806 0.024899 0.929000
0.014774 -0.037920 0.951000
0.004456 0.019019 0.922000
0.012667 0.033828 0.912000
0.021861 -0.017675 0.936000
-0.029892 0.027928 0.928000
0.009665 -0.031982 0.949000
-0.018070 0.022223 0.929000
0.009624 -0.049349 0.945000
0.022486 -0.005696 0.930000
0.027225 0.025830 0.935000
-0.014518 0.030783 0.922000
0.005759 -0.047996 0.949000
0.011667 -0.044668 0.953000
-0.004778 -0.018272 0.947000
0.008537 0.033077 0.912000
0.021985 0.008802 0.925000
-0.025581 -0.029294 0.938000
0.022414 0.039344 0.927000
0.024400 0.029902 0.930000
-0.019494 0.030850 0.924000
0.019424 -0.004165 0.930000
-0.003612 -0.020633 0.948000
-0.002757 0.028537 0.923000
-0.019259 0.018056 0.931000
0.003681 0.026871 0.918000
-0.015277 0.031163 0.922000
-0.003639 -0.033756 0.955000
0.012680 0.031234 0.913000
-0.010224 -0.008908 0.946000
0.017015 -0.030291 0.945000
0.028796 -0.005732 0.936000
-0.029605 0.015373 0.931000
0.003289 0.033902 0.914000
-0.024214 0.023012 0.930000
0.003422 -0.024612 0.951000
0.016906 0.023093 0.918000
-0.022130 0.001592 0.939000
-0.021488 0.024490 0.928000
0.004006 0.043300 0.906000
-0.007857 0.037744 0.898000
-0.026100 0.026046 0.929000
0.010369 -0.019727 0.942000
0.006806 0.006567 0.932000
-0.021928 -0.017103 0.947000
-0.013817 0.036757 0.901000
-0.000472 0.037622 0.913000
0.022175 -0.011858 0.933000
0.025604 0.022678 0.932000
0.010013 -0.049349 0.945000
0.017777 0.008032 0.924000
-0.024370 0.002743 0.936000
-0.026981 0.016558 0.933000
-0.005996 0.037660 0.896000
0.003782 -0.010433 0.943000
0.016869 0.041516 0.916000
-0.019937 -0.029124 0.945000
-0.023802 -0.002673 0.944000
-0.014073 -0.003447 0.943000
-0.015415 -0.028616 0.954000
0.028441 0.006988 0.937000
0.025604 0.029583 0.932000
0.003404 -0.022147 0.946000
0.001078 -0.036507 0.955000
-0.001997 0.025498 0.923000
0.018374 -0.013423 0.935000
0.013579 0.011822 0.923000
-0.025791 0.034428 0.918000
-0.003154 0.014942 0.928000
0.032962 0.000825 0.945000
0.028857 0.017805 0.938000
-0.009445 -0.011634 0.946000
0.017532 -0.040311 0.952000
-0.002763 0.017558 0.925000
-0.011003 -0.010077 0.946000
-0.024465 0.032787 0.925000
-0.020111 0.011976 0.935000
0.011532 -0.021278 0.942000
0.010757 -0.050743 0.942000
-0.011187 0.016487 0.929000
0.021931 -0.022369 0.939000
-0.025499 0.005819 0.935000
-0.004258 0.031061 0.919000
-0.000101 -0.031332 0.953000
-0.003643 -0.045596 0.956000
-0.025499 0.005049 0.935000
0.010471 0.023445 0.917000
0.005516 0.040451 0.909000
0.016098 0.029796 0.915000
0.003314 0.021273 0.921000
0.001076 -0.033685 0.953000
-0.026022 -0.030905 0.940000
0.003440 -0.040087 0.956000
0.008144 0.036750 0.910000
-0.010398 0.034632 0.894000
0.031728 0.009750 0.943000
-0.007011 0.012718 0.933000
0.017454 0.000809 0.927000
0.001462 -0.048386 0.949000
0.012308 -0.050356 0.942000
0.027581 -0.001876 0.934000
-0.003239 -0.029763 0.953000
-0.005162 -0.013581 0.946000
0.021246 0.004619 0.926000
0.010446 -0.032763 0.949000
0.000677 -0.051240 0.944000
-0.014944 -0.016358 0.949000
-0.015759 0.022963 0.928000
0.012972 -0.006489 0.934000
-0.014676 0.014623 0.932000
0.020395 0.016363 0.922000
-0.032218 0.020311 0.929000
-0.026981 0.013486 0.933000
0.001459 -0.049844 0.947000
-0.013099 0.018017 0.929000
0.007812 0.028667 0.915000
-0.016149 -0.033223 0.951000
-0.002071 -0.037372 0.957000
-0.018794 0.028279 0.927000
0.006149 -0.024170 0.949000
-0.008254 0.038982 0.901000
0.020797 0.035755 0.923000
0.002897 0.041573 0.909000
0.008026 -0.008465 0.940000
-0.007904 -0.019072 0.948000
0.036733 -0.010140 0.952000
0.028501 -0.023142 0.939000
-0.015897 0.036911 0.914000
-0.006343 0.035328 0.893000
-0.019486 -0.004606 0.942000
0.023609 -0.000336 0.929000
0.012138 0.001958 0.929000
0.023736 -0.012640 0.934000
-0.023449 0.022247 0.930000
0.000684 -0.027410 0.953000
-0.006010 -0.036190 0.957000
0.022680 -0.020801 0.938000
0.010402 -0.022901 0.945000
0.017033 -0.031880 0.946000
0.020016 0.039891 0.922000
-0.025581 -0.028908 0.938000
-0.006791 -0.040874 0.956000
-0.015791 -0.028978 0.953000
0.003778 -0.014686 0.942000
0.004064 0.023875 0.919000
0.005221 0.016001 0.923000
0.006974 -0.043189 0.955000
0.002553 0.024279 0.920000
-0.021488 0.025254 0.928000
-0.019279 0.016157 0.932000
-0.009662 0.034264 0.894000
-0.007109 -0.012413 0.946000
0.028410 -0.013052 0.936000
-0.002047 -0.019032 0.946000
-0.026981 0.012334 0.933000
0.020146 -0.000336 0.928000
-0.009255 0.018741 0.927000
-0.018128 0.015006 0.932000
0.012847 0.008041 0.925000
0.026812 0.016960 0.934000
0.018020 0.030616 0.917000
0.004846 0.014497 0.924000
-0.005575 -0.023804 0.950000
0.008781 -0.004972 0.938000
0.008051 -0.050797 0.943000
-0.022204 0.029011 0.926000
0.036265 -0.019503 0.950000
0.003025 -0.023779 0.949000
-0.002670 0.037943 0.894000
0.023992 0.031782 0.929000
0.028410 -0.014208 0.936000
0.004427 0.029075 0.916000
-0.004591 0.035626 0.910000
0.013476 0.024174 0.916000
0.023992 0.021840 0.929000
-0.010714 -0.035328 0.955000
-0.017593 0.030089 0.924000
-0.019058 0.003142 0.940000
-0.014995 0.019907 0.928000
-0.013834 0.022175 0.927000
0.030499 -0.025128 0.941000
0.026427 0.025802 0.934000
-0.030306 0.025282 0.929000
-0.009525 -0.028616 0.954000
0.019764 -0.001482 0.928000
-0.022130 0.000819 0.939000
-0.019958 -0.016306 0.946000
0.020775 0.022435 0.922000
-0.026425 0.030569 0.927000
-0.013685 -0.001506 0.943000
-0.022252 0.025254 0.928000
0.022008 0.042732 0.926000
-0.003212 -0.016289 0.945000
0.020424 -0.035082 0.959000
-0.019321 0.013885 0.934000
-0.010770 0.027868 0.926000
0.015596 -0.002251 0.930000
0.011606 -0.025315 0.948000
0.021430 -0.012640 0.934000
-0.018070 0.024135 0.929000
-0.006563 0.024385 0.924000
-0.015022 -0.029402 0.954000
-0.017342 -0.034434 0.952000
-0.013226 0.007768 0.938000
0.025987 0.015390 0.932000
0.005698 -0.053674 0.939000
0.007647 -0.010023 0.941000
0.001853 -0.023389 0.949000
0.001397 0.044468 0.907000
0.005198 0.023118 0.919000
0.018879 -0.023966 0.941000
0.015524 -0.035497 0.949000
0.015491 -0.048674 0.947000
0.011156 -0.050021 0.943000
-0.025114 0.010437 0.935000
-0.027247 0.026429 0.929000
0.009960 -0.051796 0.940000
-0.010979 -0.004227 0.944000
0.020418 0.036895 0.923000
-0.008286 -0.015544 0.947000
0.023202 0.027928 0.928000
0.024400 0.027988 0.930000
0.030079 0.015135 0.940000
0.016869 0.040385 0.916000
0.024302 -0.026290 0.941000
-0.031596 0.030783 0.922000
0.009196 -0.018157 0.941000
0.028205 -0.029807 0.942000
0.003340 0.013032 0.928000
-0.024782 0.001589 0.937000
0.004064 0.023496 0.919000
-0.024888 0.000434 0.941000
0.021581 0.016779 0.924000
0.003437 -0.045155 0.955000
-0.023025 -0.022100 0.944000
0.027581 -0.001492 0.934000
-0.024756 0.002743 0.936000
0.008502 -0.046873 0.950000
0.029212 -0.014994 0.937000
-0.011515 0.035407 0.895000
-0.003212 -0.010455 0.945000
0.022008 0.041207 0.926000
0.010116 0.020849 0.919000
0.016274 0.006137 0.925000
-0.005042 0.026286 0.924000
0.022008 0.035871 0.926000
0.037988 -0.014481 0.954000
0.001868 -0.044068 0.957000
-0.009435 -0.006176 0.945000
0.026371 -0.002256 0.932000
0.009339 0.023823 0.917000
-0.023625 0.006217 0.937000
0.004930 -0.007304 0.940000
0.021248 -0.028674 0.943000
-0.008694 -0.019483 0.949000
-0.007883 0.038982 0.901000
0.017017 0.008412 0.924000
0.020084 -0.028286 0.943000
0.026812 0.011963 0.934000
-0.005091 0.011950 0.933000
-0.013073 -0.027467 0.955000
0.026812 0.021189 0.934000
0.007067 0.027190 0.916000
-0.030837 0.031542 0.922000
0.002260 -0.038907 0.956000
0.037125 -0.025030 0.952000
-0.011545 0.024464 0.927000
0.028949 -0.026677 0.941000
0.000284 0.013060 0.930000
-0.012158 -0.005787 0.945000
-0.014518 0.031163 0.922000
