0.025764 0.006511 0.924000
0.003726 -0.018307 0.929000
-0.016595 -0.018328 0.911000
0.025946 0.040807 0.917000
-0.012789 -0.005181 0.907000
0.007182 -0.015281 0.931000
0.032575 -0.012111 0.923000
-0.025819 -0.036644 0.919000
0.009522 -0.021119 0.935000
-0.013395 -0.039083 0.923000
-0.015046 -0.008551 0.908000
-0.002385 -0.023584 0.926000
-0.011785 -0.020690 0.916000
0.020041 -0.035972 0.941000
0.025576 -0.019113 0.931000
-0.008568 0.036512 0.895000
0.000276 0.024229 0.904000
-0.000480 -0.032038 0.928000
0.026783 -0.032594 0.933000
0.016538 -0.023554 0.940000
-0.019136 -0.004435 0.907000
0.032539 -0.009062 0.922000
0.018354 -0.006105 0.934000
-0.018055 -0.015294 0.909000
0.029377 -0.032107 0.930000
0.002201 -0.031758 0.931000
-0.024174 -0.029674 0.914000
0.010013 -0.041959 0.945000
-0.020322 -0.016435 0.910000
-0.006929 -0.023482 0.922000
0.021814 -0.013793 0.934000
-0.012859 -0.014969 0.912000
-0.005996 0.043560 0.896000
0.032328 0.010978 0.916000
-0.017040 0.025461 0.895000
-0.018115 -0.024354 0.912000
0.020749 -0.024276 0.938000
0.001047 -0.026662 0.927000
0.024400 -0.008758 0.930000
0.017109 0.007693 0.929000
-0.010398 0.037943 0.894000
0.032257 0.018854 0.914000
0.028519 -0.015597 0.927000
-0.006450 0.000419 0.908000
-0.007831 0.038354 0.895000
-0.026514 0.025717 0.904000
0.016906 0.032539 0.918000
0.005498 0.049267 0.906000
0.002210 -0.034973 0.935000
0.009604 -0.039542 0.943000
-0.013740 0.039872 0.896000
-0.008437 -0.033312 0.921000
0.011003 -0.006461 0.930000
-0.011896 0.025490 0.896000
-0.019051 0.008221 0.903000
0.012291 0.037957 0.912000
0.018899 -0.032521 0.942000
0.005668 -0.026479 0.934000
0.017681 0.032196 0.919000
0.011038 -0.012242 0.933000
-0.007831 0.039459 0.895000
-0.001241 -0.021297 0.926000
0.028198 -0.019837 0.929000
-0.000846 0.007169 0.911000
-0.011159 0.025859 0.896000
0.024868 0.030305 0.919000
-0.013307 0.051752 0.917000
0.018374 -0.009190 0.935000
0.032490 0.034503 0.910000
-0.010537 0.049267 0.906000
0.027606 0.006117 0.922000
0.036530 0.029568 0.908000
0.012321 -0.034496 0.943000
0.030542 0.006097 0.919000
0.006437 -0.024557 0.934000
-0.020278 -0.005935 0.908000
-0.019970 -0.020202 0.911000
0.035980 0.019585 0.913000
0.026266 0.039211 0.915000
0.028365 0.005738 0.922000
-0.017996 -0.000328 0.906000
-0.021187 0.021135 0.899000
0.024558 -0.031929 0.936000
0.014639 0.029894 0.918000
-0.010886 0.007114 0.904000
0.031469 -0.015547 0.924000
0.004736 0.044644 0.903000
-0.003106 0.053463 0.914000
-0.009512 -0.017655 0.915000
0.032776 0.002690 0.918000
0.017293 -0.021210 0.939000
-0.019724 -0.037697 0.917000
0.026201 -0.002241 0.926000
-0.007496 0.025575 0.899000
-0.014062 -0.026374 0.917000
0.007354 0.047722 0.905000
0.016116 -0.018099 0.938000
-0.011746 -0.016113 0.913000
0.019871 -0.003410 0.933000
0.010665 -0.016484 0.934000
0.015697 -0.011896 0.936000
0.032469 -0.006013 0.920000
-0.000095 0.044816 0.899000
0.022869 -0.003016 0.930000
-0.015589 -0.033204 0.918000
-0.021821 -0.007071 0.910000
0.000653 0.008285 0.910000
0.002137 0.025345 0.904000
-0.015689 0.007841 0.902000
0.025466 -0.003388 0.927000
-0.012988 0.029513 0.895000
0.011202 0.029796 0.915000
-0.001999 -0.019350 0.924000
0.001814 -0.021749 0.929000
0.006464 -0.034313 0.938000
-0.014830 0.033565 0.895000
-0.023396 -0.026635 0.913000
0.006719 -0.001091 0.920000
-0.016691 0.033234 0.896000
-0.022692 0.019306 0.900000
0.005583 -0.001469 0.920000
-0.005872 -0.042670 0.935000
0.002878 0.047245 0.903000
0.027756 -0.011782 0.927000
0.009206 -0.036398 0.942000
0.002964 -0.023686 0.930000
-0.007927 0.001163 0.906000
0.028840 0.037622 0.913000
-0.004927 0.021601 0.903000
-0.016238 -0.020975 0.912000
0.009237 0.048201 0.907000
0.032186 0.028573 0.912000
0.013485 -0.032944 0.943000
0.020594 0.000429 0.931000
0.002509 0.036135 0.904000
0.026818 0.015966 0.921000
-0.016672 0.030987 0.895000
-0.013293 -0.022198 0.916000
0.027696 -0.006046 0.925000
0.025549 -0.013734 0.930000
-0.005411 -0.027656 0.922000
-0.002382 -0.030411 0.925000
0.004539 -0.040534 0.939000
0.024172 -0.033084 0.936000
-0.000839 0.032379 0.903000
0.005619 -0.013675 0.926000
0.014719 0.017521 0.923000
-0.021072 -0.017184 0.910000
0.028168 -0.018288 0.928000
-0.000861 -0.022465 0.927000
0.013471 -0.030195 0.942000
-0.018166 0.024384 0.896000
-0.008956 0.029579 0.897000
-0.020424 0.020742 0.898000
-0.010537 0.048894 0.906000
0.006990 0.048521 0.906000
0.002512 0.030588 0.905000
0.019679 0.021343 0.924000
0.016202 -0.031779 0.943000
0.030459 -0.027454 0.928000
0.012750 0.024982 0.918000
-0.014125 0.019242 0.897000
-0.005690 0.006384 0.906000
0.028273 0.016310 0.919000
-0.003452 0.009367 0.906000
0.008846 -0.042737 0.945000
0.009875 -0.013763 0.932000
-0.009716 0.023355 0.899000
0.011361 -0.001100 0.928000
-0.019788 -0.040471 0.920000
0.014261 0.027627 0.918000
-0.009921 -0.020735 0.918000
0.031987 -0.022871 0.928000
0.001763 0.037582 0.903000
0.013929 0.020136 0.921000
0.015730 -0.016168 0.938000
0.012242 -0.019622 0.937000
0.031436 0.031575 0.912000
0.005480 0.045015 0.903000
-0.008577 0.032865 0.896000
0.027636 0.005364 0.923000
-0.016398 -0.040136 0.921000
-0.015504 -0.021750 0.913000
0.022294 -0.032769 0.938000
-0.011146 0.029513 0.895000
0.026554 0.000426 0.925000
0.005272 -0.022970 0.932000
-0.013786 0.015215 0.899000
-0.009346 0.024465 0.899000
0.016816 -0.004567 0.934000
0.000286 -0.041945 0.936000
-0.002318 0.035605 0.900000
-0.014156 0.013365 0.899000
0.023427 -0.032348 0.937000
-0.009921 -0.021113 0.918000
-0.004535 0.025575 0.899000
-0.008483 -0.036161 0.926000
-0.020401 0.027733 0.897000
0.003329 -0.015564 0.925000
0.005890 0.024737 0.909000
-0.005627 0.038766 0.896000
0.022390 0.014528 0.926000
-0.003544 -0.035552 0.930000
0.021884 -0.026178 0.937000
-0.009564 -0.023810 0.920000
0.020775 0.029265 0.922000
0.008404 -0.032418 0.939000
0.033951 0.031846 0.909000
0.028713 0.005731 0.921000
0.021767 -0.007242 0.932000
0.014125 -0.008027 0.934000
0.032669 0.013603 0.915000
0.018315 -0.001105 0.932000
-0.018535 0.021433 0.896000
-0.011296 -0.005928 0.907000
0.029883 0.000046 0.922000
-0.003137 -0.018949 0.923000
-0.003490 -0.013527 0.916000
0.017912 0.002345 0.931000
-0.010922 -0.005555 0.907000
0.009227 0.047029 0.906000
0.001048 -0.020961 0.928000
-0.013640 -0.019140 0.914000
0.014216 -0.023167 0.940000
-0.019530 -0.008177 0.908000
0.030642 -0.003370 0.922000
0.030013 -0.018629 0.926000
0.025301 -0.033434 0.935000
-0.001978 0.053463 0.914000
0.012682 -0.027839 0.941000
0.002878 0.038325 0.903000
-0.007056 -0.044012 0.939000
-0.002793 -0.043439 0.935000
-0.014814 0.026905 0.894000
0.028457 -0.006046 0.925000
0.030708 -0.014406 0.924000
-0.014518 -0.039800 0.922000
-0.010514 0.010091 0.904000
-0.024136 -0.015216 0.927000
-0.005364 -0.013121 0.914000
0.030820 0.017011 0.916000
-0.009793 -0.042989 0.942000
0.003257 0.029843 0.905000
-0.017934 -0.041697 0.922000
0.006078 -0.034699 0.938000
-0.009543 -0.021113 0.918000
0.005595 0.006117 0.922000
-0.014591 0.005619 0.903000
-0.013148 0.000791 0.906000
0.003617 0.042738 0.902000
0.002512 0.024628 0.905000
-0.016291 -0.027446 0.915000
0.011459 -0.018445 0.936000
0.001393 0.034647 0.904000
-0.011271 0.003770 0.905000
0.023227 -0.001866 0.929000
0.009748 0.014056 0.920000
-0.001631 -0.034057 0.931000
-0.024981 -0.033509 0.916000
-0.021257 -0.038871 0.918000
-0.007462 0.041301 0.895000
0.021937 0.025498 0.923000
0.009225 -0.040749 0.944000
-0.019294 0.018135 0.897000
-0.021557 0.016325 0.899000
-0.001623 -0.025108 0.926000
0.010127 0.015949 0.920000
-0.011445 -0.029458 0.919000
-0.014246 -0.042014 0.929000
0.005278 -0.023762 0.933000
-0.013715 -0.030971 0.919000
0.028903 0.028667 0.915000
-0.011592 0.015249 0.901000
-0.028406 0.029098 0.905000
-0.029962 0.025803 0.907000
0.023914 0.006144 0.926000
0.027196 -0.036089 0.934000
0.010711 -0.025434 0.938000
0.012709 -0.031779 0.943000
-0.004525 0.043978 0.897000
0.009939 -0.027364 0.938000
0.003257 0.025746 0.905000
-0.005276 0.029275 0.899000
0.021200 0.020962 0.924000
0.012819 0.014481 0.923000
0.021440 0.038962 0.918000
-0.015128 -0.019119 0.913000
0.033262 -0.005641 0.921000
0.016151 0.031028 0.918000
0.029375 0.015159 0.918000
-0.025342 0.024918 0.902000
0.022056 0.005393 0.928000
-0.028033 0.024256 0.905000
-0.002385 -0.024727 0.926000
-0.002320 0.024149 0.901000
0.005871 0.039199 0.906000
-0.019431 -0.041273 0.921000
0.012695 -0.029419 0.942000
0.011263 0.016706 0.920000
0.014751 0.013751 0.925000
0.021292 0.008067 0.928000
-0.012986 -0.034829 0.921000
-0.013264 -0.018012 0.914000
0.027894 0.016310 0.919000
0.028931 -0.022489 0.928000
0.031539 0.021888 0.915000
0.022390 0.012242 0.926000
0.032705 0.010978 0.916000
-0.015606 -0.034753 0.919000
-0.012056 0.049375 0.908000
-0.024954 -0.026317 0.915000
0.028776 -0.001854 0.923000
0.011629 0.020092 0.919000
-0.009026 0.049158 0.904000
0.026992 -0.007966 0.927000
0.004883 -0.020646 0.931000
0.026353 0.029894 0.918000
-0.021540 -0.030050 0.914000
0.011857 -0.021165 0.937000
-0.013357 0.032829 0.895000
-0.023824 -0.033849 0.915000
-0.024228 0.016379 0.902000
-0.020322 -0.018307 0.910000
0.012628 -0.018079 0.937000
0.005877 0.029536 0.907000
-0.015487 -0.018348 0.912000
0.006974 0.044693 0.904000
0.004413 0.011318 0.913000
-0.005996 0.042822 0.896000
0.021697 0.003105 0.929000
0.014655 0.026901 0.919000
0.027042 -0.023216 0.942000
0.026812 -0.022634 0.934000
0.011869 -0.022731 0.938000
-0.020401 0.029579 0.897000
0.000283 -0.027806 0.927000
-0.023772 -0.021750 0.913000
0.001393 0.034275 0.904000
0.017681 0.032574 0.919000
-0.016577 -0.016809 0.910000
0.005961 -0.002226 0.920000
-0.013940 -0.011553 0.909000
0.001833 -0.043625 0.939000
0.004037 0.008312 0.913000
-0.022619 -0.019098 0.912000
-0.021493 -0.024354 0.912000
-0.017448 0.015919 0.897000
-0.012553 -0.024487 0.917000
0.022648 0.029992 0.921000
-0.000867 -0.036434 0.933000
-0.003418 0.044347 0.897000
-0.019389 -0.040048 0.919000
-0.014093 0.033565 0.895000
-0.018369 0.000045 0.906000
-0.006921 -0.021182 0.921000
-0.022719 -0.036525 0.916000
0.024895 0.025037 0.920000
-0.025342 0.028259 0.902000
0.012847 0.009564 0.925000
0.009278 0.032666 0.911000
0.022390 0.011479 0.926000
-0.006116 -0.014626 0.914000
-0.013119 0.005254 0.904000
0.002509 0.026090 0.904000
0.006609 0.041763 0.905000
-0.003069 0.022344 0.903000
-0.001223 0.052596 0.912000
-0.011515 0.033565 0.895000
-0.008702 -0.007438 0.909000
0.033989 0.028884 0.910000
0.024650 0.008802 0.925000
0.019828 0.001579 0.931000
0.018898 0.025498 0.923000
-0.019552 -0.011179 0.909000
-0.012988 0.031355 0.895000
-0.010778 0.033565 0.895000
-0.017409 0.030987 0.895000
-0.018907 -0.029297 0.914000
-0.014510 0.014828 0.898000
-0.012874 -0.016865 0.913000
-0.003059 0.027826 0.900000
-0.012416 -0.004808 0.907000
-0.018571 -0.033509 0.916000
0.007631 -0.033577 0.939000
0.024810 -0.017580 0.931000
0.011165 0.035704 0.912000
-0.002395 -0.034021 0.930000
0.018759 -0.008035 0.935000
-0.008611 -0.043285 0.940000
0.007880 -0.006413 0.923000
0.025681 0.020136 0.921000
0.019508 -0.006105 0.934000
-0.014963 0.006734 0.903000
-0.019638 -0.026259 0.913000
-0.002362 -0.012410 0.917000
-0.015584 0.033234 0.896000
-0.027258 0.024229 0.904000
-0.002763 -0.023178 0.925000
-0.012188 -0.026025 0.918000
-0.008568 0.042775 0.895000
-0.008946 0.032497 0.896000
-0.011910 0.042870 0.897000
0.024597 0.016381 0.923000
0.001759 0.044916 0.901000
0.028289 -0.032176 0.932000
0.017604 -0.007650 0.935000
0.012480 0.007287 0.926000
0.027396 0.033562 0.915000
-0.011630 0.005626 0.904000
-0.022692 0.024492 0.900000
-0.011146 0.031724 0.895000
-0.005708 -0.001077 0.909000
0.023330 0.036695 0.918000
0.019487 -0.003794 0.933000
0.008809 -0.035585 0.941000
-0.014267 -0.002566 0.906000
0.026201 -0.001860 0.926000
-0.010689 -0.031349 0.919000
-0.029589 0.024310 0.907000
0.033762 0.012083 0.914000
0.028682 0.009512 0.920000
0.005546 0.020359 0.914000
0.002986 -0.038133 0.937000
0.005668 -0.024941 0.934000
0.004904 -0.029970 0.935000
0.013014 -0.017694 0.937000
0.001056 -0.038437 0.935000
0.028303 0.013677 0.920000
0.010369 -0.035623 0.942000
-0.023798 -0.026664 0.914000
0.025659 -0.030707 0.934000
-0.016504 -0.001447 0.906000
-0.002736 -0.012019 0.916000
0.027803 0.030206 0.916000
-0.006163 -0.020045 0.921000
-0.017701 -0.017558 0.910000
-0.013832 0.009326 0.902000
0.009118 -0.017618 0.933000
0.001390 0.038654 0.902000
0.002983 -0.035396 0.936000
-0.020523 -0.040048 0.919000
0.013142 0.023118 0.919000
-0.010064 0.027364 0.897000
-0.012361 0.007478 0.903000
-0.017402 -0.026664 0.914000
-0.005411 -0.030313 0.922000
-0.019882 0.001911 0.907000
0.006361 -0.009452 0.923000
-0.000838 0.034570 0.902000
-0.008437 -0.026489 0.921000
-0.021048 -0.006315 0.909000
-0.024998 0.016769 0.903000
0.001419 -0.014359 0.921000
0.007957 -0.016065 0.932000
0.017182 -0.003794 0.933000
0.031435 -0.010211 0.923000
0.010347 -0.029357 0.940000
0.008439 -0.040318 0.943000
0.006237 0.042508 0.905000
-0.016078 0.006734 0.903000
0.021180 -0.034773 0.940000
-0.023447 -0.034602 0.915000
0.001402 0.013528 0.910000
-0.011346 -0.014203 0.911000
0.023966 -0.002246 0.928000
-0.000098 -0.018229 0.925000
0.016115 0.035484 0.916000
0.007379 0.028447 0.908000
0.000660 -0.012829 0.920000
-0.017345 -0.019077 0.911000
-0.016970 -0.019077 0.911000
-0.014672 -0.009298 0.908000
-0.012375 0.007114 0.904000
-0.007142 0.022665 0.901000
-0.009770 0.005254 0.904000
0.009727 0.019693 0.918000
-0.005989 0.041670 0.895000
0.026116 0.011442 0.923000
-0.014093 -0.032484 0.919000
-0.011445 -0.026810 0.919000
-0.005258 0.042085 0.896000
-0.007654 -0.018846 0.918000
0.007028 0.024417 0.911000
-0.006421 0.017160 0.904000
-0.023421 -0.028921 0.914000
0.019340 0.017959 0.926000
0.030808 -0.023228 0.927000
0.004068 0.007997 0.920000
0.004742 0.041344 0.904000
-0.018741 0.001536 0.906000
0.009098 -0.012599 0.931000
-0.023459 0.025261 0.901000
-0.016933 -0.013424 0.909000
0.006478 -0.038642 0.940000
0.022574 0.037451 0.918000
0.033605 -0.002605 0.920000
-0.000478 -0.017049 0.923000
0.000669 -0.034514 0.933000
0.022245 0.033746 0.920000
0.009278 0.033416 0.911000
0.002881 0.037252 0.904000
0.010586 -0.001480 0.927000
-0.004616 -0.012759 0.915000
-0.007300 -0.021940 0.921000
-0.021210 0.012639 0.900000
-0.008291 0.004887 0.905000
0.009128 -0.018021 0.934000
-0.010526 0.003025 0.905000
-0.017409 0.026935 0.895000
-0.012251 0.028040 0.895000
-0.001209 0.032343 0.902000
-0.014830 0.026198 0.895000
0.012722 0.029452 0.916000
0.019998 -0.028553 0.939000
-0.010322 -0.026082 0.920000
0.016925 -0.022393 0.940000
0.016202 -0.032556 0.943000
0.023940 0.004243 0.927000
0.022820 0.004247 0.928000
0.015773 0.030650 0.918000
-0.008568 0.040564 0.895000
0.025681 0.018241 0.921000
-0.005317 0.016079 0.906000
0.030920 0.006476 0.919000
0.014572 -0.018871 0.938000
0.023427 -0.020779 0.937000
0.000276 0.033494 0.903000
-0.020817 0.017065 0.899000
0.001825 -0.035358 0.935000
-0.004165 0.033715 0.899000
0.006828 -0.024968 0.935000
0.006244 0.038826 0.906000
-0.011146 0.040933 0.895000
0.004920 -0.036630 0.938000
0.006299 0.012835 0.914000
0.007128 -0.009462 0.924000
-0.007471 0.044298 0.896000
-0.015776 -0.005928 0.907000
-0.013740 0.038766 0.896000
-0.001621 -0.026985 0.925000
-0.018194 -0.032755 0.916000
-0.002336 0.011991 0.907000
-0.014814 0.027273 0.894000
0.027985 0.007635 0.922000
-0.016632 -0.023629 0.913000
-0.001575 0.045926 0.899000
0.021818 0.041229 0.918000
0.007821 0.011356 0.916000
0.026314 -0.019858 0.930000
0.004028 0.051788 0.911000
0.003282 0.015060 0.912000
0.027080 -0.021772 0.930000
-0.005328 0.050870 0.908000
-0.000847 0.052596 0.912000
0.010270 -0.014546 0.933000
0.009268 0.029259 0.910000
-0.016691 0.022171 0.896000
-0.008263 0.018236 0.902000
0.010837 0.024928 0.916000
0.018857 0.029992 0.921000
-0.004652 -0.019308 0.922000
0.015814 -0.031391 0.943000
-0.013725 0.033934 0.895000
-0.004165 0.026685 0.899000
-0.004165 0.034085 0.899000
0.019907 0.040052 0.917000
-0.002760 -0.028857 0.924000
-0.005683 0.008612 0.905000
-0.020278 -0.008551 0.908000
0.022080 0.004634 0.929000
-0.025770 0.017532 0.904000
-0.016304 0.023251 0.895000
-0.001219 0.050926 0.909000
-0.005258 0.042454 0.896000
-0.007546 0.013827 0.905000
0.017698 -0.024714 0.940000
0.021890 0.031129 0.921000
0.020705 -0.017290 0.936000
0.002578 -0.021366 0.929000
0.000648 0.029777 0.903000
0.022559 -0.012242 0.933000
0.028495 0.034654 0.914000
-0.007126 0.026315 0.899000
0.011385 -0.004930 0.930000
0.030164 0.008745 0.919000
-0.015351 0.003393 0.904000
-0.010444 0.024438 0.898000
0.024730 -0.003774 0.928000
0.006668 0.023343 0.913000
0.005249 -0.014850 0.928000
-0.007094 0.037617 0.895000
-0.022683 -0.006078 0.930000
0.023813 -0.034277 0.937000
0.020685 0.040096 0.918000
-0.010642 -0.017655 0.915000
-0.020345 -0.021702 0.911000
0.002506 0.047617 0.903000
0.008743 -0.019559 0.934000
0.004139 -0.034240 0.936000
-0.010433 0.026995 0.897000
0.019929 0.039340 0.918000
0.002531 0.015435 0.912000
-0.003829 0.006391 0.907000
0.004408 0.021065 0.912000
0.034997 0.033269 0.907000
-0.030912 0.018834 0.913000
-0.008291 0.004142 0.905000
-0.017155 0.008945 0.901000
0.020771 -0.030099 0.939000
-0.027630 0.027950 0.904000
0.016115 0.037369 0.916000
0.012847 0.010325 0.925000
-0.006062 0.013469 0.906000
-0.013740 0.038028 0.896000
-0.009997 -0.036883 0.925000
-0.017778 -0.027416 0.914000
0.000276 0.028259 0.902000
0.008198 0.009847 0.916000
0.021135 -0.027364 0.938000
0.023066 -0.034313 0.938000
0.023482 0.015258 0.924000
-0.014769 -0.021397 0.914000
0.017700 0.029581 0.920000
0.003617 0.045708 0.902000
0.014156 -0.013437 0.936000
-0.002763 -0.031934 0.925000
0.027049 0.031714 0.916000
0.003347 -0.022538 0.930000
-0.008346 0.052163 0.911000
-0.005416 -0.026547 0.923000
0.013491 0.028352 0.917000
-0.015915 -0.026317 0.915000
-0.008401 -0.018448 0.917000
0.021795 0.040429 0.917000
0.009738 0.007232 0.919000
0.002515 0.024283 0.906000
0.018918 0.022864 0.924000
0.000283 -0.029714 0.927000
-0.011246 0.011938 0.903000
0.017755 -0.034108 0.943000
-0.007857 0.045875 0.898000
-0.000835 0.040006 0.899000
0.029061 0.007997 0.920000
0.011238 0.021582 0.918000
0.002130 0.042691 0.901000
0.027079 0.027974 0.917000
0.029624 0.032021 0.914000
-0.015984 -0.035131 0.919000
0.008790 -0.031645 0.939000
0.004883 -0.019496 0.931000
-0.006009 0.032569 0.898000
0.019424 0.005405 0.930000
0.031026 0.035665 0.911000
-0.003829 0.016097 0.907000
0.030609 -0.001471 0.921000
-0.005276 0.027425 0.899000
-0.011883 0.038723 0.895000
0.029215 0.034241 0.913000
-0.024201 0.027115 0.901000
0.001765 0.030554 0.904000
-0.021118 -0.022477 0.912000
-0.000470 0.011256 0.908000
0.008207 0.013632 0.917000
0.012655 -0.022369 0.939000
-0.007738 -0.039677 0.928000
-0.003566 -0.044256 0.936000
0.007566 -0.015281 0.931000
-0.007221 -0.010079 0.911000
-0.026576 -0.032105 0.919000
0.029721 0.017784 0.917000
0.009390 0.000425 0.922000
-0.022995 -0.022852 0.912000
-0.009673 0.032460 0.895000
-0.005690 0.014588 0.906000
-0.007936 -0.002195 0.907000
0.029631 -0.017105 0.926000
0.017367 -0.031391 0.943000
0.017642 -0.014994 0.937000
-0.012511 -0.017259 0.914000
0.022172 0.040429 0.917000
-0.005080 -0.039422 0.931000
-0.002310 0.042501 0.897000
0.006104 -0.042602 0.942000
-0.007562 -0.001075 0.907000
0.008421 -0.036747 0.941000
-0.018450 -0.016435 0.910000
0.011895 -0.026649 0.940000
0.017755 -0.034884 0.943000
0.013128 0.025360 0.918000
-0.003452 0.010113 0.906000
0.013883 0.026494 0.918000
0.003734 -0.024861 0.931000
-0.019114 0.001909 0.906000
-0.003140 -0.028477 0.924000
0.030492 -0.029396 0.929000
0.006828 -0.026892 0.935000
0.001394 0.031706 0.905000
0.021177 0.025878 0.923000
-0.004258 -0.017354 0.919000
0.002194 -0.019052 0.928000
-0.021927 0.026685 0.899000
-0.002742 -0.015824 0.918000
-0.020794 0.022960 0.898000
-0.008644 0.015283 0.903000
-0.008208 0.033234 0.896000
-0.014814 0.028009 0.894000
0.024490 0.032196 0.919000
0.005546 0.013588 0.914000
-0.004295 -0.033529 0.927000
-0.024998 0.017884 0.903000
-0.020032 0.025518 0.897000
-0.008836 -0.034524 0.923000
0.018059 0.034466 0.919000
0.013756 -0.012653 0.935000
0.004042 0.016973 0.914000
-0.005646 0.029275 0.899000
0.009359 0.015553 0.919000
0.008593 0.014025 0.918000
-0.018511 -0.026259 0.913000
0.028137 -0.013690 0.927000
-0.003418 0.040655 0.897000
0.032020 0.004201 0.918000
-0.011772 -0.018785 0.915000
0.026399 -0.029522 0.933000
0.022032 0.012255 0.927000
0.025328 -0.037707 0.936000
0.033082 0.009093 0.916000
-0.003931 -0.037889 0.931000
-0.018095 -0.020577 0.911000
-0.020674 -0.011553 0.909000
0.027905 -0.033710 0.932000
0.018378 0.040008 0.916000
0.028198 -0.020984 0.929000
-0.001219 0.018377 0.909000
-0.005702 0.000045 0.908000
-0.018824 -0.016060 0.910000
0.017585 -0.004567 0.934000
0.026697 -0.017562 0.930000
0.007190 -0.019134 0.932000
0.002881 0.028694 0.904000
0.034101 0.014325 0.913000
0.013414 -0.018871 0.938000
0.031677 0.002315 0.919000
-0.004152 0.040241 0.896000
0.022317 -0.037442 0.939000
0.015859 0.020180 0.923000
0.004736 0.045387 0.903000
0.003997 0.038740 0.904000
0.001444 -0.041604 0.937000
0.008135 0.028104 0.909000
-0.021164 -0.031931 0.914000
-0.007857 0.028873 0.898000
0.015054 -0.033756 0.944000
0.027020 0.038835 0.915000
0.000652 0.010520 0.909000
0.007484 -0.002229 0.921000
0.005680 -0.029617 0.936000
0.023584 -0.000336 0.928000
0.013242 0.007287 0.926000
0.005119 0.038410 0.905000
0.018452 -0.020437 0.939000
-0.017409 0.030250 0.895000
-0.009727 0.021529 0.900000
0.003633 0.025774 0.906000
-0.010766 0.036472 0.894000
0.021487 0.034503 0.920000
0.021767 -0.006091 0.932000
-0.009802 -0.002942 0.907000
0.028807 -0.005659 0.924000
-0.003800 0.047088 0.900000
0.008809 -0.034423 0.941000
0.016600 0.022814 0.922000
0.013712 -0.005708 0.932000
0.019871 -0.004562 0.933000
-0.023447 -0.033472 0.915000
0.031089 -0.015927 0.924000
-0.029556 0.027639 0.906000
0.010292 -0.019580 0.935000
-0.003164 -0.036740 0.931000
-0.000097 -0.013950 0.919000
0.020103 0.016815 0.926000
0.027522 -0.028724 0.932000
-0.021941 -0.035355 0.915000
-0.022644 -0.025508 0.913000
-0.012580 -0.029836 0.919000
0.016762 0.001579 0.931000
-0.002685 0.037046 0.899000
-0.017976 0.000790 0.905000
-0.026886 0.027950 0.904000
0.028259 -0.031375 0.931000
0.011781 -0.007234 0.931000
-0.005633 0.044716 0.897000
-0.018135 -0.026259 0.913000
0.024943 -0.033470 0.936000
0.011545 -0.034108 0.943000
0.007371 0.040362 0.907000
-0.011520 -0.039548 0.925000
0.008962 0.010613 0.917000
0.015395 0.030272 0.918000
0.015831 -0.033756 0.944000
-0.013802 0.013380 0.900000
-0.007688 -0.033349 0.922000
0.004841 -0.012871 0.923000
0.006733 -0.006785 0.922000
-0.018886 -0.027762 0.913000
0.035565 0.019939 0.912000
-0.023045 -0.031554 0.914000
0.013185 0.017502 0.922000
-0.009727 0.019677 0.900000
-0.019552 -0.011553 0.909000
-0.007696 -0.033765 0.923000
0.023811 0.024712 0.922000
0.019205 -0.021187 0.938000
0.008296 -0.009874 0.927000
-0.013740 0.022171 0.896000
-0.004998 -0.015412 0.916000
-0.008577 0.043929 0.896000
0.008854 0.045165 0.906000
0.008837 -0.041526 0.944000
0.004794 0.016221 0.914000
0.022365 0.018320 0.925000
0.007821 0.011733 0.916000
0.019403 0.009223 0.929000
0.011300 0.008783 0.923000
-0.013476 0.007106 0.903000
0.006375 -0.011756 0.925000
0.018511 -0.033684 0.942000
0.005510 0.034427 0.908000
-0.011515 0.033197 0.895000
-0.008625 0.047511 0.901000
-0.004198 0.050012 0.906000
0.010849 0.023068 0.917000
0.034477 0.015452 0.913000
0.006492 -0.041438 0.942000
0.002153 0.013918 0.911000
0.003271 0.050926 0.909000
0.015721 0.037328 0.915000
0.023813 -0.035434 0.937000
-0.029589 0.029909 0.907000
0.013461 0.034316 0.915000
0.002884 0.025001 0.905000
0.004505 -0.026038 0.932000
0.013271 0.002338 0.928000
-0.012292 0.019633 0.898000
0.001029 0.014293 0.911000
-0.027288 0.019414 0.905000
0.007236 -0.031225 0.938000
0.012073 0.010694 0.924000
0.034700 0.029975 0.909000
0.025541 0.038123 0.916000
-0.013003 0.024015 0.896000
0.035409 0.030316 0.908000
-0.007679 -0.032175 0.921000
-0.007462 0.036512 0.895000
0.022222 -0.020350 0.935000
0.017035 0.017939 0.925000
-0.012803 -0.005935 0.908000
0.035074 0.025486 0.909000
0.026934 -0.001477 0.925000
-0.013710 0.028377 0.894000
-0.011420 -0.020713 0.917000
-0.012188 -0.025647 0.918000
0.017893 0.006553 0.930000
-0.003059 0.026715 0.900000
0.017164 -0.001105 0.932000
0.026088 0.013327 0.922000
-0.015935 0.028408 0.895000
-0.005996 0.037291 0.896000
0.014639 0.028761 0.918000
0.023431 0.026230 0.922000
-0.007205 -0.003696 0.909000
0.009268 0.029634 0.910000
-0.015549 0.026905 0.894000
0.015713 -0.013066 0.937000
-0.004525 0.044716 0.897000
-0.011643 0.004514 0.905000
0.001029 0.016168 0.911000
-0.017817 0.018504 0.897000
0.003742 -0.030674 0.933000
0.012334 -0.035698 0.944000
0.001759 0.043432 0.901000
0.000654 0.015793 0.911000
0.006631 0.030316 0.908000
-0.007813 -0.042375 0.937000
-0.012580 -0.030592 0.919000
-0.029962 0.019830 0.907000
0.031503 -0.018990 0.925000
-0.007165 0.049158 0.904000
0.023966 -0.000718 0.928000
0.010768 -0.037213 0.943000
-0.006801 0.014199 0.905000
0.016274 0.016797 0.925000
0.008386 -0.028106 0.937000
-0.025960 0.015638 0.924000
0.015996 0.001579 0.931000
-0.001610 -0.015841 0.919000
-0.020054 0.019633 0.898000
0.031677 0.022362 0.919000
-0.013924 -0.008924 0.908000
-0.015145 -0.021397 0.914000
0.017275 -0.016554 0.938000
0.006682 0.010967 0.915000
-0.013307 -0.025997 0.917000
-0.001986 -0.015068 0.918000
-0.008979 -0.042421 0.938000
-0.010052 0.042822 0.896000
-0.003140 -0.020491 0.924000
0.018578 0.016053 0.926000
0.000284 -0.024017 0.928000
0.020342 -0.021165 0.937000
0.001763 0.027547 0.903000
0.001780 0.015435 0.912000
-0.014880 0.015568 0.898000
0.008584 0.010236 0.917000
-0.024032 -0.015530 0.923000
-0.014896 0.013365 0.899000
-0.011989 0.010451 0.903000
0.035409 0.029942 0.908000
-0.008673 0.000045 0.906000
0.002528 0.011294 0.911000
0.003268 0.050497 0.908000
-0.018115 -0.023603 0.912000
-0.002336 0.050441 0.907000
0.015563 0.006921 0.928000
0.002153 0.052163 0.911000
0.015630 -0.001872 0.932000
-0.005322 0.050441 0.907000
0.024453 -0.016832 0.932000
-0.009770 0.006370 0.904000
0.028673 -0.036779 0.932000
0.024895 0.027687 0.920000
0.031469 -0.014786 0.924000
-0.023370 -0.019474 0.912000
-0.008874 -0.038871 0.927000
0.034026 0.022542 0.911000
-0.011067 -0.030592 0.919000
0.008743 -0.020328 0.934000
-0.019882 -0.002568 0.907000
0.004883 -0.020263 0.931000
0.000665 -0.028951 0.927000
0.031746 -0.006778 0.921000
0.023127 0.012609 0.925000
-0.020424 0.021112 0.898000
0.006306 0.018875 0.915000
-0.018551 -0.030836 0.915000
-0.018948 -0.033509 0.916000
0.021767 -0.008393 0.932000
-0.007173 0.006749 0.905000
0.006631 0.026579 0.908000
-0.019157 -0.009672 0.908000
0.009563 -0.028939 0.939000
0.030077 -0.024017 0.928000
-0.005652 0.023752 0.900000
-0.018988 0.011157 0.900000
-0.003062 0.047511 0.901000
0.012667 0.038332 0.912000
0.005486 0.047670 0.904000
0.022746 0.015274 0.925000
-0.019838 0.007122 0.905000
0.021180 -0.036321 0.940000
0.021023 -0.008402 0.933000
0.010336 -0.027780 0.939000
0.009780 0.000046 0.923000
0.022127 -0.004552 0.931000
-0.010209 -0.011566 0.910000
-0.000096 0.030149 0.903000
0.005955 -0.001089 0.919000
-0.024970 0.024547 0.902000
0.003250 0.041299 0.903000
-0.016036 -0.040938 0.922000
0.028838 -0.007569 0.925000
0.018001 0.039631 0.916000
0.009186 -0.032065 0.940000
-0.013610 -0.015720 0.912000
0.021674 0.006539 0.928000
-0.000465 0.042966 0.899000
-0.004253 -0.016957 0.918000
0.021180 -0.036708 0.940000
0.006368 -0.011363 0.924000
-0.026485 0.027919 0.903000
0.022795 0.008058 0.927000
0.029753 0.014403 0.918000
0.001431 -0.022131 0.929000
0.008725 -0.014531 0.932000
0.008962 0.019294 0.917000
-0.025735 -0.033509 0.916000
-0.001577 0.047088 0.900000
-0.019114 0.003401 0.906000
0.009634 -0.043172 0.946000
0.010849 0.024200 0.917000
-0.006056 0.008239 0.905000
0.030609 -0.001850 0.921000
-0.002338 0.008267 0.908000
-0.012916 -0.022198 0.916000
-0.018234 -0.038116 0.918000
-0.004616 -0.013889 0.915000
-0.003513 -0.018169 0.922000
-0.001954 0.048360 0.903000
0.003260 0.025029 0.906000
-0.003456 0.008631 0.907000
0.013859 -0.028256 0.942000
-0.017212 0.004509 0.904000
0.031776 0.033041 0.911000
0.013056 0.037622 0.913000
-0.017448 0.016289 0.897000
0.015529 0.011861 0.926000
-0.017045 -0.027446 0.915000
0.032292 0.013603 0.915000
0.009897 -0.018406 0.934000
0.017348 -0.028256 0.942000
0.013859 -0.029807 0.942000
-0.006442 0.000791 0.907000
-0.000483 -0.037242 0.934000
0.028994 -0.027896 0.930000
-0.013655 -0.021797 0.915000
0.002509 0.035391 0.904000
0.020307 0.038962 0.918000
-0.015277 -0.039800 0.922000
-0.002706 0.049640 0.906000
0.015962 0.006928 0.929000
-0.017269 -0.007421 0.907000
-0.013133 0.001907 0.905000
0.000660 -0.013586 0.920000
0.018879 -0.031325 0.941000
0.007566 -0.014132 0.931000
0.019062 0.001196 0.931000
0.008971 0.007224 0.918000
0.004379 0.026893 0.906000
0.020955 0.004639 0.930000
0.033082 0.008339 0.916000
-0.000863 -0.032837 0.929000
0.009010 -0.001093 0.922000
0.035783 0.029195 0.908000
-0.002688 0.025604 0.900000
-0.012109 -0.014969 0.912000
0.030651 0.035665 0.911000
-0.000871 -0.044351 0.938000
0.017303 0.032953 0.919000
-0.032460 0.026315 0.925000
-0.009943 -0.024946 0.920000
0.024543 0.023548 0.921000
0.026266 0.039588 0.915000
0.029721 0.020426 0.917000
0.029247 0.033149 0.914000
-0.011507 -0.037604 0.924000
-0.007579 -0.004445 0.909000
-0.007537 0.016416 0.904000
0.030459 -0.028600 0.928000
-0.018969 -0.035810 0.917000
-0.003505 -0.017373 0.920000
0.022771 0.011098 0.926000
-0.010526 0.000790 0.905000
0.013638 0.007295 0.927000
-0.002712 0.017610 0.908000
0.008225 0.003828 0.919000
-0.027746 -0.034606 0.946000
0.025659 -0.030323 0.934000
-0.016559 -0.013050 0.909000
0.013171 0.018620 0.921000
0.013085 0.032433 0.915000
-0.008864 -0.038067 0.926000
-0.019157 -0.007429 0.908000
0.008026 -0.034773 0.940000
-0.011643 0.002280 0.905000
0.018124 -0.031358 0.942000
-0.015845 -0.017203 0.911000
0.033046 0.011343 0.915000
-0.007671 -0.028354 0.920000
0.022511 -0.008001 0.931000
-0.012416 -0.002568 0.907000
-0.009781 0.004142 0.905000
0.028869 -0.014818 0.926000
-0.014487 -0.034791 0.920000
-0.004976 0.052596 0.912000
0.004152 -0.041306 0.939000
0.028150 0.030926 0.915000
-0.023459 0.017103 0.901000
-0.007487 0.029243 0.898000
-0.018274 -0.040092 0.920000
0.030077 -0.026691 0.928000
0.017700 0.031095 0.920000
-0.007300 -0.023078 0.921000
-0.015351 0.037252 0.904000
0.029313 -0.021343 0.928000
-0.018227 0.012255 0.899000
0.006850 -0.031997 0.938000
0.024295 0.004238 0.926000
-0.006898 -0.018091 0.918000
0.019215 0.031852 0.920000
-0.029589 0.019830 0.907000
-0.013307 -0.025619 0.917000
0.007606 -0.027306 0.936000
-0.021951 0.018195 0.900000
0.018398 0.038542 0.917000
-0.017720 -0.019452 0.911000
0.032055 0.002315 0.919000
0.021023 -0.007634 0.933000
0.019528 -0.009575 0.935000
-0.015198 0.029882 0.895000
0.006257 0.034053 0.908000
0.028119 0.035407 0.914000
-0.016149 -0.006675 0.907000
0.028242 0.020826 0.918000
-0.024228 0.021206 0.902000
0.032539 -0.010200 0.922000
0.015038 -0.030227 0.943000
0.011705 0.006518 0.925000
0.027456 0.028729 0.917000
0.011121 -0.028583 0.940000
-0.015261 -0.038619 0.921000
0.022462 0.000811 0.929000
0.028744 0.001563 0.922000
0.033082 0.009847 0.916000
0.028273 0.017445 0.919000
-0.004525 0.037332 0.897000
0.016098 0.039588 0.915000
0.017931 -0.001488 0.932000
0.009186 -0.032452 0.940000
0.008377 -0.024609 0.936000
-0.020720 -0.021327 0.911000
0.031537 -0.021678 0.926000
-0.019681 -0.031966 0.915000
0.029967 0.034241 0.913000
0.017246 0.040385 0.916000
-0.016327 -0.031658 0.917000
0.010449 0.027913 0.915000
-0.006492 0.053463 0.914000
0.022623 0.031474 0.920000
-0.009304 0.042406 0.895000
0.005210 -0.001092 0.921000
-0.014847 0.019589 0.896000
-0.027661 0.018669 0.905000
0.014634 -0.029419 0.942000
0.020363 -0.023504 0.938000
0.022293 0.027747 0.922000
-0.007910 0.008230 0.904000
-0.004156 0.039178 0.897000
0.010116 0.017066 0.919000
0.016098 0.038082 0.915000
0.006257 0.025831 0.908000
0.028966 0.019671 0.917000
-0.000096 0.008285 0.910000
0.023682 0.040052 0.917000
-0.007997 0.053463 0.914000
0.012033 0.017483 0.921000
-0.015935 0.022883 0.895000
0.006733 -0.004888 0.922000
-0.007504 0.023752 0.900000
0.002153 0.010169 0.911000
0.028426 -0.001856 0.924000
-0.005696 0.003031 0.907000
0.009727 0.018937 0.918000
0.011819 -0.013408 0.934000
0.018719 -0.002258 0.933000
0.023558 0.005006 0.927000
-0.022297 0.025575 0.899000
-0.011515 0.031724 0.895000
0.023785 0.028096 0.921000
0.029183 0.037957 0.912000
-0.026886 0.027578 0.904000
-0.021821 -0.008195 0.910000
0.003246 0.043852 0.902000
0.008126 0.039285 0.908000
0.006450 -0.028462 0.936000
-0.025370 0.024202 0.903000
0.029471 0.003457 0.921000
0.032292 0.014732 0.915000
0.009759 0.004215 0.921000
0.020373 0.031508 0.921000
0.019185 -0.016151 0.937000
0.015006 -0.024741 0.941000
-0.026142 0.019392 0.904000
0.021223 0.018701 0.925000
0.002509 0.029438 0.904000
0.025541 0.038500 0.916000
0.028076 -0.006807 0.925000
-0.003490 -0.012396 0.916000
0.006251 0.028416 0.907000
-0.009026 0.008974 0.904000
-0.017642 -0.005181 0.907000
-0.017409 0.023620 0.895000
0.030343 0.029731 0.913000
0.006712 0.000045 0.919000
0.004033 0.013933 0.912000
-0.007356 -0.037767 0.928000
-0.013595 -0.014203 0.911000
-0.015741 -0.001073 0.905000
0.033118 0.005329 0.917000
0.015893 0.016416 0.925000
0.030642 -0.004508 0.922000
0.021180 -0.035160 0.940000
-0.011171 0.025149 0.897000
-0.006076 -0.000703 0.908000
-0.022719 -0.035771 0.916000
0.004888 -0.022202 0.932000
0.030941 -0.033674 0.931000
-0.004657 -0.031105 0.923000
0.027022 -0.013322 0.928000
0.009611 0.047828 0.907000
0.001428 -0.028188 0.927000
0.027546 0.014813 0.920000
-0.003555 -0.040275 0.933000
0.003637 0.050068 0.907000
-0.012149 -0.018785 0.915000
0.027079 0.028352 0.917000
0.010494 0.018579 0.919000
0.014386 0.009574 0.926000
0.003379 -0.042466 0.939000
0.026229 -0.006059 0.927000
-0.025035 -0.022625 0.918000
0.005637 -0.015631 0.929000
-0.014672 -0.006682 0.908000
-0.026113 0.025317 0.903000
-0.030369 0.019104 0.908000
0.035783 0.030316 0.908000
0.021464 0.034844 0.919000
-0.002703 0.021649 0.905000
0.033190 -0.002602 0.919000
-0.004571 0.011232 0.906000
-0.004198 0.018316 0.906000
-0.001950 0.025261 0.901000
0.007005 0.036669 0.908000
-0.004889 0.042085 0.896000
0.005974 -0.006406 0.922000
0.012805 0.015984 0.922000
0.018959 0.017196 0.926000
0.029591 0.034992 0.913000
-0.003140 -0.029238 0.924000
0.003649 0.022892 0.910000
0.001018 0.047564 0.902000
-0.007962 -0.008569 0.910000
0.008659 -0.007188 0.925000
0.009128 -0.018790 0.934000
0.004379 0.030622 0.906000
-0.015521 -0.022902 0.914000
-0.020300 -0.011553 0.909000
-0.003897 -0.030346 0.923000
0.017341 0.027338 0.921000
-0.007621 -0.015755 0.914000
0.017662 0.035562 0.918000
-0.025413 -0.036604 0.918000
-0.009781 0.048840 0.905000
-0.000483 -0.035282 0.933000
-0.011159 0.027703 0.896000
-0.013986 -0.016471 0.912000
-0.014219 0.005991 0.903000
0.004033 0.021816 0.912000
0.027696 -0.004904 0.925000
-0.002679 0.041393 0.897000
0.010620 -0.007227 0.930000
-0.018531 -0.029674 0.914000
-0.021164 -0.030426 0.914000
0.004920 -0.036244 0.938000
-0.011989 0.008593 0.903000
0.009780 -0.000334 0.923000
-0.010064 0.025888 0.897000
-0.030742 0.020599 0.908000
0.011806 -0.011474 0.933000
-0.017026 -0.026664 0.914000
0.031435 -0.011351 0.923000
-0.018903 0.022540 0.896000
0.009748 0.006104 0.920000
-0.007831 0.043143 0.895000
0.013823 0.039545 0.914000
-0.016274 -0.023655 0.914000
0.009137 -0.020735 0.935000
-0.014863 0.019242 0.897000
0.016961 -0.029807 0.942000
0.020059 0.022864 0.924000
0.006230 0.044693 0.904000
-0.013000 -0.036764 0.922000
0.021522 -0.028908 0.938000
0.028549 -0.019815 0.928000
-0.011669 -0.002942 0.907000
-0.008199 0.035407 0.895000
-0.014093 0.034302 0.895000
0.013447 0.035407 0.914000
-0.018016 -0.005928 0.907000
-0.015776 -0.005181 0.907000
0.034741 0.004968 0.920000
-0.009356 0.020418 0.900000
0.026467 0.013707 0.922000
0.025764 0.005750 0.924000
-0.016185 -0.013424 0.909000
-0.022644 -0.027011 0.913000
-0.026113 0.022716 0.903000
-0.009450 -0.009682 0.909000
0.029791 -0.035590 0.931000
0.031122 -0.017848 0.925000
0.016888 -0.016168 0.938000
0.020385 -0.027780 0.939000
-0.003555 -0.040659 0.933000
0.016870 -0.014994 0.937000
0.011422 -0.012626 0.933000
0.016961 -0.029419 0.942000
0.014230 0.033599 0.916000
-0.002338 0.015741 0.908000
0.021223 0.017939 0.925000
-0.008254 0.021553 0.901000
0.028107 -0.009864 0.926000
-0.016559 -0.012301 0.909000
0.005858 0.042461 0.904000
0.005692 -0.034699 0.938000
-0.006838 -0.005948 0.910000
0.027576 0.010659 0.921000
0.027345 -0.006815 0.926000
-0.014817 -0.027884 0.917000
0.019215 0.033746 0.920000
0.005300 -0.033120 0.937000
-0.004520 0.042822 0.896000
-0.008058 -0.023078 0.921000
0.015262 -0.004946 0.933000
0.028228 -0.025982 0.930000
0.000666 0.007303 0.928000
0.033725 0.018834 0.913000
0.034101 0.017706 0.913000
-0.014607 0.004137 0.904000
-0.012803 -0.009298 0.908000
0.005261 -0.018327 0.930000
0.020168 0.007311 0.929000
-0.003083 0.009751 0.907000
0.015927 0.011492 0.927000
0.027606 0.009532 0.922000
-0.019031 -0.040471 0.920000
0.016030 -0.002642 0.933000
0.016344 0.006164 0.929000
-0.020794 0.027395 0.898000
-0.019707 0.012625 0.899000
-0.014462 0.023988 0.895000
0.033725 0.016203 0.913000
0.020865 0.015672 0.926000
0.011300 0.008403 0.923000
0.006299 0.012083 0.914000
0.012708 0.031679 0.915000
-0.011875 -0.036044 0.923000
-0.005721 0.052163 0.911000
-0.023726 -0.010023 0.941000
0.031333 -0.000712 0.920000
-0.001276 -0.045797 0.952000
-0.014478 0.020696 0.896000
0.018354 -0.006873 0.934000
-0.007529 0.018256 0.903000
-0.008577 0.033234 0.896000
-0.018166 0.031759 0.896000
-0.013177 -0.007803 0.908000
-0.023191 0.013082 0.905000
0.006306 0.019628 0.915000
-0.007110 0.033271 0.897000
-0.020470 0.030049 0.900000
-0.014298 -0.007429 0.908000
0.025274 -0.030323 0.934000
0.016274 0.017178 0.925000
0.013285 0.001193 0.929000
0.001759 0.041207 0.901000
0.003770 -0.042898 0.940000
0.028488 -0.011007 0.926000
-0.006883 -0.016920 0.916000
-0.003517 -0.029586 0.923000
-0.009460 -0.011566 0.910000
0.016115 0.036992 0.916000
0.005119 0.048840 0.905000
-0.011433 -0.023758 0.918000
-0.001591 0.010883 0.908000
0.001051 0.007326 0.931000
-0.023459 0.019328 0.901000
0.021499 -0.026178 0.937000
-0.014785 -0.024057 0.915000
0.000662 -0.016290 0.923000
0.032398 0.001934 0.918000
0.006741 -0.007552 0.923000
0.029934 0.036080 0.912000
0.002961 -0.029013 0.929000
0.032490 0.031881 0.910000
0.006230 0.043577 0.904000
-0.005646 0.030385 0.899000
-0.000868 -0.038396 0.934000
-0.002367 -0.015841 0.919000
0.004028 0.022542 0.911000
0.008650 -0.006039 0.924000
0.012861 0.008049 0.926000
0.036156 0.034427 0.908000
0.004888 -0.023737 0.932000
0.017816 0.015672 0.926000
0.001419 -0.013980 0.921000
0.013853 0.031714 0.916000
-0.005281 0.024863 0.900000
0.021544 -0.034736 0.939000
-0.014156 0.014845 0.899000
0.004836 -0.009062 0.922000
0.019951 0.035600 0.919000
-0.017603 0.004142 0.905000
-0.020794 0.018524 0.898000
0.030276 0.037915 0.911000
0.005577 0.001180 0.919000
-0.008644 0.016026 0.903000
0.017219 -0.009190 0.935000
0.005583 0.000424 0.920000
-0.015249 0.015937 0.898000
-0.009889 0.053899 0.915000
0.002875 0.041253 0.902000
-0.005953 -0.045214 0.948000
0.020307 0.037451 0.918000
0.001812 -0.026309 0.928000
-0.026112 -0.031623 0.916000
0.033046 0.012473 0.915000
-0.000838 0.028631 0.902000
0.002887 0.032486 0.906000
-0.018783 -0.009672 0.908000
-0.016723 -0.035471 0.918000
0.024531 -0.030355 0.935000
-0.001950 0.034903 0.901000
-0.005690 0.011604 0.906000
0.028198 -0.022131 0.929000
0.028931 -0.019052 0.928000
0.029092 0.004215 0.921000
0.010861 0.021960 0.918000
0.017182 -0.002642 0.933000
-0.011308 -0.006682 0.908000
-0.016377 0.011145 0.899000
-0.016304 0.028040 0.895000
-0.000844 0.017629 0.909000
0.028871 0.034278 0.914000
-0.010886 0.008974 0.904000
0.011385 -0.005696 0.930000
-0.018783 -0.008177 0.908000
0.015148 0.011479 0.926000
0.005215 0.007256 0.922000
0.034477 0.013949 0.913000
-0.013730 -0.033655 0.920000
0.009653 0.034915 0.911000
0.023711 -0.017234 0.933000
0.008430 -0.037561 0.942000
0.014463 -0.000337 0.931000
0.029850 0.001562 0.921000
-0.006801 0.011592 0.905000
-0.015232 0.017027 0.897000
-0.020652 -0.003692 0.908000
-0.002002 -0.026985 0.925000
0.011916 0.036080 0.912000
-0.008327 0.051300 0.909000
-0.009439 -0.007056 0.908000
-0.003825 0.017944 0.906000
0.014942 -0.014223 0.937000
-0.020367 -0.023227 0.912000
-0.031525 0.022493 0.909000
0.027696 -0.004523 0.925000
-0.027661 0.022766 0.905000
0.007735 0.048521 0.906000
-0.009056 -0.003315 0.907000
0.032151 0.033416 0.911000
0.034401 0.023667 0.911000
-0.019745 -0.038871 0.918000
0.010643 -0.010695 0.932000
0.000276 0.036798 0.902000
-0.008199 0.041301 0.895000
0.005583 -0.000333 0.920000
0.029967 0.033865 0.913000
-0.021821 -0.007820 0.910000
-0.014078 0.028377 0.894000
-0.009046 0.000418 0.906000
-0.004662 -0.032280 0.924000
-0.005516 -0.044832 0.940000
-0.013685 -0.026752 0.917000
-0.021533 0.027395 0.898000
-0.011883 0.034671 0.895000
0.031881 0.022240 0.914000
0.029759 -0.033255 0.930000
-0.005317 0.015333 0.906000
0.000670 -0.035320 0.934000
-0.011883 0.033197 0.895000
0.023635 -0.005696 0.930000
0.032847 -0.003741 0.920000
-0.003490 0.054334 0.916000
0.007419 0.024095 0.913000
-0.020447 0.014105 0.899000
-0.011823 -0.029836 0.919000
-0.002685 0.036676 0.899000
-0.011883 0.040564 0.895000
0.023635 -0.008758 0.930000
-0.012443 0.051300 0.909000
0.032292 0.016239 0.915000
-0.029962 0.023936 0.907000
-0.010288 -0.020335 0.917000
-0.012580 -0.032105 0.919000
0.019508 -0.008027 0.934000
-0.012902 -0.020668 0.915000
-0.009738 0.017474 0.901000
0.007105 -0.002608 0.921000
0.016798 -0.001874 0.933000
-0.017040 0.028777 0.895000
-0.021048 -0.006689 0.909000
0.001393 0.035019 0.904000
0.024531 -0.029201 0.935000
-0.010677 -0.023002 0.918000
-0.019926 -0.014546 0.909000
0.004365 0.047245 0.903000
0.011869 -0.021573 0.938000
0.027463 -0.023686 0.930000
-0.015758 -0.002938 0.906000
0.009227 0.045165 0.906000
-0.017059 0.020327 0.896000
0.031122 -0.017086 0.925000
-0.021927 0.020395 0.899000
0.019700 0.020604 0.925000
0.023888 0.011086 0.925000
0.031299 0.005719 0.919000
0.018511 -0.034072 0.942000
0.004548 -0.042944 0.941000
0.001057 -0.038863 0.936000
-0.006069 0.003031 0.907000
-0.015953 0.020696 0.896000
-0.021557 0.026315 0.899000
-0.008050 -0.020781 0.920000
0.014603 -0.022393 0.940000
0.019994 0.030371 0.921000
0.031608 0.008726 0.917000
0.002942 -0.015150 0.923000
0.006704 0.003446 0.918000
-0.016238 -0.020225 0.912000
-0.016380 -0.037820 0.920000
-0.018741 0.000791 0.906000
0.016888 -0.017713 0.938000
-0.006414 0.021229 0.903000
-0.000482 -0.034477 0.932000
0.034363 0.026637 0.910000
-0.009627 -0.038448 0.926000
0.001391 0.026061 0.903000
-0.009176 -0.028323 0.919000
0.005498 0.049640 0.906000
0.030853 0.015520 0.917000
0.031746 -0.004882 0.921000
-0.001205 0.041116 0.899000
0.017367 -0.034496 0.943000
-0.010630 -0.017259 0.914000
-0.013133 0.042508 0.905000
0.028046 0.000046 0.924000
0.002512 0.033568 0.905000
0.031639 -0.026337 0.929000
-0.018389 -0.004062 0.907000
0.022574 0.039340 0.918000
0.025301 0.019378 0.921000
0.026668 -0.016396 0.929000
-0.027746 -0.034217 0.946000
-0.010549 -0.004435 0.907000
-0.018535 0.022908 0.896000
0.032222 0.023343 0.913000
0.004369 0.039112 0.904000
0.008734 -0.016466 0.933000
-0.012375 0.005254 0.904000
-0.014830 0.022883 0.895000
0.010325 -0.026206 0.938000
-0.030742 0.022842 0.908000
-0.006442 0.001911 0.907000
-0.011823 -0.026053 0.919000
-0.018166 0.020696 0.896000
-0.020058 -0.033849 0.915000
-0.012902 -0.021044 0.915000
0.020440 0.020962 0.924000
0.020661 -0.011871 0.934000
-0.023370 -0.015345 0.912000
0.023381 0.032988 0.920000
0.029721 0.018539 0.917000
-0.001212 0.048786 0.904000
0.036530 0.032184 0.908000
0.030675 -0.007172 0.923000
-0.003800 0.028197 0.900000
-0.021470 -0.016828 0.911000
-0.001963 0.020950 0.907000
0.025576 -0.017580 0.931000
-0.007546 0.003397 0.905000
0.020276 -0.010718 0.934000
-0.003490 -0.012773 0.916000
-0.025741 0.023087 0.903000
0.021604 0.016797 0.925000
-0.024981 -0.034640 0.916000
-0.008883 -0.040059 0.928000
0.005540 0.021088 0.913000
-0.004198 0.010113 0.906000
-0.029962 0.025430 0.907000
0.031884 -0.018990 0.925000
0.031849 -0.015547 0.924000
0.016979 -0.031391 0.943000
0.004108 -0.017543 0.929000
0.027955 0.011417 0.921000
-0.001232 -0.014328 0.919000
-0.001589 0.050068 0.907000
-0.005080 -0.039805 0.931000
-0.005293 0.047935 0.902000
0.005601 -0.009832 0.923000
0.019612 -0.026234 0.939000
0.011642 0.018978 0.920000
-0.005411 -0.031072 0.922000
-0.001614 -0.016633 0.921000
-0.012761 0.001162 0.905000
0.013712 -0.004557 0.932000
0.008903 0.032291 0.911000
-0.014830 0.032460 0.895000
0.025904 -0.011807 0.929000
0.007509 -0.009082 0.924000
0.026314 -0.016030 0.930000
-0.014996 -0.000700 0.905000
-0.021163 0.024438 0.898000
0.014065 -0.000720 0.930000
-0.017288 -0.008924 0.908000
-0.014314 -0.011179 0.909000
0.018775 0.040052 0.917000
-0.007173 0.013454 0.905000
0.028744 0.004599 0.922000
-0.000861 -0.023991 0.927000
0.008135 0.037084 0.909000
-0.010164 -0.001447 0.906000
0.025031 0.008421 0.925000
-0.021581 0.000813 0.932000
0.019062 0.001962 0.931000
-0.016504 -0.002193 0.906000
-0.005270 0.045875 0.898000
-0.011540 0.043239 0.897000
-0.014510 0.015568 0.898000
0.017970 -0.006105 0.934000
0.020910 0.011122 0.928000
-0.002338 0.007145 0.908000
0.009897 -0.017637 0.934000
0.008216 0.014781 0.918000
0.016186 0.027309 0.920000
0.020320 -0.014978 0.936000
0.002528 0.012043 0.911000
-0.001211 0.023831 0.903000
-0.011115 -0.035664 0.923000
-0.001638 -0.041515 0.935000
0.023431 0.023953 0.922000
-0.008050 -0.027975 0.920000
0.005486 0.046553 0.904000
0.002576 -0.026691 0.928000
-0.003547 -0.037506 0.931000
-0.018824 -0.016809 0.910000
-0.029215 0.018710 0.907000
0.018859 -0.025488 0.940000
0.006059 -0.028431 0.935000
0.022317 0.024359 0.923000
-0.005690 0.006011 0.906000
-0.002318 0.028197 0.900000
0.026963 -0.004909 0.926000
0.016672 0.014910 0.926000
0.012694 0.033526 0.914000
-0.009026 0.009718 0.904000
-0.007019 -0.041855 0.934000
-0.001573 0.041440 0.898000
-0.017098 0.014828 0.898000
0.014894 -0.006489 0.934000
0.031642 0.007224 0.918000
0.000646 0.045977 0.900000
0.032937 0.025945 0.912000
0.028259 -0.029842 0.931000
0.004534 -0.037402 0.938000
0.009137 -0.021119 0.935000
0.008034 -0.037909 0.941000
0.004752 0.027639 0.906000
0.007829 0.015897 0.917000
0.006828 -0.025353 0.935000
0.015831 -0.034921 0.944000
-0.008702 0.051300 0.909000
0.004505 -0.024120 0.932000
0.002182 -0.015530 0.923000
0.007452 0.006461 0.917000
0.016048 -0.006489 0.934000
-0.005287 0.023407 0.901000
0.010105 0.020070 0.918000
-0.005759 -0.017316 0.917000
-0.000475 -0.011667 0.918000
-0.006062 0.014215 0.906000
0.022317 0.023219 0.923000
-0.004193 0.019414 0.905000
0.026043 -0.030707 0.934000
0.012305 0.034616 0.913000
0.020342 -0.019236 0.937000
-0.018075 -0.016809 0.910000
-0.020278 -0.007803 0.908000
-0.003456 0.016843 0.907000
-0.010946 -0.010431 0.909000
-0.005752 -0.016920 0.916000
-0.026916 0.016434 0.905000
-0.018227 0.011515 0.899000
0.010347 -0.030518 0.940000
0.008725 -0.014914 0.932000
0.007354 0.046977 0.905000
-0.014109 0.035078 0.896000
0.027051 -0.016013 0.929000
-0.017936 0.007106 0.903000
0.028703 -0.037586 0.933000
-0.009792 0.000045 0.906000
0.010483 0.020070 0.918000
-0.016238 -0.019098 0.912000
-0.027661 0.024256 0.905000
0.001051 -0.032525 0.931000
0.033799 0.007954 0.915000
-0.017288 -0.009298 0.908000
-0.007980 -0.013843 0.912000
-0.011910 0.022196 0.897000
-0.023485 0.014523 0.902000
-0.016728 0.014089 0.898000
-0.014996 0.000790 0.905000
0.021090 -0.019216 0.936000
0.020124 0.012636 0.927000
0.000672 -0.040019 0.936000
0.035409 0.035548 0.908000
0.010896 0.015208 0.921000
-0.025441 -0.037401 0.919000
-0.007546 0.010474 0.905000
-0.011067 -0.026810 0.919000
-0.015062 -0.011553 0.909000
-0.003787 0.040655 0.897000
-0.008291 0.003770 0.905000
-0.011171 0.024411 0.897000
-0.007671 -0.028732 0.920000
-0.022244 -0.022101 0.912000
-0.031698 0.027131 0.914000
0.032433 -0.000711 0.919000
0.008864 0.042228 0.907000
