0.010834 0.024084 0.885000
0.030348 -0.013692 0.902000
0.001724 0.022576 0.883000
0.008981 -0.030592 0.919000
-0.033910 -0.018701 0.893000
0.015309 0.020947 0.891000
0.002792 0.034656 0.876000
0.017566 -0.004464 0.913000
0.014215 -0.022174 0.915000
0.014199 -0.008231 0.914000
-0.012060 0.015273 0.881000
0.037606 0.007806 0.898000
0.024543 -0.012648 0.907000
0.014256 0.019914 0.894000
-0.018866 -0.036740 0.912000
0.006719 -0.026839 0.920000
-0.017078 -0.016200 0.897000
-0.007316 -0.040223 0.923000
0.008444 -0.002183 0.902000
0.016186 0.015955 0.899000
0.007444 -0.015789 0.916000
-0.005715 -0.021678 0.910000
0.017152 -0.031451 0.911000
-0.018907 -0.039078 0.914000
0.001710 0.033574 0.876000
0.001033 -0.020668 0.915000
-0.020010 -0.016919 0.896000
-0.023989 -0.034673 0.907000
-0.016869 0.033228 0.886000
0.008216 -0.036227 0.918000
0.031462 -0.004410 0.902000
0.027227 0.031795 0.897000
0.009339 -0.038074 0.917000
0.037934 0.004475 0.897000
0.025635 -0.014125 0.906000
0.022202 0.044633 0.888000
0.007509 -0.046351 0.924000
-0.013572 0.038654 0.885000
0.003878 0.035417 0.877000
0.013344 0.001911 0.907000
0.014559 0.021290 0.890000
0.016006 0.024193 0.889000
-0.011022 0.008421 0.885000
0.013461 -0.008993 0.915000
0.022328 0.010509 0.908000
0.024083 0.036675 0.890000
0.024560 0.031688 0.894000
0.002942 -0.036424 0.923000
-0.002977 0.031050 0.876000
0.002083 0.025426 0.881000
0.014758 0.039885 0.880000
-0.014093 -0.013217 0.895000
-0.014032 -0.036108 0.915000
0.019048 -0.002582 0.912000
0.011528 -0.005204 0.911000
-0.021927 -0.026966 0.899000
0.003633 0.006757 0.906000
-0.021773 -0.034337 0.908000
0.022727 -0.010805 0.909000
0.019365 0.026845 0.892000
-0.021845 -0.036325 0.911000
-0.026470 -0.009846 0.890000
0.019006 0.004539 0.910000
-0.001976 -0.021750 0.913000
0.022542 0.039472 0.887000
0.023025 -0.026804 0.906000
0.003931 0.016143 0.889000
0.014875 0.025234 0.887000
-0.003001 0.018215 0.883000
0.023797 -0.015634 0.907000
0.008256 0.030174 0.882000
0.017942 -0.003713 0.913000
-0.009878 -0.031554 0.914000
-0.024610 -0.008738 0.889000
0.014559 -0.004464 0.913000
-0.019597 -0.014674 0.894000
0.036289 0.026403 0.902000
0.011604 -0.025619 0.917000
0.023010 0.045517 0.891000
-0.012408 0.025397 0.880000
-0.016486 0.029912 0.885000
-0.023513 -0.003981 0.889000
-0.030739 -0.029491 0.897000
-0.022173 -0.016882 0.894000
0.024516 0.015333 0.906000
-0.008692 -0.026489 0.908000
0.026724 -0.011502 0.905000
0.032947 0.005242 0.902000
0.022302 0.046303 0.892000
0.028277 0.014604 0.907000
-0.010223 0.017409 0.879000
-0.037098 -0.028447 0.899000
0.003940 0.008112 0.891000
0.023475 -0.005193 0.909000
0.015916 0.045887 0.884000
-0.022272 -0.026197 0.898000
0.006230 -0.007025 0.904000
-0.024777 -0.020584 0.895000
0.011968 -0.014281 0.916000
0.043006 0.009253 0.895000
0.042270 0.016252 0.895000
0.012722 -0.012773 0.916000
-0.001174 0.030690 0.876000
0.022618 0.035209 0.890000
0.027469 0.018669 0.905000
0.005851 -0.005902 0.903000
0.021248 0.047510 0.894000
0.007249 0.010691 0.892000
-0.021141 -0.038284 0.913000
0.002431 0.036098 0.876000
0.032576 0.027517 0.902000
-0.009629 -0.005457 0.891000
0.009885 0.004480 0.898000
0.032911 0.029711 0.901000
-0.016869 0.003690 0.886000
-0.020788 -0.039078 0.914000
0.007795 -0.011980 0.913000
0.036990 0.025632 0.901000
-0.025912 -0.035123 0.909000
0.011553 -0.007095 0.913000
0.028090 0.025261 0.901000
0.008603 -0.021136 0.919000
0.018257 -0.032915 0.910000
0.014942 0.049184 0.891000
0.043375 0.020673 0.895000
-0.013119 -0.024140 0.904000
0.031939 0.018296 0.905000
0.012035 0.019891 0.893000
0.021230 -0.020532 0.909000
-0.000097 -0.029901 0.921000
-0.035788 -0.019457 0.894000
0.015549 0.006749 0.905000
0.036619 0.028228 0.901000
-0.000823 0.010984 0.886000
-0.011321 -0.030259 0.909000
-0.000458 0.012807 0.886000
0.002075 0.040517 0.878000
0.011186 0.029878 0.884000
0.016667 0.008612 0.905000
0.022752 0.006038 0.910000
0.012713 0.021632 0.889000
0.041672 0.025916 0.898000
0.006485 0.020511 0.888000
0.032276 0.020508 0.904000
0.009483 0.012937 0.895000
0.011389 0.004490 0.900000
0.011720 0.014443 0.897000
0.000654 -0.015703 0.911000
-0.016747 -0.017716 0.899000
0.000992 0.026815 0.879000
-0.000094 0.008450 0.888000
0.024598 0.001167 0.909000
0.002907 -0.015345 0.912000
-0.015131 -0.008757 0.891000
0.010483 -0.018468 0.918000
-0.007312 0.023866 0.877000
0.042590 0.009979 0.894000
-0.001554 0.007710 0.887000
-0.032991 -0.030632 0.898000
0.002537 -0.018764 0.914000
0.017142 0.021680 0.891000
-0.026103 -0.004352 0.890000
0.025607 0.017179 0.905000
0.008359 0.011070 0.893000
0.018277 -0.023577 0.911000
0.036248 0.017103 0.901000
-0.020077 -0.026596 0.899000
0.007468 -0.021893 0.919000
0.010600 0.013689 0.896000
-0.035788 -0.024609 0.894000
0.004028 -0.012703 0.911000
-0.003376 0.006972 0.886000
0.024197 -0.007056 0.908000
0.045116 0.018789 0.893000
-0.026797 -0.031106 0.901000
-0.006149 -0.033240 0.919000
0.013655 0.041648 0.879000
0.025692 0.012004 0.908000
0.027903 0.011244 0.907000
0.014230 -0.016166 0.916000
-0.011322 0.026846 0.880000
0.019402 0.002670 0.911000
-0.010456 -0.045218 0.932000
0.015277 -0.041200 0.911000
0.006781 0.033689 0.879000
0.027842 -0.007032 0.905000
0.000270 0.021849 0.883000
-0.018307 0.026270 0.885000
-0.013252 -0.003611 0.888000
0.024571 0.011630 0.908000
0.006712 -0.043453 0.919000
-0.012422 0.026876 0.881000
0.004626 0.025455 0.882000
0.007624 0.015481 0.893000
-0.011412 -0.000321 0.887000
0.034842 0.015283 0.903000
0.004447 -0.025324 0.920000
0.019647 0.011219 0.905000
0.019755 -0.023926 0.910000
0.031567 -0.012992 0.905000
-0.024610 -0.008372 0.889000
0.035428 0.002634 0.899000
0.002440 0.029348 0.879000
0.007522 0.030502 0.881000
-0.004244 -0.027476 0.916000
0.011566 -0.042464 0.914000
-0.028365 -0.020148 0.892000
0.011325 0.016621 0.895000
-0.012188 -0.038494 0.918000
-0.013904 0.014944 0.883000
0.000663 -0.036844 0.924000
-0.028333 -0.016825 0.891000
0.005676 0.038622 0.876000
0.033986 0.001526 0.900000
0.016402 0.000795 0.911000
0.006071 0.030140 0.881000
-0.030404 -0.030263 0.898000
0.016299 0.035376 0.885000
0.026783 -0.001448 0.907000
-0.001898 0.036500 0.877000
0.024489 -0.023422 0.905000
0.018297 -0.019849 0.912000
0.028587 -0.018207 0.905000
-0.008606 -0.014016 0.899000
0.015570 0.046303 0.885000
0.006719 -0.024567 0.920000
0.044381 0.018054 0.893000
0.022328 -0.021631 0.908000
0.045116 0.021729 0.893000
-0.014397 -0.009491 0.891000
0.015532 0.008974 0.904000
0.008256 0.025455 0.882000
0.009359 -0.024162 0.919000
0.009359 -0.027945 0.919000
0.002562 -0.038703 0.923000
-0.008786 0.034814 0.880000
0.016027 -0.038200 0.911000
0.007838 -0.042272 0.918000
0.030077 0.021276 0.905000
0.004273 0.022602 0.884000
-0.019315 -0.019544 0.898000
0.034726 0.003008 0.900000
-0.011656 -0.022329 0.906000
-0.007312 0.029281 0.877000
-0.020652 -0.034337 0.908000
0.013113 -0.018826 0.917000
0.021954 -0.020510 0.908000
-0.028061 -0.023137 0.894000
0.020414 0.011604 0.906000
-0.020424 -0.021762 0.898000
-0.004993 -0.027823 0.915000
0.029137 0.029645 0.899000
0.027014 0.041803 0.890000
0.028183 -0.006653 0.904000
-0.017234 0.030675 0.886000
0.010837 -0.038787 0.916000
-0.033138 -0.014434 0.902000
-0.016103 0.028423 0.884000
-0.013572 0.008786 0.885000
-0.002277 0.017872 0.884000
-0.009489 0.019919 0.878000
0.004621 0.027601 0.881000
-0.001544 0.038117 0.881000
-0.011031 -0.035017 0.916000
0.016438 -0.022501 0.913000
-0.029458 -0.033405 0.903000
-0.022390 -0.005804 0.888000
-0.021805 -0.016146 0.894000
0.036128 -0.002173 0.898000
0.002795 0.040110 0.877000
-0.012888 -0.034564 0.914000
-0.017526 -0.026656 0.901000
0.017209 -0.010112 0.914000
-0.035052 -0.020193 0.894000
0.027227 0.030687 0.897000
-0.035420 -0.020929 0.894000
0.003633 -0.011515 0.906000
-0.016888 -0.000686 0.887000
-0.020629 -0.032806 0.907000
0.021930 -0.027953 0.907000
0.007151 0.033003 0.880000
-0.016831 0.026968 0.884000
0.021254 -0.011191 0.910000
0.026813 0.006024 0.908000
0.030044 -0.001072 0.904000
0.026813 0.009761 0.908000
0.003891 0.029381 0.880000
0.001001 0.015012 0.887000
0.021954 -0.022378 0.908000
0.002434 0.036861 0.877000
0.006434 0.026876 0.881000
0.024788 0.042488 0.889000
0.007658 0.005582 0.897000
0.009621 -0.003319 0.908000
0.006974 -0.005908 0.904000
-0.019100 0.035130 0.888000
-0.010596 -0.030701 0.911000
0.039780 0.017765 0.897000
0.018673 -0.017597 0.912000
-0.014172 -0.016625 0.900000
0.029267 -0.006274 0.903000
0.012870 0.006712 0.900000
0.006682 -0.015772 0.915000
-0.024201 -0.028881 0.901000
0.022727 -0.009682 0.909000
0.010105 -0.018468 0.918000
-0.021533 -0.024349 0.898000
-0.010328 -0.001053 0.888000
0.006797 0.030865 0.881000
-0.036933 -0.023900 0.895000
0.027842 -0.005543 0.905000
0.009462 0.016584 0.893000
0.030077 0.007494 0.905000
0.020535 0.024725 0.895000
0.013197 0.015919 0.897000
-0.010258 0.036345 0.882000
0.024889 -0.014871 0.906000
-0.033948 -0.026081 0.894000
-0.001537 0.028198 0.877000
0.026065 0.003408 0.908000
-0.031513 -0.031002 0.898000
0.034842 0.024574 0.903000
-0.003452 -0.015990 0.906000
0.007488 0.041914 0.877000
-0.003736 0.012064 0.885000
0.014919 -0.039743 0.912000
0.002182 -0.032625 0.923000
0.032576 0.001530 0.902000
0.039498 0.023725 0.899000
0.010483 -0.029803 0.918000
0.014230 -0.013527 0.916000
0.012722 -0.022198 0.916000
0.005903 0.000795 0.911000
0.022752 -0.000330 0.910000
0.044480 0.011832 0.895000
-0.012814 0.032752 0.883000
0.013056 -0.005592 0.913000
-0.005205 0.003695 0.887000
-0.011936 -0.014756 0.899000
0.003887 0.030071 0.879000
-0.013395 -0.043642 0.923000
-0.022390 -0.002149 0.888000
0.019754 0.023567 0.893000
0.009685 -0.010864 0.914000
-0.003509 -0.033691 0.921000
-0.000094 0.019691 0.884000
0.000280 -0.019893 0.914000
-0.023045 -0.037197 0.914000
0.045483 0.021362 0.893000
0.017027 0.035740 0.885000
-0.013873 0.022888 0.881000
0.006120 0.020146 0.888000
-0.033175 -0.023479 0.893000
-0.022421 -0.030093 0.904000
-0.001593 -0.016043 0.909000
0.001039 -0.028354 0.920000
0.029977 -0.011464 0.902000
0.015328 -0.021397 0.914000
0.013085 -0.026317 0.915000
0.008216 -0.036982 0.918000
-0.019444 -0.001782 0.887000
-0.039526 -0.025600 0.930000
0.001424 -0.036844 0.924000
0.012194 0.041962 0.878000
-0.005564 0.005149 0.886000
-0.019681 -0.040251 0.915000
0.024029 0.040978 0.888000
0.012932 0.039477 0.879000
-0.023063 -0.027737 0.900000
0.024889 -0.018227 0.906000
0.003156 0.038305 0.877000
0.012999 -0.000329 0.909000
0.014575 -0.025535 0.914000
0.018099 0.038974 0.884000
0.006347 -0.029901 0.921000
-0.021659 -0.006535 0.888000
-0.005293 -0.015177 0.902000
-0.008424 0.035538 0.880000
0.026352 -0.016717 0.905000
-0.014731 -0.006542 0.889000
-0.010223 0.018494 0.879000
0.012694 -0.040583 0.914000
-0.011322 0.029381 0.880000
0.006797 0.031227 0.881000
0.026439 0.009388 0.908000
0.016759 -0.037409 0.910000
-0.011084 -0.006183 0.890000
0.026754 0.016079 0.906000
-0.005721 -0.022077 0.911000
0.038672 0.010012 0.897000
0.031497 0.007478 0.903000
0.020856 -0.020906 0.909000
0.020696 0.017122 0.902000
0.004427 -0.019182 0.916000
-0.019337 -0.026226 0.899000
-0.016821 -0.028201 0.903000
-0.022440 -0.012044 0.890000
0.021184 -0.029820 0.907000
-0.011408 -0.034640 0.916000
-0.001616 -0.032590 0.922000
0.000996 0.023640 0.882000
0.015328 -0.021021 0.914000
0.033727 0.019742 0.903000
-0.004900 -0.010304 0.898000
-0.015029 0.010243 0.885000
0.004297 0.016509 0.889000
0.037934 0.000413 0.897000
0.008727 0.016584 0.893000
0.034356 -0.001067 0.900000
-0.009511 0.034452 0.880000
-0.036974 -0.025770 0.896000
0.004355 -0.003664 0.901000
0.046218 0.020994 0.893000
-0.017777 -0.013217 0.895000
0.008727 0.016216 0.893000
0.009720 0.028754 0.883000
-0.006096 -0.023577 0.911000
0.003246 -0.006638 0.902000
0.040238 0.027055 0.899000
-0.010265 -0.032342 0.915000
-0.010706 -0.003981 0.889000
0.027469 0.019041 0.905000
0.014559 -0.004088 0.913000
-0.014946 -0.020003 0.902000
0.021809 0.017864 0.902000
0.018652 -0.021327 0.911000
-0.009943 -0.038956 0.920000
0.031869 0.004504 0.903000
0.000283 -0.037985 0.924000
0.020550 -0.000330 0.912000
0.020174 -0.007087 0.912000
0.002938 -0.030313 0.922000
-0.017778 -0.039078 0.914000
0.023076 0.011256 0.908000
-0.016085 0.024393 0.883000
0.006405 0.035778 0.877000
-0.005902 0.015653 0.882000
0.019577 0.037926 0.885000
-0.008015 -0.032001 0.916000
-0.012493 0.003326 0.886000
-0.021461 -0.018006 0.895000
0.004452 -0.027626 0.921000
-0.012060 0.029777 0.881000
0.031497 0.006734 0.903000
-0.016504 0.034322 0.886000
0.007992 0.011070 0.893000
0.008434 -0.001068 0.901000
0.010810 0.032752 0.883000
0.014412 0.045006 0.881000
0.003517 0.037222 0.877000
0.030686 0.028228 0.901000
0.016456 -0.012745 0.914000
0.002811 0.024366 0.882000
0.025324 0.031355 0.895000
-0.001545 0.020735 0.882000
-0.026397 -0.029219 0.900000
0.019517 0.019285 0.899000
0.021568 0.046670 0.892000
0.017490 0.027883 0.890000
-0.029433 -0.013891 0.891000
-0.003345 0.024978 0.878000
-0.007387 0.005149 0.886000
0.020505 -0.013813 0.910000
0.030077 0.010847 0.905000
-0.033910 -0.023846 0.893000
-0.009225 -0.042928 0.924000
0.005897 -0.010068 0.910000
0.045432 0.016565 0.892000
-0.006076 -0.019015 0.908000
-0.017350 -0.010236 0.892000
-0.026133 -0.016458 0.891000
0.046954 0.018054 0.893000
0.021067 0.016751 0.902000
0.028618 0.006384 0.906000
0.038145 -0.000698 0.902000
-0.013249 -0.032647 0.913000
0.017588 0.049774 0.895000
0.006333 -0.041183 0.919000
0.011641 0.050651 0.891000
-0.009489 0.024978 0.878000
-0.014664 0.011700 0.885000
0.019887 0.020395 0.899000
0.013808 -0.038284 0.913000
-0.018016 0.010124 0.907000
0.003307 -0.023784 0.919000
0.025409 0.027025 0.898000
0.033319 0.006727 0.902000
0.015395 0.019221 0.896000
0.001004 0.007362 0.889000
-0.018493 -0.013570 0.894000
0.011161 0.033804 0.882000
0.005407 0.016180 0.891000
-0.033175 -0.016863 0.893000
-0.009792 -0.019719 0.906000
0.014168 -0.040494 0.912000
0.021652 0.000420 0.911000
0.027127 0.000418 0.906000
-0.005270 -0.010304 0.898000
0.008099 -0.004798 0.905000
0.004831 -0.041652 0.921000
0.021184 0.010497 0.907000
0.004073 -0.026489 0.921000
-0.013541 0.014944 0.883000
0.007693 -0.000697 0.901000
0.038388 0.020765 0.899000
0.029639 -0.009619 0.903000
0.004815 -0.021113 0.918000
0.004804 -0.018051 0.916000
0.031427 -0.006260 0.901000
0.020152 -0.013078 0.911000
0.025318 0.000419 0.908000
0.009339 -0.036564 0.917000
0.003565 0.015046 0.889000
-0.001237 -0.033765 0.923000
0.016814 -0.003337 0.913000
0.003293 -0.004097 0.915000
-0.010621 0.013838 0.882000
-0.024299 -0.015358 0.891000
0.003989 -0.004410 0.902000
-0.012770 0.025035 0.880000
0.028991 0.017571 0.906000
-0.007189 -0.018620 0.907000
-0.033175 -0.016495 0.893000
-0.025485 -0.020561 0.894000
0.017391 0.036833 0.885000
0.001422 -0.034904 0.923000
-0.035698 -0.032872 0.930000
0.007460 -0.043783 0.918000
-0.021533 -0.023240 0.898000
-0.017983 0.033996 0.887000
0.024889 -0.016735 0.906000
0.000270 0.021122 0.883000
0.008153 -0.007829 0.911000
0.022003 -0.010442 0.910000
-0.002721 -0.020202 0.911000
0.035546 0.020092 0.902000
-0.018967 -0.025116 0.899000
0.025352 0.029546 0.896000
-0.009146 -0.033132 0.916000
0.026008 0.017198 0.906000
-0.013252 -0.002515 0.888000
-0.001189 0.008806 0.887000
-0.006959 0.032205 0.878000
0.031798 -0.005889 0.901000
0.036949 0.017454 0.900000
0.019986 0.044948 0.887000
0.026410 0.001538 0.907000
-0.013177 0.034569 0.883000
0.025692 0.011630 0.908000
-0.013526 0.016016 0.882000
-0.006009 -0.011044 0.898000
0.027811 -0.018931 0.904000
-0.012945 -0.009868 0.892000
0.001407 -0.018368 0.913000
0.030822 0.015316 0.905000
0.030449 0.008612 0.905000
-0.013307 -0.038074 0.917000
-0.019685 -0.023610 0.898000
-0.010585 0.026453 0.879000
0.025381 0.028841 0.897000
-0.002977 0.028526 0.876000
-0.032036 -0.019781 0.892000
0.029704 0.003025 0.905000
0.007143 0.034051 0.879000
0.040149 0.018135 0.897000
-0.004253 -0.030559 0.918000
-0.007015 0.009878 0.885000
0.007436 -0.015019 0.915000
0.046954 0.019156 0.893000
0.011566 -0.046602 0.914000
0.004427 -0.018805 0.916000
-0.008085 -0.042928 0.924000
0.007505 0.045266 0.879000
0.017352 0.039657 0.883000
0.025520 0.039195 0.889000
0.013838 -0.026693 0.915000
0.018550 0.008994 0.906000
-0.013297 -0.009124 0.891000
-0.015211 -0.041138 0.918000
-0.009565 0.008057 0.885000
0.031057 -0.009597 0.901000
0.006719 -0.034034 0.920000
-0.006478 -0.026606 0.912000
0.008717 0.018401 0.892000
-0.029433 -0.010958 0.891000
0.029267 0.024202 0.903000
-0.014664 0.035012 0.885000
0.000990 0.036861 0.877000
-0.005702 -0.018641 0.908000
0.000660 -0.028354 0.920000
0.012486 0.011885 0.899000
0.008678 0.021242 0.888000
0.002135 -0.009247 0.903000
-0.032324 -0.032182 0.900000
0.001763 -0.008875 0.903000
-0.011684 0.026121 0.880000
-0.025737 -0.006183 0.890000
0.030077 0.009357 0.905000
0.009349 -0.034337 0.918000
0.008198 -0.015035 0.916000
0.003927 0.018318 0.888000
0.021020 0.020047 0.900000
-0.008410 -0.035471 0.918000
0.026352 -0.016344 0.905000
0.004456 -0.037902 0.922000
0.010761 0.044904 0.879000
0.007965 0.019092 0.890000
-0.009186 -0.038577 0.920000
0.044062 0.021385 0.894000
0.006897 0.007035 0.894000
0.005034 0.011033 0.890000
-0.013618 -0.001784 0.888000
-0.003345 0.023532 0.878000
0.017393 0.010835 0.904000
0.037934 0.004105 0.897000
-0.012858 0.003326 0.886000
-0.002259 0.026393 0.877000
0.003677 -0.020335 0.917000
0.028152 -0.015193 0.903000
0.023664 0.043537 0.888000
0.012472 0.012980 0.898000
0.007460 -0.044917 0.918000
0.012991 0.034569 0.883000
-0.001906 0.021437 0.881000
-0.008108 0.009514 0.885000
0.011955 -0.038368 0.915000
0.025692 0.008267 0.908000
-0.018194 -0.041049 0.916000
0.009731 0.024421 0.884000
0.016612 0.011924 0.902000
-0.002977 0.027805 0.876000
-0.014664 0.035740 0.885000
-0.015722 0.023666 0.883000
0.018632 -0.026547 0.910000
-0.030193 -0.008983 0.914000
0.009207 -0.002560 0.904000
0.003569 0.008835 0.890000
0.001788 -0.022198 0.916000
0.000661 -0.029901 0.921000
0.014017 0.041286 0.879000
-0.003867 -0.027853 0.916000
0.035917 0.026032 0.902000
-0.013461 -0.018518 0.902000
0.014448 0.004519 0.906000
0.010083 -0.042180 0.916000
0.020902 0.003420 0.911000
0.038672 0.009274 0.897000
-0.010176 -0.026833 0.907000
0.037320 0.022640 0.900000
-0.003804 -0.013676 0.901000
0.010105 -0.027914 0.918000
-0.031583 -0.032182 0.900000
0.014591 -0.019538 0.915000
0.008952 -0.015035 0.916000
0.020152 -0.009704 0.911000
0.019360 -0.029885 0.909000
-0.016140 0.034322 0.886000
0.001041 -0.030313 0.922000
-0.015722 0.025483 0.883000
0.017133 -0.037034 0.910000
0.033392 0.022369 0.904000
0.022353 -0.013798 0.909000
-0.002284 0.006615 0.887000
0.035546 0.026032 0.902000
-0.009128 0.025701 0.878000
0.008528 -0.008204 0.911000
-0.009166 -0.035471 0.918000
0.019402 0.001170 0.911000
0.005322 0.040831 0.877000
0.010969 0.013689 0.896000
0.036867 0.005588 0.898000
-0.008568 -0.010270 0.895000
0.013197 0.015181 0.897000
0.015552 0.045887 0.884000
0.016262 0.037477 0.883000
0.016833 -0.010864 0.914000
0.017152 -0.033326 0.911000
0.022402 -0.001830 0.911000
0.034471 0.022344 0.903000
0.004307 0.009212 0.891000
0.001728 0.020442 0.885000
0.021495 0.045415 0.889000
0.009951 -0.001444 0.904000
0.014494 0.032499 0.886000
-0.022858 -0.015008 0.892000
0.011186 0.025512 0.884000
-0.015487 -0.033738 0.912000
-0.024626 -0.031175 0.903000
0.007090 -0.037022 0.919000
0.012486 0.011145 0.899000
0.003697 -0.039041 0.922000
0.005017 0.020853 0.887000
0.005910 -0.012342 0.912000
0.033356 0.024574 0.903000
-0.018946 -0.023240 0.898000
-0.022049 0.002239 0.889000
-0.010898 -0.019324 0.905000
0.019560 0.017103 0.901000
-0.015828 -0.031791 0.910000
0.031532 0.013811 0.904000
0.021160 0.011604 0.906000
0.031834 0.001530 0.902000
-0.012580 -0.040805 0.919000
-0.003433 -0.013306 0.901000
0.010072 -0.044017 0.915000
0.024571 -0.003319 0.908000
0.017152 -0.033701 0.911000
0.000269 0.027177 0.879000
0.014607 -0.013527 0.916000
0.001804 -0.040647 0.924000
0.013255 0.008203 0.901000
-0.029466 -0.021617 0.892000
0.034356 0.005230 0.900000
0.021761 0.020047 0.900000
0.017190 -0.005216 0.913000
-0.001545 0.020009 0.882000
0.013838 -0.024057 0.915000
0.023797 -0.017501 0.907000
0.011550 0.027695 0.884000
0.004073 -0.028005 0.921000
0.002172 -0.025675 0.919000
0.022702 -0.014156 0.908000
-0.009156 -0.033923 0.917000
0.011189 -0.008983 0.914000
0.023771 -0.020837 0.906000
-0.018714 -0.002147 0.887000
-0.010910 -0.024566 0.906000
0.030822 0.014944 0.905000
0.001802 -0.035664 0.923000
-0.030302 -0.026110 0.895000
-0.022619 0.003048 0.912000
-0.035581 -0.033505 0.937000
-0.037428 -0.029073 0.907000
0.011006 0.005225 0.899000
-0.018597 -0.021046 0.899000
-0.023513 -0.009835 0.889000
-0.025004 -0.012777 0.890000
-0.013936 0.008786 0.885000
0.019360 -0.030634 0.909000
-0.023447 -0.037615 0.915000
-0.012549 -0.006550 0.890000
0.006982 -0.006660 0.905000
-0.027294 -0.021273 0.893000
0.020810 0.010497 0.907000
0.007460 -0.045672 0.918000
0.018568 0.031877 0.889000
0.017736 0.038247 0.884000
0.035798 0.006335 0.899000
0.011490 -0.001450 0.908000
-0.010526 -0.019324 0.905000
0.011537 0.047289 0.883000
-0.019315 -0.019175 0.898000
-0.004101 0.013521 0.885000
0.035546 0.027888 0.902000
0.042270 0.019568 0.895000
0.022527 0.020070 0.901000
0.025318 0.012004 0.908000
0.012842 0.014459 0.898000
-0.004911 -0.012920 0.900000
-0.005929 0.005878 0.886000
0.021207 -0.024994 0.908000
0.039041 0.002629 0.897000
-0.004226 -0.022101 0.912000
0.017902 -0.027326 0.911000
-0.007412 -0.000322 0.889000
0.007082 -0.044917 0.918000
0.015294 -0.035990 0.912000
0.037320 0.019306 0.900000
0.009105 0.011819 0.894000
0.004033 -0.013468 0.912000
0.002434 0.031447 0.877000
0.023398 -0.022329 0.906000
0.009642 -0.005199 0.910000
-0.012135 -0.033812 0.914000
-0.022883 -0.016128 0.893000
-0.003018 0.005526 0.888000
-0.013970 -0.031451 0.911000
0.011537 0.033115 0.883000
0.012870 0.007082 0.900000
-0.020933 0.005254 0.904000
0.026065 0.011256 0.908000
0.038060 0.021159 0.900000
0.012722 -0.036148 0.916000
0.005961 -0.039713 0.920000
0.007846 -0.033240 0.919000
0.003909 0.022238 0.884000
0.000989 0.032132 0.876000
-0.002385 -0.038448 0.926000
0.012305 -0.044296 0.913000
-0.007312 0.027837 0.877000
0.006361 -0.045161 0.923000
-0.011939 -0.044642 0.928000
0.016225 0.041380 0.881000
-0.010198 -0.029885 0.909000
0.013399 0.047814 0.886000
0.002808 0.026151 0.881000
0.021447 0.037646 0.887000
-0.002282 0.014630 0.886000
-0.014978 0.022550 0.882000
0.001730 0.018641 0.886000
0.030686 -0.012193 0.901000
0.020174 -0.002958 0.912000
0.038303 0.006690 0.897000
0.026065 0.009761 0.908000
0.007151 0.031916 0.880000
-0.015114 -0.007649 0.890000
0.022677 -0.028700 0.907000
0.002465 0.015394 0.888000
-0.029067 -0.013891 0.891000
-0.015739 0.029515 0.884000
0.038998 0.002994 0.896000
-0.005193 0.011335 0.885000
0.041948 0.024015 0.896000
-0.001182 0.021461 0.882000
0.020152 -0.015328 0.911000
-0.005777 -0.034412 0.920000
0.012736 -0.016561 0.917000
0.015345 -0.015019 0.915000
0.004244 0.042685 0.878000
0.024928 0.031688 0.894000
-0.000848 -0.020247 0.913000
-0.009564 -0.038956 0.920000
0.022847 0.022615 0.899000
0.025663 0.013484 0.907000
0.001393 -0.012234 0.904000
-0.010030 -0.009891 0.894000
0.023076 0.010509 0.908000
-0.001188 0.012442 0.886000
-0.006286 0.010607 0.885000
0.038018 0.017435 0.899000
-0.018227 -0.024746 0.899000
0.031567 0.016434 0.905000
-0.008453 0.013127 0.883000
-0.004460 0.015325 0.884000
-0.020928 -0.004707 0.888000
-0.014424 -0.038033 0.916000
0.014788 0.007486 0.904000
-0.009684 -0.012125 0.896000
0.026439 0.004529 0.908000
0.022796 0.025149 0.897000
0.039128 0.023725 0.899000
0.010072 -0.012383 0.915000
-0.030900 -0.017192 0.891000
0.007855 -0.027596 0.920000
0.038715 0.017046 0.898000
-0.005608 0.000044 0.893000
0.011224 0.021948 0.887000
-0.018804 0.025860 0.909000
0.016682 0.033957 0.886000
-0.025485 -0.019825 0.894000
-0.032404 -0.018312 0.892000
-0.010682 -0.001051 0.887000
-0.033543 -0.024581 0.893000
0.022177 0.043487 0.887000
0.006340 -0.038577 0.920000
0.019777 -0.011578 0.911000
-0.008766 0.030037 0.878000
-0.008846 0.004420 0.886000
-0.025053 -0.033479 0.905000
0.035175 0.022691 0.902000
0.006140 0.016913 0.891000
-0.017638 -0.003246 0.888000
-0.027631 -0.020148 0.892000
-0.027233 -0.017925 0.891000
-0.016504 0.000773 0.886000
-0.015572 -0.040339 0.917000
-0.031882 -0.031002 0.898000
0.025234 0.017924 0.905000
0.034726 0.002267 0.900000
-0.012394 0.022836 0.879000
0.014395 0.043506 0.880000
0.012613 0.035619 0.882000
-0.006236 0.021003 0.878000
-0.001212 -0.014466 0.904000
0.024395 0.042075 0.888000
0.023957 0.023725 0.899000
-0.007023 0.004055 0.886000
0.035917 0.027517 0.902000
0.001041 -0.030692 0.922000
0.024889 -0.014125 0.906000
-0.014598 0.020349 0.881000
-0.009963 -0.002149 0.888000
0.004456 -0.032590 0.922000
-0.027202 -0.014975 0.890000
-0.006163 -0.037103 0.921000
0.024944 -0.004813 0.908000
0.030754 0.024574 0.903000
0.020527 -0.007079 0.911000
0.008593 -0.018846 0.918000
-0.019882 -0.031686 0.907000
-0.014648 0.030970 0.884000
-0.008786 0.035538 0.880000
-0.001552 0.008796 0.886000
0.012928 0.003765 0.904000
0.002161 -0.018764 0.914000
0.014510 0.026329 0.887000
0.006071 0.045006 0.881000
0.001394 -0.012992 0.905000
-0.001917 0.011713 0.886000
0.023849 -0.001826 0.909000
-0.007362 0.013127 0.883000
0.011189 -0.045473 0.914000
0.028618 0.014215 0.906000
-0.018247 0.009305 0.900000
0.023849 0.009398 0.909000
-0.016504 0.008066 0.886000
0.036867 0.002632 0.898000
-0.023121 -0.005438 0.888000
0.008593 -0.037360 0.918000
0.028991 0.008994 0.906000
-0.024299 -0.013891 0.891000
0.008225 -0.032862 0.919000
0.015328 -0.006726 0.914000
0.009819 0.018401 0.892000
-0.010212 0.023894 0.878000
-0.028797 -0.023137 0.894000
0.029672 0.002277 0.904000
0.010447 0.027664 0.883000
-0.015671 -0.019981 0.901000
-0.020928 -0.005438 0.888000
-0.017598 0.002232 0.886000
0.022377 0.006038 0.910000
0.014575 -0.023278 0.914000
0.006326 -0.019602 0.918000
-0.006096 -0.023202 0.911000
-0.010340 -0.003981 0.889000
-0.011399 0.005514 0.886000
0.029737 0.010486 0.906000
-0.031302 -0.016844 0.892000
0.005961 -0.040849 0.920000
0.006781 0.044542 0.879000
-0.028797 -0.023873 0.894000
0.006434 0.026514 0.881000
0.031904 0.011951 0.904000
0.006959 -0.002925 0.902000
-0.002727 -0.022501 0.913000
0.011707 0.015164 0.896000
-0.025342 -0.005810 0.889000
-0.019685 -0.022871 0.898000
0.032576 0.007098 0.902000
-0.004971 -0.021702 0.911000
0.010749 0.043769 0.878000
-0.002626 0.023559 0.879000
-0.004064 0.026754 0.877000
0.012736 -0.017693 0.917000
0.020099 0.047404 0.892000
0.030754 -0.000327 0.903000
-0.027294 -0.020538 0.893000
-0.020928 -0.002515 0.888000
-0.018735 0.034399 0.888000
0.012627 0.033479 0.883000
0.010105 -0.021491 0.918000
0.005215 -0.033728 0.922000
0.024056 0.037731 0.889000
0.015345 -0.016902 0.915000
0.010969 0.014795 0.896000
0.012222 0.045317 0.880000
0.013733 0.033881 0.884000
-0.002259 0.027115 0.877000
0.022202 0.037689 0.888000
-0.024638 -0.012777 0.890000
0.003286 -0.015737 0.913000
0.005108 -0.006645 0.903000
0.021954 -0.022752 0.908000
0.023850 0.029882 0.895000
0.012208 0.044542 0.879000
-0.000854 -0.028701 0.919000
-0.029262 -0.028014 0.897000
0.011578 -0.041380 0.915000
0.026754 -0.007786 0.906000
0.008275 0.022965 0.884000
0.026281 0.040338 0.890000
0.023449 -0.012288 0.908000
-0.019466 0.026491 0.905000
0.001716 0.027900 0.879000
0.013056 -0.005967 0.913000
0.022402 0.026965 0.896000
0.018651 0.048192 0.893000
-0.007321 0.020280 0.878000
0.016027 -0.036325 0.911000
0.019734 -0.030634 0.909000
-0.018085 -0.010236 0.892000
0.010105 -0.023002 0.918000
0.007082 -0.044161 0.918000
-0.012046 0.016704 0.880000
0.019517 0.019655 0.899000
-0.003093 -0.018307 0.910000
-0.012785 0.026876 0.881000
0.014591 -0.018785 0.915000
0.007476 -0.031004 0.920000
0.035546 0.024918 0.902000
0.021979 -0.014172 0.909000
-0.005733 -0.026259 0.913000
0.029672 0.000045 0.904000
-0.005922 0.007329 0.885000
-0.011669 -0.045461 0.937000
0.014902 -0.041200 0.911000
0.022353 0.007902 0.909000
-0.021893 -0.037908 0.913000
0.018693 -0.002961 0.913000
0.033282 0.005236 0.901000
0.003322 -0.037564 0.923000
0.030416 0.000789 0.904000
-0.021389 -0.013907 0.892000
0.006434 0.027964 0.881000
-0.030167 -0.015358 0.891000
0.046167 0.019869 0.892000
-0.013090 -0.018147 0.902000
0.012736 -0.015429 0.917000
-0.000456 0.022187 0.882000
0.013505 0.050765 0.893000
0.019755 -0.020929 0.910000
0.028121 0.024176 0.902000
-0.012785 0.016361 0.881000
-0.000857 -0.034144 0.923000
-0.025713 -0.030769 0.902000
0.029606 0.026403 0.902000
-0.016413 -0.024801 0.901000
-0.018348 0.000044 0.887000
-0.021437 -0.015410 0.894000
0.011981 -0.019581 0.917000
-0.009608 -0.002517 0.889000
-0.013936 0.012792 0.885000
0.033690 0.028631 0.902000
0.014543 -0.038617 0.912000
-0.013046 -0.015126 0.899000
0.031091 -0.004039 0.902000
0.011110 0.039794 0.878000
0.001367 0.013186 0.887000
0.016606 0.040338 0.882000
-0.003850 -0.021726 0.912000
-0.019009 -0.028139 0.901000
0.001767 -0.012620 0.905000
-0.015317 -0.021859 0.902000
-0.009128 0.023171 0.878000
0.017843 0.005651 0.908000
0.023664 0.042806 0.888000
-0.026426 -0.030364 0.901000
0.013853 -0.014658 0.916000
0.010620 -0.048183 0.930000
-0.000471 -0.017203 0.911000
0.026724 0.019041 0.905000
0.025549 0.038506 0.890000
-0.016158 -0.000321 0.887000
0.044748 0.021729 0.893000
0.010458 0.029515 0.884000
0.012694 -0.036445 0.914000
0.016777 -0.040075 0.911000
-0.001982 -0.025214 0.916000
-0.022074 -0.011678 0.890000
-0.029834 -0.021984 0.892000
-0.028700 -0.012791 0.891000
-0.019809 0.029615 0.887000
-0.002709 -0.016007 0.907000
0.001718 0.026846 0.880000
-0.012122 -0.031896 0.913000
0.014215 -0.011253 0.915000
0.028461 0.026003 0.901000
-0.019100 0.032572 0.888000
0.016738 0.025657 0.889000
-0.026103 -0.005817 0.890000
-0.003490 -0.027476 0.916000
-0.025795 -0.017578 0.892000
-0.004591 -0.020555 0.910000
0.008584 -0.042981 0.917000
0.005845 -0.004039 0.902000
-0.003338 0.034656 0.876000
0.013056 -0.042042 0.913000
-0.026133 -0.015358 0.891000
-0.002769 -0.038489 0.927000
-0.007371 0.010959 0.884000
-0.010549 -0.028700 0.907000
-0.004780 0.030690 0.876000
0.024083 0.035942 0.890000
0.002830 0.011008 0.888000
-0.019079 0.030345 0.887000
-0.000454 0.036861 0.877000
-0.020174 -0.001782 0.887000
-0.007629 -0.030459 0.915000
0.025886 0.039561 0.889000
-0.025911 -0.022820 0.896000
0.009013 0.022627 0.885000
-0.013148 -0.029041 0.906000
-0.017598 0.004784 0.886000
0.029672 0.021253 0.904000
0.005955 -0.043074 0.919000
0.003931 0.012484 0.889000
0.016814 -0.002585 0.913000
0.025011 0.027733 0.897000
-0.006590 0.032168 0.877000
0.024223 0.001541 0.909000
-0.026514 -0.033442 0.904000
-0.005507 0.033251 0.877000
0.000280 -0.022952 0.916000
0.033578 -0.006246 0.899000
0.003517 0.039027 0.877000
-0.024013 -0.019089 0.894000
0.019006 -0.024675 0.910000
0.026323 -0.020791 0.904000
0.013099 -0.012019 0.916000
0.002964 -0.042442 0.930000
0.006726 -0.029522 0.921000
-0.018075 -0.034038 0.910000
-0.004955 -0.018267 0.908000
0.010471 -0.016184 0.917000
-0.033948 -0.026449 0.894000
-0.013889 0.026544 0.882000
-0.018735 0.035861 0.888000
0.019755 0.005288 0.910000
0.040149 0.018873 0.897000
0.005034 0.016894 0.890000
0.007257 0.008498 0.893000
-0.011096 -0.006924 0.891000
0.002836 0.009202 0.890000
0.022328 -0.019762 0.908000
-0.007173 -0.017089 0.905000
0.001823 -0.041855 0.934000
0.027500 0.000045 0.906000
0.039780 0.013704 0.897000
0.026410 -0.002942 0.907000
-0.029099 -0.020882 0.892000
0.008285 0.022263 0.885000
0.010483 -0.029426 0.918000
-0.006590 0.023506 0.877000
0.002161 -0.019140 0.914000
-0.009748 -0.015919 0.902000
0.024138 0.045568 0.892000
-0.008730 -0.029984 0.912000
0.017123 0.026418 0.890000
0.019599 0.044532 0.886000
-0.016228 -0.043731 0.933000
0.014788 0.008230 0.904000
0.039824 0.022960 0.898000
0.010140 0.050115 0.888000
-0.018819 -0.011337 0.892000
0.004684 0.007027 0.893000
-0.016395 -0.019218 0.900000
0.021652 -0.003705 0.911000
-0.012388 -0.022677 0.905000
0.007849 0.042636 0.877000
0.028524 0.023087 0.903000
-0.018490 -0.036740 0.912000
0.040473 0.013689 0.896000
0.031392 0.030419 0.900000
0.023325 0.037365 0.889000
0.003311 -0.026082 0.920000
-0.010910 -0.023820 0.906000
-0.017331 -0.009124 0.891000
-0.026470 -0.013143 0.890000
0.011981 -0.047132 0.917000
0.034394 0.007832 0.901000
0.005407 0.015813 0.891000
-0.011047 -0.000321 0.887000
-0.018714 0.001504 0.887000
-0.012115 0.006600 0.885000
-0.012507 -0.000686 0.887000
0.023076 -0.013409 0.908000
0.023771 0.014588 0.906000
0.032205 0.000045 0.902000
-0.010621 0.014201 0.882000
0.020902 0.000045 0.911000
0.023126 0.001543 0.910000
0.004668 0.011766 0.890000
-0.005009 -0.030937 0.918000
0.010749 0.038348 0.878000
0.032205 0.000416 0.902000
-0.022415 -0.008006 0.889000
0.026065 0.009388 0.908000
0.041579 0.006682 0.896000
0.014215 -0.008993 0.915000
0.000272 0.008450 0.888000
0.007306 0.000784 0.899000
0.007476 -0.029490 0.920000
-0.025940 -0.003278 0.897000
-0.012032 0.020665 0.879000
-0.018044 -0.007282 0.890000
-0.012770 0.022137 0.880000
0.020925 -0.002582 0.912000
0.001001 0.013186 0.887000
-0.010212 0.022087 0.878000
-0.028700 -0.011324 0.891000
0.011186 0.029151 0.884000
-0.010922 -0.027953 0.907000
0.034099 0.016398 0.903000
0.018177 0.008248 0.906000
0.019777 -0.013453 0.911000
0.022949 0.018256 0.903000
-0.028029 -0.021641 0.893000
0.021557 0.011244 0.907000
0.033245 -0.002178 0.900000
0.022353 -0.011927 0.909000
-0.018265 -0.043625 0.939000
-0.014946 -0.021117 0.902000
0.028214 -0.000328 0.905000
0.031869 0.007849 0.903000
0.014808 0.035659 0.883000
0.018036 0.017805 0.899000
0.011955 -0.037615 0.915000
0.014184 -0.044672 0.913000
0.032540 -0.005518 0.901000
0.014892 0.023435 0.888000
0.019919 0.042249 0.884000
-0.011856 -0.010615 0.893000
-0.004829 0.010971 0.885000
0.028991 0.015706 0.906000
-0.001181 0.022525 0.881000
-0.013909 -0.029820 0.907000
0.013717 0.003031 0.907000
-0.003846 -0.021327 0.911000
0.020459 -0.031721 0.908000
0.042222 0.009979 0.894000
0.012932 0.040925 0.879000
-0.011949 -0.015513 0.900000
-0.022617 -0.022476 0.897000
-0.010223 0.028986 0.879000
-0.006959 0.035096 0.878000
-0.018535 -0.015444 0.896000
-0.020174 0.002599 0.887000
0.041948 0.021802 0.896000
0.028735 0.031460 0.898000
0.010749 0.042323 0.878000
-0.033138 -0.020148 0.892000
-0.014478 -0.013600 0.896000
0.013373 -0.000703 0.909000
0.012932 0.043819 0.879000
0.011110 0.043408 0.878000
0.012345 -0.012019 0.916000
-0.006650 0.007693 0.885000
-0.018227 -0.021046 0.899000
0.029704 0.004887 0.905000
-0.008034 0.023145 0.877000
-0.008318 -0.025368 0.908000
0.045432 0.019135 0.892000
0.017824 0.006391 0.907000
-0.027332 -0.035509 0.919000
0.003156 0.039027 0.877000
0.013581 0.014828 0.898000
-0.027998 -0.019781 0.892000
0.017209 -0.008983 0.914000
-0.019641 -0.016551 0.896000
-0.034278 -0.019803 0.893000
0.040796 0.006675 0.895000
0.016317 0.033957 0.886000
-0.006906 -0.035131 0.919000
-0.019854 -0.007640 0.889000
0.012899 0.004871 0.902000
-0.030235 -0.022744 0.893000
0.042638 0.008517 0.895000
0.043006 0.022883 0.895000
0.004784 -0.012717 0.912000
-0.012785 0.025788 0.881000
-0.014440 -0.039206 0.917000
0.011720 0.012597 0.897000
0.012049 0.018074 0.894000
-0.030602 -0.023479 0.893000
0.026065 0.008640 0.908000
0.005696 0.031518 0.879000
-0.009439 -0.028358 0.908000
0.028927 -0.017071 0.904000
0.027903 0.014604 0.907000
0.039041 0.011489 0.897000
-0.002620 0.035778 0.877000
0.036990 0.026745 0.901000
0.018673 -0.000330 0.912000
-0.018967 -0.021416 0.899000
-0.003110 -0.025563 0.915000
-0.010766 -0.010627 0.894000
-0.004064 0.025310 0.877000
-0.029067 -0.016092 0.891000
0.024223 0.002664 0.909000
0.025318 0.011630 0.908000
-0.000823 0.010619 0.886000
-0.002264 0.023559 0.879000
-0.017896 -0.027768 0.901000
0.031462 -0.002554 0.902000
-0.016448 0.024030 0.883000
0.007143 0.044542 0.879000
-0.009884 0.015273 0.881000
0.040887 0.020350 0.897000
0.022227 0.045049 0.889000
-0.030970 -0.023111 0.893000
-0.018692 0.027029 0.886000
0.038998 0.003363 0.896000
0.019402 -0.018703 0.911000
0.038931 0.011566 0.903000
-0.027451 -0.036044 0.923000
0.011927 0.030641 0.885000
-0.031776 -0.027952 0.895000
0.029332 0.020531 0.905000
0.027780 -0.018167 0.903000
0.023664 0.039516 0.888000
-0.010862 -0.016290 0.902000
0.042590 0.015498 0.894000
0.015916 0.035336 0.884000
0.023126 0.002292 0.910000
0.035798 0.002264 0.899000
0.030348 -0.012578 0.902000
0.010483 -0.034337 0.918000
0.007159 0.031227 0.881000
0.024165 0.032755 0.893000
0.020527 -0.007829 0.911000
0.020459 -0.027984 0.908000
0.010072 0.032352 0.882000
-0.002724 -0.021351 0.912000
0.019754 0.047825 0.893000
0.020505 -0.019431 0.910000
-0.021293 0.002968 0.888000
0.008603 -0.029079 0.919000
0.023126 0.006038 0.910000
-0.007312 0.024588 0.877000
-0.001184 0.020032 0.883000
0.034099 0.025317 0.903000
0.008629 0.023666 0.883000
0.006147 0.009222 0.892000
0.006959 -0.003297 0.902000
0.013329 0.003401 0.906000
0.037606 0.007067 0.898000
0.020152 -0.012328 0.911000
-0.028700 -0.016825 0.891000
-0.017618 0.032900 0.887000
0.031125 0.003761 0.903000
0.020031 0.033340 0.889000
0.012426 -0.047389 0.922000
0.005034 0.011766 0.890000
0.020086 -0.031347 0.908000
0.021930 -0.029073 0.907000
0.016814 -0.002961 0.913000
0.042270 0.017726 0.895000
-0.009066 -0.023873 0.908000
-0.010277 -0.033509 0.916000
-0.013192 0.011323 0.884000
0.009319 -0.012383 0.915000
0.019360 -0.027266 0.909000
-0.024490 -0.025828 0.898000
0.000268 0.033935 0.876000
0.007395 -0.008569 0.910000
-0.014623 -0.029009 0.905000
-0.017350 -0.010603 0.892000
-0.024326 -0.016110 0.892000
0.009258 -0.004819 0.909000
-0.011347 0.033441 0.882000
0.009473 0.052662 0.894000
-0.015757 0.033190 0.885000
-0.014219 -0.023742 0.903000
0.025318 -0.002945 0.908000
-0.002274 0.018215 0.883000
0.015552 0.035700 0.884000
0.024327 0.024835 0.899000
0.004418 -0.015755 0.914000
0.030822 0.009729 0.905000
0.011720 0.011489 0.897000
0.020482 -0.023899 0.909000
-0.003471 -0.020202 0.911000
-0.018206 -0.017696 0.898000
0.039780 0.014443 0.897000
-0.006149 -0.033618 0.919000
0.022027 0.002295 0.911000
-0.023011 -0.025458 0.898000
-0.001231 -0.027159 0.918000
0.019690 0.009377 0.907000
0.008776 0.004110 0.898000
-0.028333 -0.011324 0.891000
0.013099 -0.013150 0.916000
0.014968 -0.009746 0.915000
-0.009056 -0.025713 0.907000
0.004825 -0.025324 0.920000
-0.004646 -0.035587 0.921000
0.001784 -0.019517 0.914000
-0.008876 -0.002883 0.889000
0.017171 -0.023978 0.912000
0.020121 0.027977 0.893000
-0.019831 -0.005073 0.888000
0.002942 -0.034144 0.923000
-0.001593 -0.016417 0.909000
0.005395 0.018705 0.889000
-0.006635 0.013490 0.883000
0.019006 -0.024300 0.910000
0.021058 0.043438 0.886000
0.018079 0.040747 0.883000
0.011165 -0.006336 0.912000
0.027596 0.030318 0.897000
-0.001612 -0.029868 0.920000
0.038801 0.025604 0.900000
-0.001236 -0.032969 0.922000
0.005589 -0.034829 0.921000
-0.005164 0.019602 0.880000
0.014215 -0.022551 0.915000
0.018756 0.020003 0.898000
-0.018735 0.025993 0.888000
0.007159 0.028689 0.881000
-0.039398 -0.026280 0.927000
0.019732 0.025009 0.892000
0.002938 -0.029933 0.922000
0.002135 -0.009990 0.903000
0.007838 -0.043027 0.918000
-0.026072 -0.038149 0.928000
0.025635 -0.008532 0.906000
0.001414 -0.024136 0.918000
-0.016869 0.007337 0.886000
0.038844 0.013765 0.901000
0.032612 -0.010733 0.903000
0.004605 0.032205 0.878000
-0.026103 -0.009480 0.890000
-0.035460 -0.026110 0.895000
0.005204 -0.041985 0.920000
0.031939 0.016434 0.905000
0.000636 0.015742 0.887000
0.044748 0.017686 0.893000
0.005051 0.007027 0.893000
0.003935 0.013597 0.890000
0.029639 -0.004787 0.903000
-0.002269 0.020712 0.881000
0.010083 -0.043688 0.916000
0.028959 0.019041 0.905000
0.044013 0.016584 0.893000
-0.006308 0.002237 0.888000
0.002085 0.024729 0.882000
0.017942 -0.007846 0.913000
0.022402 0.001920 0.911000
0.005468 -0.004035 0.901000
0.022205 0.017141 0.903000
0.033690 0.027517 0.902000
0.017152 -0.039325 0.911000
0.013270 0.006356 0.902000
-0.001895 0.034295 0.876000
-0.006650 0.009150 0.885000
0.020108 -0.026892 0.909000
0.021207 -0.023873 0.908000
0.032240 0.009336 0.903000
-0.018369 -0.004707 0.888000
0.018297 -0.002207 0.912000
-0.002649 0.006980 0.887000
0.032612 0.024946 0.903000
0.005702 0.031192 0.880000
-0.006471 -0.023202 0.911000
-0.012416 -0.029446 0.907000
-0.004785 0.024227 0.877000
0.002506 -0.006274 0.903000
0.000665 -0.040016 0.927000
-0.024244 -0.009103 0.889000
0.010822 0.026604 0.884000
0.036867 0.006328 0.898000
-0.017983 0.008440 0.887000
-0.019809 -0.001416 0.887000
-0.026866 -0.016092 0.891000
0.043278 0.012173 0.893000
0.006828 0.022263 0.885000
-0.030268 -0.025345 0.894000
0.025262 0.015333 0.906000
0.014368 0.011540 0.901000
-0.010333 -0.040515 0.921000
-0.020811 -0.040627 0.915000
-0.033175 -0.024214 0.893000
0.006405 0.040831 0.877000
-0.004791 0.023532 0.878000
0.005774 0.010312 0.891000
0.012318 -0.037573 0.914000
-0.008587 -0.012877 0.897000
-0.013936 0.005143 0.885000
-0.003089 -0.017539 0.909000
0.020121 0.025405 0.893000
-0.024860 -0.025458 0.898000
-0.033730 -0.030632 0.898000
0.028618 0.016452 0.906000
0.011135 0.045680 0.880000
-0.006643 0.012414 0.884000
-0.026470 -0.009114 0.890000
0.017027 0.036469 0.885000
0.032984 0.010451 0.903000
0.007846 -0.020758 0.919000
-0.006846 -0.026577 0.911000
0.021557 -0.028326 0.907000
-0.014817 -0.040339 0.917000
0.005774 0.016180 0.891000
0.017008 0.036791 0.884000
0.042638 0.016989 0.895000
0.024450 0.036308 0.890000
-0.013967 0.000409 0.887000
-0.026836 -0.006916 0.890000
0.002078 0.028262 0.879000
0.004600 0.041914 0.877000
-0.011031 -0.034263 0.916000
-0.015300 -0.019610 0.901000
0.008962 -0.038829 0.917000
0.022923 0.018978 0.902000
0.014168 -0.002958 0.912000
0.016348 0.004529 0.908000
-0.001976 -0.022126 0.913000
0.016719 0.031476 0.888000
0.002462 0.017567 0.887000
-0.010176 -0.021980 0.907000
-0.022049 -0.009835 0.889000
0.006333 -0.040427 0.919000
0.029704 0.006749 0.905000
-0.030636 -0.025345 0.894000
0.009339 -0.039206 0.917000
-0.020447 -0.027336 0.899000
0.030010 -0.014822 0.903000
0.014952 -0.007102 0.914000
0.007488 0.036861 0.877000
0.010483 -0.017713 0.918000
-0.019663 -0.018046 0.897000
0.016280 0.036427 0.884000
0.011186 0.027332 0.884000
0.011202 -0.042134 0.915000
-0.005915 0.013870 0.884000
0.005754 0.020511 0.888000
-0.004465 0.009878 0.885000
0.031869 0.008593 0.903000
-0.014062 -0.038829 0.917000
0.030416 0.002649 0.904000
0.026439 0.008640 0.908000
-0.025766 -0.016458 0.891000
0.028183 0.022369 0.904000
0.008971 -0.020358 0.918000
0.036990 0.024890 0.901000
0.009896 0.003745 0.899000
0.018693 -0.004840 0.913000
0.004077 -0.031451 0.922000
0.009720 0.025483 0.883000
0.003199 0.015412 0.889000
-0.032180 -0.028720 0.896000
0.026037 -0.001448 0.907000
0.028618 0.008621 0.906000
-0.012016 -0.023049 0.905000
0.019274 0.011592 0.905000
0.001043 -0.038365 0.924000
0.038672 0.009643 0.897000
0.013324 0.045732 0.881000
0.033020 0.023113 0.904000
-0.011151 -0.044546 0.926000
-0.007321 0.032205 0.878000
0.045851 0.015113 0.893000
0.043694 0.022121 0.894000
0.044013 0.015481 0.893000
0.014690 0.015568 0.898000
0.027500 -0.003684 0.906000
0.021207 -0.023126 0.908000
-0.025008 -0.036942 0.917000
0.018526 0.046043 0.887000
0.001038 -0.026810 0.919000
0.024917 -0.011154 0.907000
0.028959 0.000417 0.905000
0.017856 0.047298 0.890000
-0.003372 0.013157 0.885000
-0.009356 -0.014772 0.900000
-0.020562 -0.005804 0.888000
0.025520 0.039561 0.889000
0.026783 0.001538 0.907000
0.021277 0.002295 0.911000
0.027811 0.020881 0.904000
0.015623 0.029283 0.888000
-0.013640 -0.035316 0.914000
0.004278 0.022263 0.885000
0.026410 -0.001822 0.907000
-0.014397 -0.009857 0.891000
-0.017876 -0.019958 0.900000
0.018137 0.011951 0.904000
0.005198 -0.023027 0.919000
0.019799 -0.001832 0.912000
0.006106 0.021559 0.886000
0.012035 0.019524 0.893000
-0.027264 -0.019047 0.892000
-0.017273 -0.003976 0.888000
0.003697 -0.031072 0.922000
0.033986 -0.001067 0.900000
0.014145 0.047868 0.887000
-0.029834 -0.021617 0.892000
-0.011047 0.001504 0.887000
0.009738 -0.023784 0.919000
0.019278 0.034765 0.888000
0.041948 0.021433 0.896000
0.021737 0.022245 0.899000
-0.013920 0.013506 0.884000
0.034842 0.022344 0.903000
-0.024272 -0.001788 0.890000
0.014480 0.001913 0.908000
0.012318 -0.043216 0.914000
0.013982 0.012639 0.900000
0.025324 0.030987 0.895000
-0.029834 -0.021250 0.892000
-0.014623 -0.028636 0.905000
0.016989 0.038203 0.883000
-0.010176 -0.021607 0.907000
-0.000455 0.024673 0.880000
0.023424 -0.021234 0.907000
-0.022415 -0.008372 0.889000
0.014992 0.050454 0.894000
-0.005935 0.002964 0.887000
-0.012101 0.009140 0.884000
0.012670 0.028487 0.886000
-0.025997 -0.028076 0.899000
0.021979 -0.017539 0.909000
0.045065 0.016198 0.892000
0.017077 0.006764 0.907000
0.016045 -0.027732 0.912000
0.028027 0.028905 0.899000
0.004831 -0.041273 0.921000
-0.013461 -0.018889 0.902000
-0.005771 -0.033240 0.919000
0.007769 -0.007820 0.910000
-0.007696 -0.040603 0.923000
-0.003846 -0.020202 0.911000
0.022027 -0.002955 0.911000
-0.003093 -0.018682 0.910000
0.006882 0.016198 0.892000
0.004413 -0.014610 0.913000
0.016045 -0.029609 0.912000
-0.006322 -0.000322 0.890000
-0.012872 0.002599 0.887000
0.027067 -0.017071 0.904000
-0.013873 0.024338 0.881000
0.020459 -0.032095 0.908000
0.016796 -0.025480 0.912000
-0.027909 -0.031847 0.901000
-0.010984 0.036708 0.882000
-0.019831 -0.005438 0.888000
0.044748 0.020994 0.893000
0.005023 0.019780 0.888000
-0.002359 -0.025968 0.916000
0.012359 -0.017693 0.917000
-0.009759 -0.016308 0.903000
-0.006136 -0.031281 0.917000
-0.025656 -0.028849 0.900000
-0.018903 -0.015813 0.896000
0.011903 -0.004454 0.911000
0.017190 -0.005592 0.913000
0.019887 0.019285 0.899000
-0.013222 0.003690 0.886000
-0.020300 -0.035123 0.909000
-0.011296 -0.029073 0.907000
-0.026837 -0.035355 0.915000
0.032240 0.006734 0.903000
0.026724 0.018296 0.905000
-0.014664 0.006964 0.885000
-0.032072 -0.023479 0.893000
-0.021293 0.000409 0.888000
-0.024721 -0.017965 0.893000
0.027318 0.025974 0.900000
-0.004101 0.008057 0.885000
0.001786 -0.020668 0.915000
0.021495 0.034438 0.889000
-0.024174 -0.028108 0.900000
0.012584 0.038436 0.880000
0.013655 0.042733 0.879000
0.036867 0.007806 0.898000
-0.016907 -0.002515 0.888000
-0.011695 -0.030259 0.909000
0.024917 0.013484 0.907000
-0.021683 -0.009103 0.889000
0.016964 0.014136 0.901000
-0.009850 0.023532 0.878000
0.014758 0.040247 0.880000
0.002445 0.025788 0.881000
0.039913 0.027456 0.900000
-0.005533 0.018174 0.881000
0.015975 0.003782 0.908000
0.008462 -0.003676 0.904000
-0.007682 0.032567 0.878000
0.016045 -0.027356 0.912000
0.034318 -0.005136 0.899000
0.008571 0.040831 0.877000
0.027157 0.004151 0.907000
-0.001904 0.022862 0.880000
-0.012974 -0.012466 0.894000
0.001424 -0.036083 0.924000
0.006587 -0.004039 0.902000
-0.011458 -0.040849 0.920000
-0.025145 -0.020953 0.895000
-0.030201 -0.019047 0.892000
-0.024777 -0.020953 0.895000
0.013339 0.036345 0.882000
0.024983 0.029915 0.896000
-0.036156 -0.023137 0.894000
0.031497 0.004876 0.903000
0.019777 -0.014953 0.911000
0.009452 0.051809 0.892000
0.023930 0.025547 0.898000
0.007488 0.037944 0.877000
0.037732 0.025261 0.901000
-0.007673 0.025671 0.877000
0.020086 -0.030600 0.908000
-0.015368 -0.029381 0.905000
0.022752 -0.002577 0.910000
0.019006 -0.027296 0.910000
0.042590 0.012923 0.894000
0.012332 -0.010876 0.915000
0.026813 0.008267 0.908000
0.040518 0.004475 0.897000
-0.027017 -0.024664 0.896000
-0.004813 0.017468 0.882000
0.016225 0.042106 0.881000
0.021207 -0.028731 0.908000
0.023482 0.029513 0.895000
-0.017681 -0.032878 0.909000
0.022003 0.004165 0.910000
-0.016176 -0.003976 0.888000
0.014215 -0.019538 0.915000
0.028618 0.003774 0.906000
-0.024610 -0.010933 0.889000
-0.022146 -0.034711 0.908000
0.023449 0.010883 0.908000
-0.012128 0.005149 0.886000
0.007090 -0.040805 0.919000
0.018505 0.036145 0.886000
0.007858 0.044130 0.878000
0.009775 0.021607 0.888000
-0.026987 -0.022794 0.895000
0.032540 -0.001810 0.901000
-0.027233 -0.006557 0.891000
-0.022122 -0.033553 0.907000
-0.016598 0.038916 0.891000
0.046586 0.020626 0.893000
-0.012135 -0.033435 0.914000
0.033690 0.027146 0.902000
0.015345 -0.012006 0.915000
-0.009196 -0.040136 0.921000
0.023025 -0.026058 0.906000
0.020369 0.013439 0.904000
0.031462 -0.002925 0.902000
0.042910 0.011070 0.893000
