-0.023508 0.022749 0.862000
-0.009944 0.035584 0.855000
-0.000452 -0.013267 0.874000
0.016391 -0.041349 0.890000
-0.019628 -0.018428 0.863000
0.001336 0.009321 0.867000
0.016042 -0.017925 0.891000
-0.023863 0.026297 0.862000
0.013500 0.048328 0.869000
-0.006094 0.045244 0.858000
0.000617 0.032961 0.860000
-0.011772 0.007476 0.860000
-0.011206 -0.026844 0.871000
0.015676 -0.033694 0.891000
0.002473 -0.039562 0.891000
0.029213 -0.020216 0.879000
0.002409 0.020049 0.868000
0.025682 -0.016655 0.882000
0.003106 0.033786 0.863000
0.018161 0.005520 0.887000
-0.003361 -0.034080 0.882000
0.010220 -0.038634 0.895000
0.000618 0.025912 0.861000
0.033440 0.005812 0.876000
0.000268 -0.015821 0.876000
0.028522 -0.018428 0.880000
-0.001889 -0.014329 0.873000
-0.011813 -0.008837 0.863000
0.012083 0.036567 0.870000
-0.021330 0.023404 0.860000
0.002406 0.011462 0.867000
0.010470 -0.003963 0.885000
0.020351 -0.000321 0.887000
-0.005855 -0.028047 0.875000
0.023531 -0.038843 0.883000
0.010269 0.029695 0.868000
-0.007726 -0.042114 0.883000
0.002456 -0.022904 0.885000
0.001336 0.015387 0.867000
0.004287 -0.023686 0.887000
-0.018165 -0.003501 0.861000
-0.006583 -0.024113 0.876000
-0.000443 0.040253 0.857000
0.035202 0.032095 0.875000
-0.018102 0.027587 0.858000
0.038671 0.026243 0.872000
-0.020480 -0.037512 0.869000
0.022804 0.028754 0.883000
0.013278 0.019557 0.878000
0.003457 0.031618 0.862000
0.011712 0.029729 0.869000
-0.013815 0.031010 0.855000
-0.000447 0.013200 0.864000
0.026408 -0.001772 0.882000
0.022491 -0.009427 0.885000
0.004200 0.010773 0.869000
-0.006279 -0.042525 0.884000
-0.017003 0.018363 0.856000
0.015916 0.010959 0.884000
0.005975 0.050001 0.867000
0.023193 0.018963 0.884000
0.039030 0.028755 0.872000
0.031384 0.035860 0.879000
0.026075 0.005495 0.883000
-0.012760 0.020804 0.855000
-0.019407 -0.034651 0.869000
0.027466 -0.020625 0.881000
-0.014203 -0.041561 0.879000
0.035882 0.027382 0.874000
0.016757 -0.034389 0.890000
0.017293 0.023224 0.880000
0.026771 0.011660 0.882000
0.022517 0.008796 0.886000
-0.012745 0.032028 0.854000
-0.007221 -0.010650 0.866000
0.012153 0.024172 0.875000
-0.012154 -0.004215 0.862000
-0.004835 -0.044445 0.886000
0.036601 0.025943 0.874000
0.036241 0.030260 0.874000
-0.019765 -0.035724 0.869000
0.020328 -0.037516 0.886000
0.013445 -0.007640 0.889000
-0.011405 0.010649 0.859000
0.016757 -0.011678 0.890000
0.009819 -0.026389 0.892000
0.024984 -0.021762 0.883000
-0.004105 -0.041892 0.886000
0.025013 0.010595 0.884000
-0.022470 -0.026952 0.863000
-0.024956 -0.018428 0.863000
-0.029677 -0.030967 0.866000
0.014592 -0.030428 0.892000
-0.002617 -0.017263 0.876000
0.028884 0.010185 0.880000
-0.021404 -0.023400 0.863000
0.012756 -0.022351 0.892000
-0.017102 0.007130 0.861000
-0.018433 0.016268 0.857000
0.028554 0.013097 0.881000
0.012961 0.009834 0.881000
0.009282 0.004370 0.876000
-0.030068 -0.032430 0.867000
0.015482 0.020688 0.880000
0.020351 -0.002147 0.887000
-0.001870 0.015334 0.864000
-0.016317 0.033199 0.857000
-0.000448 0.016064 0.865000
-0.001857 0.046656 0.858000
0.009105 -0.034911 0.894000
-0.007481 0.029602 0.855000
0.005961 0.035645 0.865000
0.019919 0.018963 0.884000
0.008911 0.004725 0.875000
0.008116 0.035727 0.867000
0.016757 -0.038418 0.890000
-0.024218 -0.018406 0.862000
0.026045 0.003674 0.882000
0.016569 0.022862 0.880000
-0.004480 -0.046007 0.888000
0.002738 0.043529 0.859000
0.022855 -0.016348 0.885000
0.011211 -0.005791 0.886000
-0.024658 0.034932 0.865000
-0.013326 -0.030001 0.869000
-0.002248 0.052862 0.873000
0.016989 0.014217 0.883000
-0.007851 0.022264 0.857000
0.002381 0.044891 0.858000
0.007445 0.013681 0.872000
-0.020838 0.001474 0.869000
0.005761 -0.025569 0.889000
-0.007824 0.033082 0.854000
-0.019362 -0.030289 0.867000
0.011698 0.040412 0.868000
0.003581 -0.040753 0.893000
0.002092 -0.024725 0.885000
-0.006809 0.020902 0.859000
0.036601 0.010115 0.874000
-0.006650 -0.045488 0.885000
-0.008357 -0.029061 0.873000
0.009912 0.037197 0.868000
-0.012366 -0.038218 0.877000
0.036601 0.033138 0.874000
-0.011759 0.010649 0.859000
-0.006229 -0.024141 0.877000
-0.013418 -0.035970 0.875000
0.031312 -0.005732 0.877000
0.011685 0.043221 0.867000
0.007965 -0.022667 0.890000
-0.015312 0.006414 0.860000
0.033079 0.003649 0.876000
0.011445 0.020955 0.876000
-0.010380 -0.006698 0.862000
0.005982 0.050416 0.868000
-0.006470 0.009611 0.861000
0.000986 0.052502 0.873000
0.009293 0.002570 0.877000
0.013890 0.049156 0.871000
0.039344 0.030156 0.871000
-0.005761 0.009965 0.861000
-0.009862 -0.037944 0.879000
-0.008527 0.028513 0.854000
0.011833 0.014859 0.878000
0.029279 0.022888 0.881000
0.006529 -0.039695 0.894000
-0.008527 0.028161 0.854000
-0.017042 0.033590 0.858000
0.009441 -0.024159 0.891000
0.005689 -0.008268 0.878000
-0.010284 0.032028 0.854000
-0.016650 0.026114 0.856000
0.014691 0.028166 0.876000
0.004595 -0.007168 0.876000
0.008483 0.025408 0.868000
0.022127 -0.011977 0.885000
-0.008586 0.010307 0.860000
-0.004791 -0.032480 0.878000
-0.017811 -0.009171 0.861000
0.009165 0.047749 0.865000
0.026378 -0.022075 0.881000
-0.013096 0.028513 0.854000
-0.024630 0.033470 0.864000
0.029575 -0.003213 0.879000
-0.000796 0.043428 0.857000
0.009643 0.013383 0.876000
0.026408 0.032352 0.882000
0.017675 0.023250 0.881000
0.018140 0.008796 0.886000
-0.008300 -0.014231 0.867000
0.021763 0.013521 0.885000
0.020237 0.026544 0.882000
-0.011405 0.011002 0.859000
0.027860 0.028359 0.882000
-0.017082 -0.002081 0.860000
-0.008395 -0.033526 0.877000
0.034842 0.031735 0.875000
0.024621 -0.031938 0.883000
0.029608 0.033727 0.880000
0.020716 -0.007988 0.887000
0.002409 0.008617 0.868000
-0.006478 0.001462 0.862000
-0.018165 -0.009880 0.861000
0.006051 -0.009352 0.878000
-0.009581 0.029216 0.854000
-0.022115 -0.025531 0.863000
0.034842 0.003645 0.875000
0.002406 0.010391 0.867000
-0.026377 -0.024466 0.863000
0.022752 0.033403 0.881000
0.016133 0.030690 0.876000
-0.016728 0.011015 0.860000
0.033839 -0.003205 0.877000
0.027104 -0.000682 0.881000
-0.004818 -0.037026 0.883000
0.013531 0.039118 0.871000
0.006009 0.016194 0.872000
0.030987 -0.003209 0.878000
-0.009190 -0.045072 0.884000
-0.015223 0.023620 0.855000
0.011313 -0.036751 0.894000
-0.015276 0.012402 0.858000
-0.003262 0.039501 0.856000
0.027104 -0.009022 0.881000
0.028191 0.008383 0.881000
-0.021379 -0.019471 0.862000
0.028159 -0.010822 0.880000
0.022102 0.023693 0.884000
0.021763 -0.022904 0.885000
0.013138 -0.034505 0.893000
0.028522 0.004028 0.880000
0.014209 -0.021226 0.891000
-0.012070 0.016249 0.856000
-0.005457 -0.012118 0.869000
0.037278 0.024476 0.873000
0.003581 -0.041121 0.893000
0.006009 0.015476 0.872000
0.029575 -0.003936 0.879000
-0.006872 -0.010306 0.867000
0.022491 0.018620 0.885000
-0.012745 0.028864 0.854000
-0.001505 0.033276 0.859000
-0.027538 0.027131 0.866000
-0.012101 -0.044345 0.884000
0.027466 0.011647 0.881000
0.002111 -0.046266 0.893000
-0.007656 -0.024806 0.875000
-0.012712 -0.036011 0.876000
0.000262 0.040653 0.858000
0.013826 -0.011678 0.890000
-0.020006 -0.024494 0.864000
0.029608 0.028657 0.880000
-0.016279 0.021156 0.855000
-0.012625 -0.021442 0.870000
0.019082 0.031880 0.879000
0.035882 0.025583 0.874000
-0.002933 0.018513 0.863000
0.027829 0.015273 0.881000
-0.010723 0.001106 0.861000
0.010871 -0.011286 0.888000
0.011927 -0.001049 0.885000
0.026741 -0.019900 0.881000
-0.024956 -0.030504 0.863000
-0.005862 -0.020868 0.876000
0.022855 -0.009063 0.885000
0.010871 -0.010555 0.888000
-0.004818 -0.037389 0.883000
0.005683 -0.007898 0.877000
-0.023863 -0.021599 0.862000
-0.011690 0.031676 0.854000
0.024649 0.018599 0.884000
0.029213 -0.006469 0.879000
-0.010154 -0.024390 0.873000
0.015826 0.022474 0.879000
-0.015330 -0.005273 0.861000
-0.012140 -0.001375 0.861000
-0.018081 0.017679 0.857000
-0.017261 -0.030001 0.869000
-0.018808 0.022643 0.858000
0.010639 0.035452 0.869000
0.029608 0.026121 0.880000
0.013248 0.024921 0.876000
0.022027 0.033403 0.881000
-0.020030 -0.025235 0.865000
0.004166 0.029844 0.862000
-0.004824 -0.038523 0.884000
-0.026732 -0.026597 0.863000
0.003156 -0.013673 0.877000
0.000978 0.013944 0.866000
-0.005058 0.006783 0.862000
0.024285 -0.010508 0.884000
-0.001152 0.031862 0.859000
0.017470 -0.042034 0.889000
-0.000448 0.021048 0.865000
0.018547 -0.039063 0.888000
0.016569 0.021413 0.880000
0.013842 -0.017559 0.891000
-0.002223 0.020289 0.863000
-0.011283 -0.035330 0.877000
0.029575 -0.014066 0.879000
0.030660 0.026453 0.879000
0.006368 0.017629 0.872000
-0.018292 -0.028504 0.867000
-0.001540 -0.029984 0.879000
0.032034 0.013399 0.877000
-0.026438 0.031016 0.865000
-0.018455 0.025821 0.858000
0.030660 0.030071 0.879000
0.010651 0.032986 0.870000
0.001365 -0.028400 0.886000
-0.024471 -0.039391 0.871000
0.006735 0.016212 0.873000
0.012814 0.030514 0.871000
-0.026732 -0.023755 0.863000
0.008737 -0.036383 0.894000
-0.005413 0.005010 0.862000
0.007094 0.006870 0.873000
0.032719 -0.003562 0.876000
0.027466 -0.007934 0.881000
0.038312 0.021218 0.872000
0.017313 0.021075 0.881000
-0.017997 -0.035048 0.870000
0.029246 0.006201 0.880000
0.009388 -0.009802 0.886000
0.006471 -0.017460 0.886000
0.019621 0.007710 0.887000
-0.015927 0.017989 0.855000
0.025348 0.023666 0.883000
0.022517 0.004784 0.886000
0.030987 0.015582 0.878000
0.004978 -0.013358 0.880000
-0.017003 0.016953 0.856000
-0.002626 -0.031793 0.879000
-0.026052 0.022801 0.864000
0.026741 -0.013010 0.881000
0.003120 0.011462 0.867000
-0.004460 -0.038887 0.884000
0.004166 0.048293 0.862000
-0.025312 -0.020203 0.863000
0.003931 0.008094 0.889000
0.024285 0.005137 0.884000
-0.005741 0.025821 0.858000
0.025348 0.001861 0.883000
0.014691 0.027084 0.876000
0.008463 0.037468 0.866000
0.021058 -0.018919 0.886000
0.003940 -0.036261 0.891000
0.039030 0.028396 0.872000
0.035202 0.011928 0.875000
-0.007023 -0.045904 0.886000
0.035202 0.032815 0.875000
0.009197 0.032910 0.868000
-0.014757 -0.027140 0.869000
0.003803 0.046765 0.860000
-0.014893 -0.040745 0.877000
0.011589 -0.006528 0.887000
0.035202 0.025613 0.875000
0.000264 0.050183 0.864000
0.039702 0.025496 0.871000
0.023867 0.030900 0.882000
0.021787 -0.018554 0.886000
-0.024274 0.033114 0.864000
-0.012437 0.014151 0.857000
0.005006 -0.017076 0.885000
-0.029633 -0.024753 0.886000
-0.016374 0.004290 0.860000
-0.007708 -0.038755 0.881000
-0.025667 -0.026242 0.863000
0.005051 -0.037078 0.893000
-0.012338 -0.034890 0.875000
-0.012183 -0.012404 0.864000
0.019851 0.027601 0.881000
-0.007533 0.013154 0.861000
-0.029287 -0.029863 0.865000
0.017195 0.035696 0.875000
-0.018519 0.000751 0.861000
-0.022825 -0.008127 0.863000
0.031348 0.030037 0.878000
-0.026082 0.031372 0.865000
-0.021503 -0.035641 0.867000
-0.028186 -0.026628 0.864000
-0.022062 -0.001757 0.875000
0.018891 -0.043400 0.887000
0.029246 0.004752 0.880000
0.037637 0.023039 0.873000
-0.010368 -0.001021 0.861000
-0.015241 0.015192 0.856000
0.025348 0.010946 0.883000
-0.016622 -0.038762 0.873000
0.019278 -0.012383 0.888000
0.021082 -0.000686 0.887000
0.031673 0.000043 0.877000
0.014314 0.029574 0.875000
-0.014383 -0.020321 0.868000
-0.008242 0.004295 0.861000
0.038671 0.023730 0.872000
0.005023 -0.026637 0.888000
0.023584 0.009878 0.885000
0.029608 0.026846 0.880000
-0.006279 -0.042889 0.884000
0.008163 0.012246 0.872000
0.000989 -0.014379 0.876000
0.013826 -0.012411 0.890000
0.004955 -0.005725 0.876000
0.000631 -0.017704 0.880000
0.039344 0.025854 0.871000
0.010364 0.008696 0.876000
0.010639 0.030802 0.869000
0.001691 0.013587 0.866000
0.015292 -0.010579 0.890000
0.020351 -0.003242 0.887000
0.008707 -0.023426 0.891000
0.026771 0.025455 0.882000
0.008932 0.000765 0.877000
0.009187 0.029661 0.867000
-0.016020 0.007830 0.860000
0.030660 0.016324 0.879000
0.013108 -0.018292 0.891000
-0.015684 -0.002084 0.861000
-0.004091 -0.035209 0.883000
-0.007346 -0.036579 0.881000
-0.011800 -0.007053 0.862000
-0.014151 0.023592 0.854000
0.000263 0.029387 0.859000
0.007938 -0.016750 0.887000
0.028522 -0.001405 0.880000
0.000617 0.034023 0.860000
0.032756 0.014482 0.877000
0.016757 -0.030360 0.890000
-0.001889 -0.013970 0.873000
0.016854 0.033574 0.876000
-0.002964 -0.015031 0.872000
0.018140 0.009890 0.886000
0.007741 0.039561 0.865000
0.003481 0.012189 0.868000
0.034482 0.011207 0.875000
-0.023891 0.029524 0.863000
0.010565 -0.030094 0.893000
0.020891 0.035860 0.879000
0.021398 -0.044031 0.885000
-0.001514 0.014267 0.864000
-0.013815 0.016934 0.855000
0.027134 0.015290 0.882000
-0.007533 0.006067 0.861000
0.016391 -0.039151 0.890000
0.032395 0.005458 0.877000
0.000272 -0.045062 0.891000
-0.002205 0.039149 0.856000
-0.007031 -0.046686 0.887000
0.009105 -0.036383 0.894000
0.003206 -0.037361 0.891000
0.012527 0.022397 0.876000
0.023921 -0.000320 0.884000
-0.008453 -0.043931 0.883000
-0.008626 -0.007069 0.864000
0.005376 -0.020377 0.886000
0.026438 0.024393 0.883000
0.030625 0.000766 0.878000
0.013906 0.049930 0.872000
-0.009956 0.020476 0.856000
-0.015561 -0.038087 0.874000
-0.007481 0.038048 0.855000
0.024285 0.013870 0.884000
-0.008016 -0.023365 0.875000
0.034122 0.005805 0.875000
-0.016374 0.001812 0.860000
-0.011564 -0.031145 0.871000
0.024257 -0.025760 0.883000
0.005413 -0.034099 0.892000
0.013430 -0.006535 0.888000
-0.017997 -0.033616 0.870000
0.037997 0.029507 0.873000
0.036919 0.026273 0.873000
0.007377 0.040226 0.864000
0.000264 0.023513 0.864000
0.027829 0.015998 0.881000
0.015137 0.017448 0.881000
0.018568 -0.009103 0.889000
0.029936 0.001129 0.879000
-0.027959 0.029338 0.868000
-0.010723 0.003232 0.861000
-0.005922 -0.044031 0.885000
-0.005182 -0.038116 0.883000
-0.017537 -0.019182 0.865000
0.021350 0.023303 0.883000
0.024621 -0.013403 0.883000
-0.005451 -0.011389 0.868000
0.000263 0.035438 0.860000
0.015359 0.037771 0.873000
-0.013896 0.006768 0.860000
0.029246 0.017066 0.880000
0.016682 0.007702 0.886000
0.022778 0.030174 0.882000
0.006758 -0.001038 0.876000
-0.008414 -0.034687 0.879000
0.021763 -0.038567 0.885000
0.024285 0.023693 0.884000
0.009566 0.025437 0.869000
0.003557 -0.026972 0.887000
-0.023180 0.033431 0.863000
0.030660 0.030795 0.879000
0.010737 0.006901 0.877000
-0.000460 -0.042814 0.890000
-0.002279 -0.035653 0.885000
-0.022799 -0.010601 0.862000
-0.005862 -0.026998 0.876000
0.018891 0.005885 0.887000
0.022027 0.031590 0.881000
0.013138 -0.039283 0.893000
0.010737 0.006541 0.877000
0.018202 -0.012762 0.889000
0.039702 0.026930 0.871000
-0.022904 -0.034174 0.866000
-0.011786 0.004295 0.861000
-0.017811 -0.003147 0.861000
-0.003994 0.009622 0.862000
-0.005728 0.040558 0.856000
0.022127 0.014249 0.885000
0.016531 0.027869 0.878000
0.005012 -0.020742 0.886000
0.015658 -0.015707 0.890000
-0.005815 -0.014621 0.869000
0.000999 -0.027639 0.885000
0.022855 -0.015255 0.885000
0.004278 -0.020719 0.885000
-0.001540 -0.019493 0.879000
-0.024601 -0.018072 0.863000
-0.018961 -0.024523 0.865000
0.004887 0.033114 0.864000
-0.028382 0.027973 0.870000
0.030660 0.035860 0.879000
0.016391 -0.029993 0.890000
0.019256 -0.036098 0.887000
-0.019228 -0.008108 0.861000
-0.021479 -0.032036 0.866000
0.010447 -0.001410 0.883000
0.022804 0.025483 0.883000
0.022778 0.029085 0.882000
-0.014284 -0.042889 0.884000
0.023220 0.018256 0.885000
0.017066 0.002599 0.887000
-0.013684 -0.021775 0.869000
0.002392 0.035521 0.862000
0.014948 0.044444 0.870000
-0.017436 0.001458 0.860000
0.010577 -0.037119 0.894000
-0.022799 -0.021954 0.862000
0.038671 0.024089 0.872000
0.017470 -0.007640 0.889000
0.012770 -0.038548 0.893000
0.006735 0.017290 0.873000
-0.009862 -0.038305 0.879000
-0.002936 0.017823 0.864000
0.009054 -0.019349 0.889000
0.020693 0.008066 0.886000
-0.002223 0.014250 0.863000
-0.013815 0.020453 0.855000
0.009533 0.041745 0.866000
-0.008909 0.019442 0.857000
0.017816 -0.042718 0.888000
-0.014009 -0.017086 0.867000
0.037637 0.023398 0.873000
-0.009500 -0.036135 0.879000
0.024649 0.008048 0.884000
0.017956 0.033251 0.877000
0.013490 -0.039239 0.892000
0.018891 -0.041940 0.887000
0.021422 0.002961 0.886000
0.005249 0.025676 0.865000
0.007885 -0.007934 0.881000
0.002465 -0.032850 0.888000
-0.002557 0.038797 0.856000
0.013906 0.035215 0.872000
0.031673 -0.003927 0.877000
0.022389 0.033040 0.881000
0.016391 -0.022667 0.890000
0.022491 -0.017805 0.885000
-0.024246 0.027037 0.863000
-0.011000 0.035584 0.855000
0.028554 0.029414 0.881000
0.006390 0.000763 0.875000
0.006507 -0.030394 0.891000
-0.012046 -0.041246 0.880000
0.010822 -0.001048 0.884000
-0.015666 0.009599 0.860000
0.021763 0.013885 0.885000
-0.027895 0.028914 0.866000
0.011354 0.030444 0.869000
-0.014167 0.017637 0.855000
-0.024956 -0.023045 0.863000
0.020693 0.010619 0.886000
0.017936 0.036098 0.876000
0.012713 -0.010933 0.889000
0.012870 -0.042554 0.900000
-0.022418 0.027329 0.861000
-0.004775 -0.018324 0.875000
0.014982 0.041316 0.872000
0.016335 0.004425 0.887000
-0.011617 -0.033809 0.875000
-0.018852 0.033669 0.860000
-0.003707 -0.021277 0.878000
0.002104 -0.036953 0.890000
0.015309 -0.025626 0.891000
0.012083 0.026183 0.870000
-0.005868 -0.032443 0.877000
0.020351 -0.012369 0.887000
-0.006575 -0.029488 0.875000
-0.001531 -0.015425 0.874000
0.011110 0.009078 0.878000
-0.008982 -0.007425 0.864000
0.004200 0.020430 0.869000
0.028884 0.008736 0.880000
-0.009435 -0.022234 0.873000
0.020693 -0.033870 0.886000
0.000616 0.046656 0.858000
-0.015666 0.001458 0.860000
0.011995 -0.014975 0.890000
0.018202 -0.008006 0.889000
-0.017707 0.019772 0.856000
0.006168 -0.040476 0.895000
0.021058 0.006972 0.886000
0.023557 0.020055 0.884000
0.009064 -0.020103 0.890000
-0.003008 -0.037474 0.885000
0.018721 0.029709 0.879000
0.035202 0.031735 0.875000
-0.000796 0.045897 0.857000
-0.016057 -0.007408 0.862000
-0.001552 -0.035328 0.886000
0.008191 0.004005 0.875000
0.012699 -0.008728 0.888000
-0.012140 0.002523 0.861000
0.012180 0.018452 0.877000
0.028522 0.008012 0.880000
-0.000445 0.048535 0.860000
0.002770 0.017568 0.869000
0.015309 -0.033327 0.891000
0.005644 0.015099 0.871000
0.011873 0.006570 0.881000
0.021787 0.007337 0.886000
-0.020646 -0.007045 0.861000
-0.005188 -0.039979 0.884000
-0.011077 0.005004 0.861000
-0.022496 -0.028406 0.864000
0.015274 -0.007274 0.889000
0.004239 -0.006454 0.877000
0.021398 0.016799 0.885000
-0.000447 0.021379 0.864000
0.028554 0.023613 0.881000
0.036241 0.018749 0.874000
0.006727 0.014399 0.872000
0.006412 -0.006823 0.878000
-0.003994 0.013524 0.862000
-0.020030 -0.026659 0.865000
0.015676 -0.021959 0.891000
-0.013188 0.006768 0.860000
-0.004389 0.050890 0.870000
0.009544 0.030374 0.867000
0.002392 0.033392 0.862000
0.027104 -0.014098 0.881000
-0.014167 0.026787 0.855000
-0.011690 0.032379 0.854000
0.021763 -0.033467 0.885000
0.027860 0.031626 0.882000
-0.016468 -0.046092 0.904000
0.002766 0.050773 0.868000
-0.003643 0.014606 0.863000
0.009555 0.025765 0.868000
0.024593 0.031989 0.882000
0.007241 -0.028927 0.891000
-0.017811 -0.006336 0.861000
-0.014151 0.023944 0.854000
-0.010489 -0.026844 0.871000
0.037997 0.028069 0.873000
-0.019675 0.016361 0.881000
0.018222 -0.031825 0.890000
-0.019251 -0.013794 0.862000
-0.014604 0.007830 0.860000
0.028159 -0.006476 0.880000
0.007893 -0.008669 0.882000
0.015292 -0.011678 0.890000
0.010626 0.029338 0.868000
0.010281 0.032233 0.869000
-0.021330 0.021634 0.860000
-0.003614 0.038797 0.856000
0.006681 0.032478 0.866000
0.000616 0.039947 0.858000
-0.007842 0.038444 0.856000
0.017123 -0.023400 0.890000
0.015309 -0.017925 0.891000
0.005689 -0.009352 0.878000
0.028917 0.027601 0.881000
0.008219 -0.003570 0.878000
0.011173 0.000407 0.883000
0.029213 -0.017322 0.879000
-0.002957 0.052322 0.870000
-0.009581 0.026755 0.854000
0.033079 0.003288 0.876000
0.000636 -0.030588 0.886000
0.008172 0.013697 0.873000
-0.015080 -0.020654 0.867000
0.028917 0.021075 0.881000
0.033117 0.031808 0.877000
0.013562 0.030225 0.873000
0.009676 -0.000318 0.879000
0.018442 0.019305 0.883000
0.024984 -0.019218 0.883000
-0.020646 0.034062 0.861000
-0.015946 0.025057 0.856000
0.027829 -0.026789 0.881000
0.004516 0.041150 0.861000
-0.014706 -0.017422 0.866000
0.019806 0.032965 0.879000
0.012799 0.039431 0.870000
-0.017221 -0.024222 0.867000
0.018222 -0.044279 0.890000
-0.010356 0.007476 0.860000
-0.019340 -0.026689 0.866000
-0.004424 -0.027750 0.877000
-0.013112 0.033121 0.855000
-0.005382 0.044838 0.857000
0.013609 0.024200 0.876000
0.024621 -0.023216 0.883000
-0.012745 0.026052 0.854000
0.015292 -0.014608 0.890000
0.012499 0.025224 0.874000
-0.027182 0.029983 0.866000
0.015068 0.027476 0.877000
-0.025621 0.022288 0.886000
0.021398 -0.039660 0.885000
0.010364 0.006894 0.876000
0.033593 -0.005752 0.880000
0.033839 -0.002844 0.877000
-0.002967 -0.016126 0.873000
0.025013 0.021874 0.884000
-0.014366 -0.018513 0.867000
-0.009230 0.032379 0.854000
0.038312 0.025166 0.872000
-0.027150 0.025676 0.865000
0.018848 0.012428 0.885000
0.017470 -0.018617 0.889000
0.038312 0.020859 0.872000
0.013152 -0.042271 0.894000
0.015535 0.012400 0.883000
-0.017831 -0.011310 0.862000
0.008107 0.028557 0.866000
-0.001505 0.027973 0.859000
0.007768 0.024693 0.868000
0.032034 0.014121 0.877000
-0.008557 0.020500 0.857000
-0.013096 0.026755 0.854000
-0.014267 -0.004210 0.861000
-0.014757 -0.029286 0.869000
-0.022444 -0.013439 0.862000
-0.004753 -0.015013 0.871000
0.031022 0.029709 0.879000
0.014741 0.021027 0.879000
0.000263 0.027619 0.859000
-0.001904 -0.027121 0.880000
0.025348 -0.002137 0.883000
0.019643 -0.013479 0.888000
0.023193 -0.034157 0.884000
-0.005058 0.006429 0.862000
-0.017375 0.023675 0.857000
-0.022140 -0.028050 0.864000
0.012727 -0.012044 0.890000
0.013173 0.036967 0.871000
-0.016279 0.022564 0.855000
-0.022063 0.028392 0.861000
0.031022 0.025730 0.879000
0.016024 -0.035854 0.890000
-0.001926 -0.046111 0.890000
0.007029 0.037069 0.865000
0.019577 0.016071 0.885000
0.033117 0.027115 0.877000
0.013309 0.015618 0.880000
0.029246 0.024673 0.880000
0.004637 -0.015601 0.884000
-0.023153 -0.014149 0.862000
0.017756 0.011700 0.885000
0.008551 0.005445 0.875000
-0.012070 0.037035 0.856000
0.000265 0.009310 0.866000
0.002754 0.049828 0.864000
0.031709 -0.011520 0.878000
0.023557 -0.015601 0.884000
0.017736 0.014233 0.884000
0.021787 -0.015272 0.886000
-0.016650 0.016249 0.856000
-0.015946 0.029989 0.856000
0.007741 0.027812 0.865000
-0.008242 0.003586 0.861000
-0.014058 -0.032184 0.870000
-0.017477 -0.010601 0.862000
0.006037 -0.003202 0.876000
0.001368 -0.035043 0.888000
-0.014139 -0.037051 0.875000
0.028554 0.014185 0.881000
-0.011737 -0.045072 0.884000
0.032034 -0.002483 0.877000
0.004526 0.035917 0.863000
-0.027538 0.024280 0.866000
0.019643 -0.005438 0.888000
0.019039 0.036500 0.877000
0.009912 0.036840 0.868000
-0.029287 -0.029507 0.865000
0.000265 0.022116 0.865000
0.035563 0.004725 0.875000
-0.002287 -0.041987 0.888000
0.024621 -0.011949 0.883000
0.014193 -0.011312 0.890000
0.008737 -0.036015 0.894000
0.011300 -0.031197 0.893000
0.031022 0.024644 0.879000
-0.006575 -0.027687 0.875000
0.026771 0.014201 0.882000
-0.019605 0.001462 0.862000
-0.009906 -0.044294 0.883000
-0.011690 0.022538 0.854000
0.029575 -0.001042 0.879000
-0.010501 -0.025439 0.872000
-0.017122 -0.011665 0.862000
-0.012834 0.005706 0.860000
-0.013112 0.019397 0.855000
-0.011759 0.010295 0.859000
-0.024029 -0.038183 0.868000
0.017352 0.017125 0.883000
-0.012183 -0.011692 0.864000
-0.000091 0.044133 0.857000
0.017123 -0.016440 0.890000
-0.016169 -0.024965 0.868000
0.006866 -0.027063 0.890000
0.004684 -0.038915 0.893000
-0.003376 -0.040434 0.886000
-0.020503 -0.038987 0.870000
0.032071 0.032567 0.878000
-0.001528 -0.012160 0.872000
0.023193 0.021146 0.884000
-0.016728 0.011369 0.860000
0.017695 0.020372 0.882000
0.028191 0.008021 0.881000
0.004176 0.025291 0.864000
0.023921 -0.010144 0.884000
-0.024246 -0.026242 0.863000
-0.010296 0.023268 0.855000
0.010871 -0.012748 0.888000
0.016719 0.001140 0.888000
0.018202 -0.024105 0.889000
0.024956 -0.035532 0.882000
0.000263 0.037165 0.859000
0.006727 0.019424 0.872000
0.021640 0.033003 0.880000
0.001741 -0.042910 0.892000
-0.005152 -0.032480 0.878000
0.026741 -0.015548 0.881000
-0.000460 -0.041302 0.889000
-0.000448 0.016439 0.866000
-0.000798 0.048125 0.859000
-0.024302 -0.033779 0.865000
-0.001514 0.008933 0.864000
-0.025341 -0.015960 0.864000
-0.014519 0.030658 0.855000
-0.014638 -0.008117 0.862000
-0.003639 0.008557 0.862000
0.013050 -0.003607 0.887000
-0.016298 0.024352 0.856000
0.002097 -0.030622 0.887000
-0.020670 -0.002441 0.862000
0.027829 0.022162 0.881000
-0.021379 0.034457 0.862000
0.028191 0.023613 0.881000
0.012888 0.023479 0.876000
-0.003349 -0.026367 0.879000
0.020351 0.001504 0.887000
0.006044 -0.006454 0.877000
-0.007525 0.008891 0.860000
0.009452 -0.025288 0.892000
-0.002233 0.051428 0.867000
0.027466 0.005483 0.881000
0.027104 -0.005758 0.881000
-0.018081 0.022264 0.857000
0.016024 -0.035488 0.890000
-0.017395 0.033944 0.858000
0.027797 -0.009736 0.880000
0.011712 0.027941 0.869000
-0.005407 0.009611 0.861000
-0.019960 0.002881 0.862000
0.006704 0.050474 0.869000
-0.020315 -0.019116 0.862000
-0.001500 0.043025 0.856000
0.010896 -0.017905 0.890000
0.003167 -0.015531 0.880000
-0.012611 -0.028928 0.869000
-0.030068 -0.032073 0.867000
0.028522 0.007287 0.880000
0.006106 0.006243 0.886000
-0.001197 -0.048104 0.893000
-0.005564 -0.045174 0.886000
0.009643 0.015186 0.876000
0.008688 -0.020080 0.889000
-0.020386 -0.025947 0.865000
-0.010130 -0.019315 0.871000
0.030298 0.010173 0.879000
0.030987 -0.001763 0.878000
-0.017935 -0.025650 0.867000
-0.024358 -0.036712 0.867000
0.039702 0.027288 0.871000
-0.006116 0.015281 0.861000
-0.006173 -0.013548 0.869000
0.014177 -0.007274 0.889000
0.033800 0.015907 0.876000
0.027134 0.006578 0.882000
0.008532 0.021242 0.873000
-0.011564 -0.020391 0.871000
0.023894 -0.037753 0.883000
-0.019206 0.034023 0.860000
0.016006 -0.006908 0.889000
-0.010037 -0.007772 0.863000
0.013780 -0.002877 0.887000
-0.000460 -0.040205 0.889000
0.013108 -0.020126 0.891000
-0.006848 -0.003869 0.864000
-0.014681 -0.044080 0.886000
0.000621 0.009666 0.866000
-0.006165 -0.013175 0.868000
-0.019914 0.031191 0.860000
0.032756 0.004736 0.877000
0.000272 -0.037601 0.888000
-0.000091 0.044486 0.857000
-0.019514 0.021584 0.858000
-0.012596 -0.017105 0.868000
0.000615 0.042722 0.857000
0.002738 0.046711 0.859000
0.021787 -0.002144 0.886000
0.016391 -0.039517 0.890000
-0.008357 -0.030498 0.873000
-0.023563 -0.032318 0.864000
0.014510 -0.000686 0.887000
-0.013448 0.021835 0.854000
-0.003631 0.025174 0.860000
0.018058 0.020735 0.882000
-0.009637 0.012770 0.859000
-0.003349 -0.026728 0.879000
0.034842 0.021651 0.875000
0.026771 0.031989 0.882000
0.021398 -0.039295 0.885000
0.005468 -0.041489 0.901000
-0.018691 -0.033220 0.869000
-0.017749 0.030059 0.858000
0.016391 -0.023033 0.890000
0.002795 -0.014034 0.877000
0.034522 0.034656 0.876000
-0.021379 -0.006698 0.862000
0.002054 0.051189 0.869000
-0.005862 0.054125 0.876000
0.001373 -0.041029 0.891000
0.014942 -0.023793 0.891000
-0.008098 -0.044708 0.884000
0.014965 0.048439 0.871000
0.022440 0.026574 0.883000
0.017836 -0.023008 0.889000
-0.012253 -0.017483 0.869000
-0.026897 -0.016617 0.880000
0.024257 0.026937 0.883000
-0.002984 -0.028143 0.878000
-0.006470 0.017052 0.861000
-0.001540 -0.029623 0.879000
0.018401 0.024701 0.881000
0.002099 -0.032119 0.888000
0.002840 -0.038462 0.891000
0.019643 -0.006900 0.888000
0.032756 0.026754 0.877000
-0.025072 -0.012447 0.867000
0.019896 0.021486 0.883000
-0.000445 0.024849 0.861000
0.024621 -0.018128 0.883000
0.002763 0.011819 0.867000
-0.004818 -0.035572 0.883000
0.009409 -0.015306 0.888000
-0.009933 0.027458 0.854000
0.016024 -0.029627 0.890000
0.023948 0.014614 0.885000
0.003949 -0.040018 0.893000
-0.001182 -0.024641 0.882000
0.002846 -0.043693 0.893000
-0.011339 0.028161 0.854000
0.003481 0.050773 0.868000
0.011287 -0.022351 0.892000
0.001734 -0.033215 0.888000
0.014623 0.039163 0.872000
-0.000804 0.017132 0.865000
0.014925 -0.014242 0.890000
-0.006825 0.012800 0.861000
-0.006470 0.007484 0.861000
-0.023180 -0.026242 0.863000
0.028522 -0.020601 0.880000
0.005413 -0.034466 0.892000
-0.015045 -0.013842 0.865000
0.007029 0.037425 0.865000
0.035882 0.016950 0.874000
-0.026530 -0.037826 0.868000
-0.020622 0.028359 0.860000
-0.018334 -0.032862 0.869000
-0.000444 0.027619 0.859000
0.001322 0.041359 0.858000
-0.017456 -0.003501 0.861000
0.030298 0.026453 0.879000
-0.014042 -0.021417 0.869000
-0.019071 0.015440 0.870000
-0.011432 -0.002084 0.861000
0.034161 0.017710 0.876000
-0.025312 -0.026597 0.863000
0.020351 -0.017115 0.887000
0.014232 0.048741 0.870000
0.014225 -0.023085 0.892000
0.015274 -0.007640 0.889000
0.027104 -0.015911 0.881000
0.008942 -0.001402 0.878000
-0.002266 -0.021326 0.880000
0.014161 -0.004342 0.888000
0.010269 0.030767 0.868000
-0.004698 0.011382 0.861000
0.009115 -0.037897 0.895000
-0.026082 0.032796 0.865000
-0.018627 -0.025264 0.866000
-0.012819 0.008528 0.859000
0.018547 -0.003611 0.888000
0.002448 -0.017381 0.882000
0.038671 0.030191 0.872000
-0.019914 0.032961 0.860000
-0.007603 -0.015694 0.869000
0.026075 0.025483 0.883000
-0.017375 0.024733 0.857000
0.000616 0.047771 0.859000
0.023894 0.025483 0.883000
0.009878 0.045257 0.865000
-0.014536 0.015192 0.856000
0.019986 0.003329 0.887000
0.005322 -0.008981 0.877000
-0.002569 0.026943 0.860000
0.017816 0.001506 0.888000
-0.006943 -0.024113 0.876000
-0.022444 0.020975 0.862000
0.020693 0.009160 0.886000
0.018202 -0.021544 0.889000
0.017195 0.036057 0.875000
-0.008232 0.011015 0.860000
0.011685 0.045362 0.867000
-0.004704 0.014234 0.862000
0.018912 -0.015672 0.888000
0.003812 0.036940 0.862000
-0.000796 0.040606 0.857000
-0.001189 -0.036829 0.887000
0.003918 -0.023659 0.886000
0.026045 -0.001772 0.882000
0.016719 -0.001418 0.888000
-0.008878 0.034137 0.854000
-0.020951 0.022670 0.859000
0.027466 0.002582 0.881000
-0.004671 0.041263 0.856000
0.034161 0.013383 0.876000
0.016873 0.030364 0.877000
0.008840 0.035054 0.868000
0.026741 -0.018449 0.881000
0.030625 -0.014773 0.878000
-0.025667 -0.025531 0.863000
-0.006102 0.023023 0.859000
-0.012983 -0.025380 0.870000
0.026045 -0.017744 0.882000
0.026468 -0.035612 0.884000
-0.017355 0.017306 0.856000
-0.024601 -0.014520 0.863000
-0.008878 0.032379 0.854000
0.014892 -0.001784 0.888000
0.012727 -0.012777 0.890000
0.005017 -0.022591 0.887000
-0.019628 -0.020559 0.863000
-0.011745 0.011696 0.858000
-0.026763 -0.033029 0.864000
-0.009180 -0.044294 0.883000
-0.003999 0.015671 0.863000
-0.003643 0.013895 0.863000
0.029970 0.024673 0.880000
-0.013326 -0.027855 0.869000
-0.027927 0.028233 0.867000
-0.018165 -0.009171 0.861000
-0.020694 0.000753 0.863000
0.018202 -0.025569 0.889000
-0.012640 -0.024693 0.871000
0.007840 0.001846 0.876000
-0.023590 -0.033423 0.865000
0.008463 0.029983 0.866000
-0.025341 -0.014893 0.864000
0.007488 -0.003566 0.877000
0.014215 0.044751 0.869000
-0.005815 -0.013191 0.869000
-0.022444 -0.020890 0.862000
-0.019891 0.025144 0.859000
0.011043 -0.041906 0.902000
-0.016670 0.014504 0.857000
0.017123 -0.024499 0.890000
-0.007179 0.009611 0.861000
-0.002569 0.026589 0.860000
0.012403 -0.036343 0.893000
0.011641 -0.017925 0.891000
-0.015490 -0.032542 0.870000
-0.010154 -0.025109 0.873000
-0.000444 0.035751 0.859000
0.015429 0.027476 0.877000
0.006099 -0.016348 0.885000
0.013490 -0.024187 0.892000
0.028851 -0.013704 0.879000
-0.013448 0.024998 0.854000
0.037637 0.015493 0.873000
0.031022 0.035136 0.879000
-0.025429 -0.036712 0.867000
0.004967 -0.011520 0.878000
0.012035 -0.030094 0.893000
-0.005761 0.011382 0.861000
0.005057 -0.039695 0.894000
0.002821 -0.023997 0.885000
0.001737 -0.039517 0.890000
-0.004465 -0.040024 0.885000
-0.001870 0.014267 0.864000
0.014113 0.004779 0.885000
0.031348 -0.005016 0.878000
-0.002557 0.040911 0.856000
0.000621 0.021072 0.866000
-0.005146 -0.031360 0.877000
-0.009446 -0.032332 0.874000
-0.017749 0.015227 0.858000
0.016569 0.023224 0.880000
0.006874 -0.028927 0.891000
-0.014042 -0.027497 0.869000
0.018463 0.016053 0.884000
-0.016825 -0.018114 0.865000
0.006507 -0.029660 0.891000
0.012035 -0.028624 0.893000
0.002744 0.027684 0.861000
-0.010356 0.006414 0.860000
0.030264 -0.009352 0.878000
0.005579 0.043276 0.861000
-0.000461 -0.046163 0.891000
-0.020339 -0.020914 0.863000
0.016391 -0.041715 0.890000
-0.020291 -0.012006 0.861000
0.010724 0.017710 0.876000
0.001348 -0.012201 0.875000
-0.013684 -0.026782 0.869000
0.011860 0.010185 0.880000
0.008369 -0.033440 0.894000
-0.009435 -0.026546 0.873000
0.005961 0.036357 0.865000
-0.011978 -0.034530 0.875000
0.034842 0.006886 0.875000
-0.023180 -0.028018 0.863000
0.008107 0.038181 0.866000
0.013969 0.025642 0.876000
-0.020598 0.021255 0.859000
0.001724 -0.019581 0.883000
0.009533 0.048161 0.866000
0.008962 -0.003578 0.880000
-0.016262 -0.036966 0.873000
-0.001503 0.046656 0.858000
0.001362 -0.025061 0.884000
0.007368 0.046928 0.863000
-0.020244 0.024437 0.859000
-0.012126 0.007122 0.860000
-0.001500 0.041615 0.856000
0.040061 0.028722 0.871000
-0.007647 -0.027296 0.874000
-0.002646 -0.038246 0.886000
0.003170 -0.015911 0.881000
0.005225 0.043630 0.861000
0.021787 -0.011261 0.886000
0.025682 -0.036621 0.882000
0.017470 -0.026301 0.889000
0.011393 0.024448 0.872000
0.004558 0.010415 0.869000
0.013354 0.006222 0.883000
0.008228 -0.004660 0.879000
0.033079 0.014465 0.876000
-0.011564 -0.025410 0.871000
-0.015223 0.022212 0.855000
0.027134 0.031626 0.882000
0.011739 0.032665 0.871000
-0.004470 -0.043351 0.886000
0.000617 0.026236 0.860000
-0.007656 -0.032369 0.875000
-0.001863 0.025557 0.861000
-0.023508 -0.023373 0.862000
-0.013096 0.025350 0.854000
0.029936 -0.010810 0.879000
-0.002919 0.047418 0.859000
-0.019184 0.029387 0.859000
0.021350 0.026574 0.883000
0.006310 0.029202 0.864000
0.005767 -0.028162 0.890000
0.031348 0.014498 0.878000
0.000621 0.011791 0.865000
-0.010477 -0.018219 0.870000
-0.004709 0.005371 0.863000
0.026741 -0.020987 0.881000
0.016391 -0.021568 0.890000
0.026045 -0.021737 0.882000
0.013490 -0.028225 0.892000
-0.029064 -0.036081 0.869000
-0.015259 0.033904 0.857000
-0.019628 -0.021269 0.863000
-0.010235 -0.039798 0.880000
0.003127 0.016495 0.869000
-0.025312 -0.028728 0.863000
0.003160 -0.014411 0.878000
-0.016728 -0.001373 0.860000
-0.019228 -0.002084 0.861000
0.012035 -0.027154 0.893000
0.012541 0.019535 0.877000
-0.016188 -0.029286 0.869000
-0.014740 -0.021392 0.868000
0.025319 -0.032991 0.882000
0.013516 0.039789 0.870000
0.030660 0.015238 0.879000
0.005243 0.036315 0.864000
0.011098 0.017369 0.877000
-0.014757 -0.026424 0.869000
-0.000803 0.020668 0.864000
-0.027475 -0.024139 0.864000
0.009889 0.042101 0.866000
-0.021244 -0.039749 0.871000
-0.006967 -0.033964 0.879000
0.022778 0.032352 0.882000
0.025682 -0.012299 0.882000
-0.025726 -0.034135 0.865000
0.016587 0.019261 0.881000
-0.009076 -0.026905 0.873000
0.020351 0.007345 0.887000
0.016354 -0.002880 0.888000
-0.007879 0.015971 0.860000
0.008182 0.006158 0.874000
-0.011538 -0.017840 0.869000
-0.005023 0.032103 0.856000
-0.008586 0.006414 0.860000
-0.008586 0.009245 0.860000
-0.010735 -0.005989 0.862000
0.012361 -0.013143 0.890000
0.019278 -0.003976 0.888000
0.004511 0.045703 0.860000
-0.022851 -0.028406 0.864000
0.036961 0.011554 0.874000
-0.015721 -0.010258 0.863000
-0.008930 0.014891 0.859000
0.014892 -0.002149 0.888000
-0.026763 -0.031606 0.864000
0.009261 0.010835 0.874000
0.035202 0.010487 0.875000
0.031673 0.001848 0.877000
-0.008567 0.018406 0.858000
0.003106 0.033431 0.863000
-0.012466 0.010295 0.859000
-0.006279 -0.041434 0.884000
0.015664 0.046593 0.870000
0.016225 0.019261 0.881000
0.019511 0.023640 0.882000
0.005670 -0.001757 0.875000
0.007402 0.034656 0.867000
-0.005721 0.038400 0.855000
0.015137 0.017086 0.881000
-0.008098 -0.045436 0.884000
-0.003975 0.028293 0.858000
0.022830 -0.024697 0.884000
0.015790 0.026754 0.877000
-0.014927 -0.041561 0.879000
0.029279 0.018174 0.881000
0.023220 -0.005784 0.885000
0.039389 0.022654 0.872000
-0.015575 0.026435 0.855000
-0.002557 0.044082 0.856000
0.005407 -0.032227 0.891000
0.007956 -0.020080 0.889000
0.009176 0.048161 0.866000
-0.004359 0.002888 0.864000
0.026075 0.013490 0.883000
0.030660 0.029348 0.879000
-0.012183 -0.011337 0.864000
-0.013219 -0.004924 0.862000
-0.025341 -0.033384 0.864000
0.020986 0.025120 0.883000
0.032395 0.015204 0.877000
0.006051 -0.008268 0.878000
0.026378 -0.028602 0.881000
0.035162 0.007957 0.874000
0.010932 -0.030462 0.893000
-0.020099 -0.044036 0.900000
0.018912 0.001871 0.888000
-0.024246 -0.027307 0.863000
-0.014871 0.025731 0.855000
0.010984 0.040412 0.868000
0.024984 -0.007952 0.883000
0.005029 -0.028130 0.889000
0.005243 0.049116 0.864000
-0.001149 0.044838 0.857000
-0.000093 -0.029724 0.882000
-0.001158 0.021023 0.864000
-0.012183 -0.012048 0.864000
0.000631 -0.017342 0.880000
0.018912 -0.024444 0.888000
0.005728 -0.014874 0.884000
0.008532 0.021961 0.873000
0.017490 -0.015341 0.890000
0.016475 0.033536 0.875000
0.034842 0.033536 0.875000
-0.029711 -0.033857 0.867000
-0.011786 0.003586 0.861000
0.008820 0.038894 0.866000
0.004273 -0.016329 0.884000
0.023193 -0.017784 0.884000
0.013842 -0.020492 0.891000
0.001681 0.032999 0.861000
0.029246 0.031192 0.880000
0.030660 0.028986 0.879000
0.014808 0.009129 0.883000
-0.026438 0.027100 0.865000
0.015120 0.018515 0.880000
-0.004791 -0.032841 0.878000
0.012917 0.018835 0.878000
-0.018874 -0.011652 0.861000
0.015916 0.011323 0.884000
0.019941 0.016799 0.885000
0.034842 0.015529 0.875000
0.012829 0.031985 0.872000
0.017123 -0.015341 0.890000
-0.006801 0.024056 0.858000
0.007849 -0.002122 0.877000
0.000272 -0.039473 0.889000
0.016114 0.032815 0.875000
-0.022574 -0.035641 0.867000
0.022855 0.001501 0.885000
0.018099 0.016416 0.884000
-0.015428 -0.044495 0.887000
0.029970 0.032641 0.880000
-0.016864 -0.023866 0.867000
-0.018874 -0.008108 0.861000
0.037953 0.025166 0.872000
-0.009284 0.040347 0.859000
0.008983 -0.005039 0.882000
0.022152 -0.002144 0.886000
-0.017082 0.000396 0.860000
0.002109 -0.042910 0.892000
0.017836 -0.006542 0.889000
-0.013096 0.028864 0.854000
-0.001505 0.030094 0.859000
0.009819 -0.026756 0.892000
0.025319 0.031989 0.882000
-0.023180 -0.024821 0.863000
0.024984 -0.009405 0.883000
-0.014250 0.003936 0.860000
0.018181 -0.033946 0.888000
-0.015848 -0.031826 0.870000
-0.024246 0.028458 0.863000
-0.015312 0.002874 0.860000
-0.017181 -0.020250 0.865000
0.014049 0.013460 0.881000
0.017575 0.034295 0.876000
-0.026949 -0.038271 0.870000
-0.012858 -0.045904 0.886000
0.014982 0.038445 0.872000
-0.005041 0.024791 0.859000
-0.005842 -0.017204 0.873000
0.009271 0.005805 0.875000
0.003453 0.038315 0.861000
0.011328 0.043934 0.867000
-0.004693 0.023758 0.860000
-0.009884 -0.040931 0.881000
0.006874 -0.030027 0.891000
0.019986 -0.035003 0.887000
-0.028574 -0.031999 0.865000
-0.017477 -0.010246 0.862000
0.013702 0.009845 0.882000
0.026771 0.032715 0.882000
0.008322 -0.021544 0.889000
-0.013928 -0.005279 0.862000
0.033079 0.007254 0.876000
-0.027182 0.028914 0.866000
0.008799 0.046272 0.864000
-0.007647 -0.026936 0.874000
-0.004064 -0.030277 0.877000
0.021640 0.034089 0.880000
0.017715 0.017488 0.883000
0.009250 0.051065 0.873000
0.005605 0.033864 0.865000
0.020351 -0.005067 0.887000
0.007992 -0.031932 0.893000
0.005579 0.045402 0.861000
0.007920 -0.011612 0.885000
-0.026763 -0.019516 0.864000
0.014942 -0.034428 0.891000
0.008561 0.003649 0.876000
-0.000798 0.033983 0.859000
0.026045 -0.023915 0.882000
-0.018786 0.020853 0.857000
0.002827 -0.028432 0.887000
-0.022600 -0.037826 0.868000
-0.000447 0.023157 0.864000
-0.003639 0.010686 0.862000
-0.012775 0.016953 0.856000
0.004239 -0.010424 0.877000
0.006295 0.044390 0.862000
0.017836 -0.017885 0.889000
0.035882 0.021627 0.874000
-0.018735 -0.038315 0.871000
0.027134 0.009482 0.882000
0.022855 0.007693 0.885000
0.013826 -0.012777 0.890000
-0.008300 -0.013517 0.867000
0.013857 -0.036302 0.892000
0.001736 -0.034716 0.889000
-0.007842 0.039501 0.856000
-0.027475 -0.021294 0.864000
-0.009873 -0.040160 0.880000
0.011485 0.010897 0.879000
-0.026438 -0.034847 0.865000
0.009522 0.046325 0.865000
0.011806 0.021676 0.876000
0.004921 0.020453 0.870000
0.006140 -0.030027 0.891000
-0.000444 0.047363 0.858000
-0.002923 0.026236 0.860000
0.018912 -0.017499 0.888000
0.027104 -0.014823 0.881000
0.014209 -0.019392 0.891000
0.001689 0.023896 0.865000
-0.003326 -0.015767 0.873000
-0.007824 0.032379 0.854000
0.015862 0.018174 0.881000
0.013640 0.020280 0.878000
-0.014122 -0.035929 0.874000
0.025013 0.013142 0.884000
0.016243 0.016742 0.882000
-0.011458 -0.009192 0.863000
-0.017122 -0.011310 0.862000
0.021398 -0.040388 0.885000
0.014774 0.014548 0.881000
0.015324 0.048080 0.871000
-0.024601 -0.020203 0.863000
0.005696 0.002576 0.879000
-0.027895 0.025349 0.866000
0.001004 -0.036912 0.889000
0.012194 0.018112 0.878000
-0.017749 0.029706 0.858000
0.013475 -0.016458 0.891000
0.008341 -0.024526 0.891000
-0.005420 0.003239 0.863000
0.034161 0.032132 0.876000
0.014841 0.004779 0.885000
0.014657 0.033857 0.874000
-0.006825 0.007839 0.861000
-0.008656 -0.014588 0.867000
-0.009435 -0.021156 0.873000
-0.008682 -0.048858 0.907000
0.012713 -0.009835 0.889000
-0.004054 -0.017243 0.875000
-0.011339 0.030622 0.854000
0.029246 0.010909 0.880000
-0.020742 -0.027727 0.865000
-0.009294 0.006414 0.860000
0.024621 -0.032301 0.883000
0.011211 -0.005426 0.886000
-0.018691 -0.032147 0.869000
-0.023699 -0.038585 0.869000
-0.024601 -0.014165 0.863000
-0.015401 -0.014910 0.865000
-0.026408 0.023157 0.864000
-0.005407 0.008547 0.861000
-0.021379 -0.019825 0.862000
0.032756 -0.006093 0.877000
0.012785 0.040817 0.869000
-0.005761 0.008547 0.861000
-0.003698 -0.018345 0.876000
0.032071 -0.008991 0.878000
-0.001859 0.032569 0.859000
-0.008232 0.015263 0.860000
0.003445 0.043882 0.859000
-0.011471 -0.011692 0.864000
-0.002913 0.033551 0.857000
-0.001158 0.012845 0.864000
0.018140 0.010619 0.886000
0.028159 -0.012633 0.880000
0.020716 -0.005797 0.887000
0.023557 -0.006142 0.884000
0.008799 0.044849 0.864000
0.008881 0.022654 0.872000
-0.025101 -0.037826 0.868000
0.017856 -0.027429 0.890000
0.014281 0.033459 0.873000
0.021058 -0.020377 0.886000
0.010553 -0.024554 0.892000
-0.003966 0.039501 0.856000
0.022002 0.035900 0.880000
0.024621 -0.030121 0.883000
0.022102 0.022965 0.884000
0.005285 0.017250 0.871000
0.018547 -0.021154 0.888000
-0.014366 -0.017799 0.867000
-0.008716 -0.028702 0.873000
-0.017082 0.005352 0.860000
-0.023891 0.031300 0.863000
0.001373 -0.042129 0.891000
0.030264 -0.003932 0.878000
-0.001852 0.039854 0.856000
-0.028316 -0.036040 0.868000
0.000988 -0.012561 0.875000
-0.005099 -0.011402 0.869000
-0.003269 0.029706 0.858000
0.027134 0.031989 0.882000
0.012829 0.033062 0.872000
-0.015866 -0.033655 0.871000
0.030987 0.009078 0.878000
0.007094 0.015493 0.873000
0.023557 -0.004686 0.884000
0.029575 -0.007916 0.879000
-0.012480 0.005706 0.860000
0.027466 0.037392 0.881000
-0.002581 0.007866 0.864000
0.035202 0.019851 0.875000
0.012083 0.036925 0.870000
-0.015593 0.016249 0.856000
0.009462 -0.031565 0.893000
0.039344 0.031231 0.871000
-0.004344 0.010319 0.861000
-0.016039 -0.005273 0.861000
0.007200 -0.014543 0.886000
0.019964 0.010619 0.886000
-0.002578 0.013895 0.863000
0.002744 0.027329 0.861000
0.006727 0.015117 0.872000
0.031348 0.005103 0.878000
-0.010549 -0.034209 0.876000
-0.022089 -0.007763 0.862000
0.021664 0.030502 0.881000
0.006665 0.039871 0.864000
-0.015544 -0.035169 0.873000
-0.005728 0.031398 0.856000
0.015934 0.008421 0.885000
-0.006173 -0.014979 0.869000
-0.015010 -0.010968 0.863000
0.011725 0.035492 0.870000
0.018912 -0.036870 0.888000
0.000265 0.013571 0.865000
-0.007897 -0.001022 0.862000
0.018505 0.010254 0.886000
0.022491 -0.000321 0.885000
0.029575 -0.007554 0.879000
0.022855 -0.005420 0.885000
-0.013928 -0.008472 0.862000
-0.021379 -0.008472 0.862000
-0.003999 0.004660 0.863000
-0.022418 0.025912 0.861000
0.013445 -0.009835 0.889000
-0.025667 0.023485 0.863000
-0.019206 0.031899 0.860000
-0.017935 -0.027077 0.867000
0.010506 -0.012748 0.888000
-0.014200 0.013093 0.857000
0.015120 0.019602 0.880000
0.022466 -0.038523 0.884000
0.018079 0.019305 0.883000
-0.027538 0.027488 0.866000
0.024984 -0.022489 0.883000
0.014017 0.019580 0.879000
0.012333 -0.007266 0.888000
0.021763 0.014978 0.885000
0.030264 -0.008629 0.878000
-0.024246 0.028813 0.863000
0.027104 -0.021350 0.881000
-0.002578 0.019223 0.863000
-0.011718 0.037035 0.856000
0.001325 0.026943 0.860000
-0.016507 -0.023152 0.867000
0.004568 0.051307 0.871000
0.034122 0.006886 0.875000
0.002047 0.012161 0.866000
0.009632 0.007966 0.875000
-0.000796 0.038489 0.857000
-0.012879 -0.010968 0.863000
-0.017241 -0.026751 0.868000
-0.018165 -0.002792 0.861000
-0.004334 0.047064 0.859000
0.001322 0.042419 0.858000
-0.009305 0.003232 0.861000
0.003445 0.043529 0.859000
-0.012538 -0.011692 0.864000
0.013857 -0.038872 0.892000
0.006009 0.016911 0.872000
0.003838 0.013261 0.868000
0.008028 -0.040566 0.897000
0.025319 -0.020648 0.882000
0.004166 0.027716 0.862000
-0.025667 -0.024111 0.863000
0.008747 -0.040108 0.895000
0.028851 -0.012257 0.879000
0.018222 -0.027063 0.890000
0.028884 -0.001043 0.880000
-0.023672 -0.037826 0.868000
0.015223 0.004420 0.886000
0.011681 -0.040799 0.894000
0.009155 0.045560 0.864000
-0.005205 -0.045590 0.887000
0.003944 -0.038505 0.892000
0.012222 0.011996 0.880000
0.012770 0.045414 0.868000
0.012069 0.038313 0.869000
-0.000798 0.030094 0.859000
-0.017389 -0.044846 0.894000
0.034161 0.014826 0.876000
0.019851 0.027964 0.881000
0.016931 0.022862 0.880000
-0.004465 -0.041117 0.885000
0.003887 -0.014428 0.879000
0.015309 -0.029660 0.891000
0.024984 0.004041 0.883000
-0.009862 -0.037220 0.879000
0.005273 0.011846 0.869000
0.005243 0.032047 0.864000
0.006758 -0.002841 0.876000
0.025348 0.016034 0.883000
0.026408 -0.000319 0.882000
0.026408 0.011660 0.882000
0.021763 0.018620 0.885000
-0.009794 -0.023671 0.873000
-0.008537 0.026787 0.855000
-0.014871 0.017637 0.855000
0.024649 0.021146 0.884000
-0.006293 -0.045539 0.886000
-0.020976 0.024466 0.860000
0.026741 -0.022438 0.881000
0.014510 -0.001782 0.887000
-0.016469 -0.018826 0.865000
0.012541 0.020979 0.877000
-0.003262 0.043377 0.856000
-0.004676 0.029319 0.857000
0.028917 0.034491 0.881000
0.000969 0.045244 0.858000
-0.005748 0.022670 0.859000
-0.007726 -0.043568 0.883000
-0.019696 -0.028472 0.866000
-0.001917 -0.037152 0.886000
-0.007542 0.000043 0.862000
0.030625 -0.000679 0.878000
-0.024330 -0.036313 0.866000
0.011354 0.029014 0.869000
-0.000796 0.045191 0.857000
0.001326 0.034062 0.861000
-0.026763 -0.020227 0.864000
0.012627 0.005132 0.883000
-0.011786 -0.003856 0.861000
-0.008232 0.008184 0.860000
-0.021281 -0.043068 0.903000
-0.006575 -0.030928 0.875000
-0.000444 0.036104 0.859000
0.004287 -0.025511 0.887000
-0.017062 0.012417 0.859000
0.013890 0.038401 0.871000
-0.013234 -0.010968 0.863000
0.012361 -0.013876 0.890000
0.006750 0.001844 0.875000
-0.012112 0.010295 0.859000
-0.012640 -0.023259 0.871000
0.016587 0.018536 0.881000
-0.022470 -0.007061 0.863000
0.001336 0.017885 0.867000
-0.015648 0.011710 0.859000
0.039030 0.030549 0.872000
0.006368 0.008298 0.872000
-0.023535 -0.024821 0.863000
0.016854 0.033213 0.876000
0.039030 0.030191 0.872000
0.021738 0.022602 0.884000
0.006843 -0.017480 0.887000
0.026438 0.025120 0.883000
0.010834 -0.003599 0.885000
-0.015794 -0.020654 0.867000
-0.018081 0.024028 0.857000
-0.021330 0.022696 0.860000
-0.005141 -0.030603 0.876000
0.005237 0.027037 0.863000
0.015394 0.032455 0.875000
-0.001563 -0.047683 0.892000
0.011249 -0.014226 0.889000
0.007184 -0.011599 0.884000
0.034482 0.016609 0.875000
0.017470 -0.010933 0.889000
-0.002590 0.051071 0.867000
-0.006215 -0.028767 0.875000
-0.009273 0.018052 0.858000
-0.004698 0.021305 0.861000
-0.000796 0.040253 0.857000
-0.013112 0.016934 0.855000
0.015137 0.015998 0.881000
-0.014536 0.034921 0.856000
0.017123 -0.013876 0.890000
0.011354 0.027941 0.869000
-0.013912 -0.001021 0.861000
-0.014621 -0.004210 0.861000
0.032034 0.009428 0.877000
0.037321 0.033857 0.874000
0.007143 -0.008639 0.879000
0.029213 -0.010448 0.879000
0.028159 -0.023137 0.880000
-0.009230 0.032028 0.854000
0.013531 0.038401 0.871000
-0.005182 -0.036299 0.883000
0.014942 -0.029660 0.891000
0.036961 0.033138 0.874000
0.034161 0.031411 0.876000
0.017470 -0.040936 0.889000
0.028159 -0.013720 0.880000
0.012153 0.023452 0.875000
-0.017955 -0.029966 0.868000
0.035563 0.023452 0.875000
0.004210 0.008288 0.871000
