-0.012640 0.022986 0.871000
-0.001554 0.039107 0.887000
0.008551 -0.032009 0.875000
-0.022140 0.003599 0.864000
0.026618 0.002971 0.889000
0.003509 -0.016163 0.875000
0.001354 0.010897 0.879000
0.016550 0.035860 0.879000
0.029279 0.012735 0.881000
0.015429 0.041553 0.877000
-0.028121 0.016008 0.862000
-0.018670 0.025408 0.868000
0.024219 -0.005481 0.895000
0.023010 -0.028193 0.891000
0.025770 0.010971 0.885000
0.029745 -0.012480 0.895000
0.018401 0.029777 0.881000
0.017836 -0.019714 0.889000
-0.001579 -0.048164 0.901000
-0.011167 -0.003530 0.868000
0.029278 -0.007666 0.892000
0.021812 0.013186 0.887000
-0.004026 -0.036081 0.869000
-0.011167 0.000757 0.868000
0.005395 0.032975 0.889000
0.016427 0.009957 0.892000
0.027955 0.006600 0.885000
0.018763 0.028689 0.881000
0.003922 0.022678 0.887000
-0.011564 -0.027561 0.871000
0.017142 -0.008391 0.891000
-0.029929 0.021354 0.863000
-0.021810 0.011791 0.865000
-0.022496 0.004310 0.864000
-0.015567 -0.021321 0.895000
0.036416 -0.025401 0.896000
0.021205 0.031086 0.877000
0.040843 -0.017499 0.888000
-0.008806 0.040338 0.882000
0.010506 0.029283 0.888000
0.005683 -0.012590 0.877000
0.012208 0.043457 0.879000
0.010822 0.038974 0.884000
0.014575 0.018380 0.891000
0.014959 0.012527 0.892000
0.008983 -0.001408 0.882000
0.031253 -0.019132 0.896000
0.015535 -0.023943 0.883000
-0.005111 -0.040466 0.871000
0.016409 0.014713 0.891000
0.004950 -0.035250 0.875000
-0.024246 0.007147 0.863000
0.013384 0.029912 0.885000
0.012008 0.017280 0.891000
-0.037822 0.008307 0.873000
0.007159 0.000769 0.881000
-0.009034 -0.017125 0.869000
-0.005117 -0.043025 0.872000
0.014909 0.021266 0.889000
0.025126 0.005892 0.888000
-0.021454 0.010723 0.865000
-0.010822 -0.024636 0.869000
-0.007271 -0.040154 0.872000
0.002805 0.010547 0.880000
-0.014025 0.005402 0.868000
-0.008676 -0.019629 0.869000
-0.005526 0.027932 0.880000
0.012713 0.000044 0.889000
-0.014757 -0.015694 0.869000
-0.019137 0.037771 0.873000
0.010810 -0.004318 0.883000
-0.004747 -0.008551 0.870000
0.016280 -0.030883 0.884000
0.004220 -0.040918 0.873000
-0.022243 0.027194 0.868000
0.035081 0.003670 0.881000
-0.002957 -0.014996 0.870000
0.017575 0.040424 0.876000
0.029081 0.002961 0.886000
0.007488 -0.027389 0.877000
0.040249 -0.005771 0.883000
0.011550 -0.002503 0.884000
0.011485 0.043457 0.879000
0.008983 0.041790 0.882000
-0.015526 0.028755 0.872000
-0.033675 0.034339 0.868000
0.024956 -0.018374 0.895000
-0.007979 -0.036881 0.871000
-0.031816 0.012518 0.866000
-0.019115 0.034138 0.872000
0.017027 -0.034196 0.885000
-0.009738 -0.018892 0.868000
0.024422 0.005898 0.889000
-0.024985 0.017823 0.864000
-0.015830 0.008627 0.869000
0.024482 0.025701 0.878000
0.007505 -0.045179 0.879000
-0.001189 0.037646 0.887000
-0.023288 0.027163 0.867000
0.003185 0.047032 0.885000
0.014225 0.012527 0.892000
-0.016545 0.012919 0.869000
0.024450 0.004440 0.890000
-0.020386 0.008943 0.865000
-0.026763 0.004310 0.864000
0.003142 -0.037685 0.873000
-0.016318 0.042948 0.876000
-0.018292 -0.002455 0.867000
0.005715 0.047599 0.882000
-0.016507 0.002184 0.867000
0.005754 0.037323 0.888000
-0.024302 0.019980 0.865000
0.013490 0.015831 0.892000
0.010387 0.047744 0.878000
0.010174 0.015079 0.891000
0.000625 -0.037598 0.871000
0.005029 0.030047 0.889000
0.014177 0.021632 0.889000
-0.026082 0.029592 0.865000
-0.024302 0.002891 0.865000
0.025857 0.006257 0.888000
0.026678 -0.000323 0.891000
0.001345 -0.032295 0.873000
0.027591 0.007693 0.885000
0.014526 0.023800 0.888000
0.016446 0.004822 0.893000
0.000626 -0.034770 0.872000
-0.012872 -0.027702 0.887000
0.012008 0.010312 0.891000
-0.022140 0.003954 0.864000
0.017529 -0.003260 0.892000
-0.036801 0.037840 0.883000
0.044712 -0.018169 0.885000
-0.025429 0.034656 0.867000
-0.023918 0.015334 0.864000
0.010859 0.001504 0.887000
-0.006208 0.012274 0.874000
-0.004384 -0.012833 0.869000
0.012319 -0.001782 0.887000
-0.034033 0.012189 0.868000
0.004984 0.003307 0.881000
0.032655 -0.016514 0.894000
-0.021885 0.025408 0.868000
0.004595 -0.026998 0.876000
0.042305 -0.019692 0.888000
-0.007665 0.027445 0.876000
-0.022522 0.001823 0.865000
0.016372 0.018705 0.889000
-0.000810 -0.013595 0.872000
-0.021503 0.023238 0.867000
-0.034268 0.023065 0.874000
-0.014432 0.012232 0.871000
0.007590 0.029681 0.889000
-0.019496 0.040286 0.873000
-0.011604 0.018749 0.874000
-0.008666 -0.002458 0.868000
-0.002964 -0.044102 0.872000
0.026862 0.009514 0.885000
-0.008676 -0.024278 0.869000
-0.036385 0.004714 0.873000
-0.016942 -0.015013 0.871000
0.024083 0.004806 0.890000
-0.002649 0.044948 0.887000
0.008256 -0.005765 0.882000
0.010761 0.045628 0.879000
-0.003001 0.025483 0.883000
0.002462 0.043122 0.887000
-0.011167 -0.014604 0.868000
0.022618 0.007736 0.890000
0.004658 0.037323 0.888000
-0.013372 0.020859 0.872000
-0.030782 0.007180 0.867000
-0.015830 -0.013191 0.869000
-0.037018 0.012232 0.871000
0.000267 -0.044102 0.872000
0.003891 0.007649 0.880000
-0.032847 0.016420 0.865000
-0.012998 -0.025051 0.871000
-0.002629 0.016342 0.880000
-0.001185 0.026604 0.884000
-0.006912 -0.041230 0.872000
0.007232 0.020557 0.890000
-0.005822 -0.001747 0.870000
0.011641 0.009945 0.891000
0.019039 0.039027 0.877000
-0.021936 0.035492 0.870000
0.018630 0.008855 0.892000
0.041386 -0.011235 0.884000
0.010810 -0.005044 0.883000
0.011995 0.005905 0.890000
-0.042185 0.007059 0.897000
-0.009107 0.030329 0.876000
-0.019027 -0.004244 0.868000
-0.006888 -0.031432 0.869000
0.020144 -0.000324 0.894000
0.025233 0.022836 0.879000
-0.012239 -0.000314 0.868000
0.032144 0.009098 0.880000
-0.004747 -0.025022 0.870000
0.013780 0.025234 0.887000
-0.027088 0.010698 0.863000
-0.023368 0.038357 0.870000
-0.015455 -0.009246 0.868000
-0.017241 0.008974 0.868000
0.043933 -0.014146 0.884000
0.013354 -0.042477 0.883000
0.010518 0.005898 0.889000
0.005000 0.044432 0.884000
0.005023 0.021607 0.888000
0.017675 0.031227 0.881000
-0.012032 0.039839 0.879000
-0.002646 0.039427 0.886000
-0.009107 0.023118 0.876000
-0.013715 0.011515 0.871000
0.014177 0.021266 0.889000
-0.015097 0.003973 0.868000
0.009420 0.010655 0.889000
-0.014774 -0.017503 0.870000
0.020237 0.025092 0.882000
-0.003677 -0.022542 0.871000
0.003509 -0.012201 0.875000
-0.015437 -0.001028 0.867000
-0.025312 0.011054 0.863000
0.025520 0.004069 0.889000
0.018891 -0.033543 0.887000
0.028159 0.015980 0.880000
0.023220 0.014249 0.885000
0.013064 -0.003246 0.888000
-0.008756 0.023145 0.877000
-0.016981 0.032381 0.873000
-0.006538 -0.020367 0.870000
-0.034350 0.014316 0.867000
-0.001885 -0.011070 0.871000
-0.017558 0.004320 0.866000
0.021177 -0.024159 0.891000
-0.029320 0.034973 0.866000
0.025886 0.003337 0.889000
0.027196 -0.018026 0.896000
-0.026469 0.031409 0.866000
0.007893 0.000044 0.882000
0.024192 -0.003635 0.894000
-0.015848 0.015798 0.870000
-0.027862 0.005739 0.865000
0.006390 -0.035250 0.875000
-0.014515 0.036458 0.876000
0.013624 0.042997 0.877000
0.029179 -0.001786 0.889000
-0.004747 -0.040420 0.870000
0.005322 -0.011507 0.877000
0.005322 -0.015117 0.877000
0.013035 -0.009802 0.886000
0.009742 0.037197 0.885000
0.014510 -0.018575 0.887000
0.003878 -0.022336 0.877000
-0.016507 -0.003169 0.867000
0.023744 -0.031861 0.891000
0.003513 -0.017984 0.876000
0.014959 0.003348 0.892000
0.025239 -0.032263 0.892000
0.017293 0.032279 0.880000
-0.002602 -0.028994 0.871000
0.008303 0.033996 0.887000
-0.017618 0.017211 0.869000
0.023948 0.012792 0.885000
0.023504 0.018920 0.882000
0.012699 0.026359 0.888000
-0.022294 0.038715 0.870000
-0.032172 0.012161 0.866000
-0.007638 0.012260 0.873000
-0.019027 0.025408 0.868000
-0.002279 0.031369 0.885000
-0.017221 0.006466 0.867000
-0.026732 0.011409 0.863000
-0.011525 -0.018892 0.868000
-0.027197 0.043408 0.878000
-0.001169 -0.018620 0.872000
0.017450 0.017953 0.888000
0.000267 -0.012533 0.873000
0.026680 0.020665 0.879000
-0.020030 0.007163 0.865000
-0.018100 0.043259 0.875000
-0.033986 0.026363 0.876000
0.002782 -0.035529 0.873000
-0.010465 -0.025709 0.869000
-0.032847 0.022472 0.865000
0.025606 -0.033732 0.892000
-0.004031 -0.040778 0.870000
0.021277 0.026121 0.880000
0.022027 0.023613 0.881000
0.028271 -0.029425 0.895000
0.030209 0.000774 0.887000
0.027934 -0.017288 0.896000
-0.011219 0.012246 0.872000
-0.032679 0.037641 0.870000
0.025324 -0.017269 0.895000
-0.023301 0.046457 0.881000
-0.017679 0.029473 0.872000
0.010174 0.020580 0.891000
0.006835 0.010254 0.886000
-0.017558 0.003607 0.866000
-0.003319 -0.025051 0.871000
0.030073 0.007676 0.883000
-0.009381 -0.021035 0.868000
-0.001524 -0.036839 0.870000
-0.015794 0.003611 0.867000
0.024165 -0.022376 0.893000
0.023325 -0.036912 0.889000
0.007902 -0.006498 0.883000
-0.001166 -0.035048 0.870000
0.003869 -0.028767 0.875000
-0.000094 0.037689 0.888000
0.024192 -0.002899 0.894000
0.016795 -0.001424 0.892000
-0.014808 -0.020773 0.872000
-0.024915 0.000043 0.874000
0.009420 0.012118 0.889000
0.018934 -0.021178 0.889000
0.024477 -0.034428 0.891000
-0.002646 0.038333 0.886000
0.026032 -0.023505 0.894000
0.004595 -0.011855 0.876000
-0.001915 0.032826 0.885000
0.018630 -0.007666 0.892000
0.033495 -0.004702 0.887000
-0.020099 -0.001743 0.868000
-0.037506 0.005799 0.874000
0.027104 0.015998 0.881000
-0.020527 0.034458 0.871000
-0.009738 -0.017463 0.868000
0.018243 -0.011691 0.891000
0.013430 -0.005073 0.888000
0.013671 -0.027121 0.880000
0.045440 -0.018533 0.885000
0.019754 -0.008409 0.893000
-0.021911 0.029729 0.869000
-0.028508 0.019578 0.863000
0.017181 0.003720 0.893000
-0.026377 0.014606 0.863000
-0.019115 0.032344 0.872000
-0.000812 -0.020461 0.874000
0.030765 0.014564 0.882000
0.029479 0.002234 0.887000
-0.019005 -0.001028 0.867000
0.012194 -0.029227 0.878000
-0.011206 -0.028636 0.871000
0.020397 -0.025935 0.889000
0.020466 0.005551 0.892000
-0.021122 0.016439 0.866000
0.012642 -0.007597 0.884000
-0.028475 0.017072 0.862000
0.010834 -0.044031 0.885000
-0.013668 0.003973 0.868000
-0.001530 -0.023671 0.873000
0.010798 -0.012299 0.882000
-0.024744 0.035411 0.868000
0.025624 0.019602 0.880000
0.000986 -0.030498 0.873000
-0.022496 0.004666 0.864000
-0.019452 0.029797 0.871000
0.032062 -0.038024 0.898000
0.030505 0.002593 0.885000
0.026163 0.008066 0.886000
0.044347 -0.018169 0.885000
0.015552 0.028423 0.884000
-0.003376 0.040886 0.886000
-0.006173 -0.030359 0.869000
-0.016150 -0.005310 0.867000
0.006835 0.010619 0.886000
-0.030460 0.038269 0.868000
0.017123 -0.012777 0.890000
0.018505 0.021194 0.886000
-0.001919 0.040932 0.887000
0.037112 -0.023900 0.895000
0.019400 0.034334 0.877000
0.037112 -0.024268 0.895000
-0.005463 -0.039703 0.870000
-0.022931 0.024308 0.867000
0.017027 -0.032010 0.885000
-0.014025 -0.003887 0.868000
-0.005463 -0.017503 0.870000
0.010458 0.038611 0.884000
-0.020386 0.006451 0.865000
-0.003719 0.022162 0.881000
0.008620 -0.000319 0.882000
-0.000823 0.030675 0.886000
0.002785 -0.030893 0.874000
-0.028153 0.020999 0.863000
0.026370 -0.033402 0.893000
-0.014893 0.042275 0.877000
-0.025786 0.036441 0.867000
0.015137 -0.028965 0.881000
-0.014532 0.038666 0.877000
-0.003315 -0.031110 0.870000
0.045076 -0.016348 0.885000
0.013764 -0.018189 0.886000
0.004663 0.030779 0.889000
-0.019810 0.031590 0.871000
0.008210 -0.038579 0.877000
-0.001883 -0.032542 0.870000
0.007479 -0.041059 0.876000
0.009335 -0.013373 0.881000
0.014875 0.024869 0.887000
-0.021528 -0.001386 0.868000
0.012222 -0.040884 0.880000
-0.006215 0.013368 0.875000
-0.011244 0.015511 0.874000
-0.018670 -0.003887 0.868000
-0.025994 0.043210 0.874000
0.009335 -0.023163 0.881000
-0.014740 0.001829 0.868000
-0.006590 0.027115 0.877000
-0.014515 0.033935 0.876000
-0.013668 -0.009960 0.868000
-0.031067 0.033508 0.865000
-0.021860 0.025022 0.867000
0.036573 -0.001772 0.882000
-0.002957 -0.015712 0.870000
-0.025312 0.011764 0.863000
0.000267 -0.017563 0.873000
-0.013043 0.030260 0.874000
0.008983 -0.002861 0.882000
-0.010235 0.038074 0.880000
0.001354 0.011620 0.879000
0.036936 -0.002135 0.882000
-0.013418 0.031015 0.875000
-0.006173 -0.026424 0.869000
-0.006272 0.037477 0.883000
-0.008395 0.019896 0.877000
-0.010885 0.015871 0.874000
0.030515 -0.038309 0.896000
0.042890 -0.016712 0.885000
0.038867 -0.024581 0.893000
0.011995 0.005539 0.890000
-0.004031 -0.028603 0.870000
-0.005545 0.037477 0.883000
-0.008676 -0.022490 0.869000
-0.026683 0.042442 0.873000
0.016262 -0.024306 0.883000
0.010015 0.049133 0.877000
0.003196 0.025993 0.888000
0.025770 0.009878 0.885000
0.029776 0.004050 0.885000
-0.001552 0.033228 0.886000
-0.014025 -0.004601 0.868000
-0.025101 0.037912 0.868000
-0.024658 0.022116 0.865000
0.018997 -0.009868 0.892000
-0.021578 0.034776 0.870000
0.011914 -0.005414 0.884000
0.006797 0.047907 0.881000
0.038737 -0.017905 0.890000
-0.023142 0.044700 0.875000
0.024219 -0.005850 0.895000
0.007539 0.006949 0.883000
-0.025667 0.005726 0.863000
-0.004096 0.034972 0.884000
-0.002241 -0.041852 0.870000
0.009731 0.001135 0.884000
0.019643 -0.041987 0.888000
-0.031779 0.029592 0.865000
0.004584 -0.038447 0.874000
0.008620 -0.019196 0.882000
-0.015080 -0.007094 0.867000
-0.018983 0.003607 0.866000
0.010399 -0.040476 0.879000
0.009698 -0.024614 0.881000
0.032215 -0.012438 0.892000
0.023850 -0.015427 0.895000
-0.024246 0.010343 0.863000
-0.007638 0.011900 0.873000
0.037397 -0.022008 0.893000
-0.013103 0.040878 0.878000
-0.000459 0.036186 0.887000
-0.000094 0.028487 0.886000
-0.015437 -0.006380 0.867000
0.012527 0.047275 0.876000
0.008983 0.042153 0.882000
0.035280 -0.005426 0.886000
-0.017578 -0.003526 0.867000
-0.023234 0.017844 0.865000
0.007513 -0.022412 0.880000
0.033268 0.008746 0.881000
0.021812 0.012821 0.887000
0.036662 -0.020538 0.893000
-0.026622 0.041269 0.871000
0.039247 -0.011248 0.885000
-0.013434 0.032132 0.876000
0.001342 -0.041183 0.871000
0.015711 0.008498 0.893000
-0.030431 0.043902 0.888000
-0.020456 0.025765 0.868000
0.005334 -0.022025 0.879000
0.006092 0.042613 0.884000
-0.001168 -0.013938 0.871000
0.008610 -0.023888 0.881000
-0.006173 -0.004964 0.869000
0.018484 -0.023633 0.885000
-0.005533 0.029414 0.881000
0.007119 -0.041059 0.876000
-0.011167 -0.009603 0.868000
0.024029 0.008085 0.888000
-0.028153 0.014250 0.863000
-0.011964 0.029181 0.874000
-0.003334 0.009767 0.875000
-0.009738 -0.002458 0.868000
0.014808 -0.040297 0.883000
-0.013715 0.027288 0.871000
0.016795 0.012527 0.892000
-0.006888 -0.004607 0.869000
0.014892 -0.012748 0.888000
0.019019 0.005557 0.893000
0.030515 -0.032039 0.896000
0.020915 0.026483 0.880000
0.027934 -0.022451 0.896000
0.011537 -0.009405 0.883000
0.018721 0.031880 0.879000
0.011550 -0.019240 0.884000
-0.009024 -0.002458 0.868000
-0.027119 0.005732 0.864000
0.018547 0.016856 0.888000
0.039381 -0.015672 0.888000
-0.009159 0.038842 0.881000
0.014113 0.032098 0.885000
-0.022851 0.005021 0.864000
0.018651 0.002984 0.893000
0.035524 -0.000320 0.883000
0.005006 -0.009791 0.885000
-0.011578 0.011528 0.872000
-0.028186 0.009288 0.864000
0.029376 -0.032740 0.895000
0.023770 -0.027491 0.892000
-0.031816 0.032834 0.866000
0.008285 0.039018 0.885000
-0.027276 0.039386 0.869000
0.023557 0.016780 0.884000
0.012292 -0.018533 0.885000
-0.020814 0.025051 0.868000
0.027534 -0.025741 0.895000
0.036615 -0.002864 0.883000
0.022327 -0.017230 0.893000
-0.000459 0.009536 0.887000
0.016700 -0.021495 0.887000
0.024083 -0.036220 0.890000
0.010541 0.013979 0.891000
-0.014025 -0.006030 0.868000
0.006492 0.031877 0.889000
0.009399 0.032170 0.887000
0.043352 -0.020765 0.887000
0.006412 -0.015495 0.878000
-0.026022 0.015671 0.863000
0.015623 0.022338 0.888000
0.036333 -0.005420 0.885000
-0.000451 -0.032976 0.872000
0.010908 0.013613 0.891000
0.014959 0.008855 0.892000
-0.032453 0.021023 0.864000
0.023320 -0.043811 0.903000
-0.029677 0.035329 0.866000
0.024816 -0.037319 0.890000
0.024505 -0.028592 0.892000
-0.027119 0.023868 0.864000
0.000639 -0.047996 0.891000
0.023477 0.021800 0.881000
0.032034 -0.002877 0.887000
-0.012954 -0.003887 0.868000
-0.022904 0.023211 0.866000
0.014791 -0.037710 0.882000
0.035927 -0.019803 0.893000
0.008313 0.009912 0.888000
0.013749 -0.021447 0.885000
0.017756 -0.023268 0.885000
-0.011167 0.001829 0.868000
0.026468 0.011686 0.884000
-0.001184 0.021486 0.883000
-0.024601 0.006436 0.863000
-0.011882 -0.001029 0.868000
-0.006244 0.025006 0.879000
0.036573 0.001859 0.882000
-0.004807 0.026876 0.881000
0.012292 -0.011248 0.885000
0.011472 -0.028505 0.878000
-0.021652 0.043160 0.873000
-0.023341 0.034021 0.869000
-0.007312 0.030364 0.877000
0.018161 0.020123 0.887000
0.023690 -0.038009 0.889000
0.002085 0.014927 0.882000
-0.014416 0.009711 0.870000
0.027766 0.019580 0.879000
0.008600 -0.008287 0.880000
0.021566 0.030725 0.877000
0.005754 -0.046738 0.888000
0.024649 0.013870 0.884000
0.019986 -0.038654 0.887000
-0.018100 0.042179 0.875000
0.036573 0.000770 0.882000
-0.016564 0.017947 0.870000
-0.031067 0.028168 0.865000
-0.001188 0.032499 0.886000
-0.029643 0.033152 0.865000
-0.017720 0.040332 0.874000
0.004978 0.005114 0.880000
0.004944 -0.040246 0.874000
0.011641 0.018747 0.891000
0.012292 -0.018169 0.885000
-0.013684 -0.017840 0.869000
-0.006920 0.011541 0.873000
-0.035984 0.005785 0.872000
-0.027150 0.028168 0.865000
0.004955 -0.013297 0.876000
0.018140 -0.033140 0.886000
-0.028153 0.011054 0.863000
0.022302 -0.020882 0.892000
-0.022188 0.046766 0.880000
0.021886 -0.028894 0.890000
0.014477 -0.022176 0.885000
-0.006943 0.014465 0.876000
-0.003008 0.037561 0.885000
-0.023699 0.037598 0.869000
-0.012727 0.034334 0.877000
0.000272 0.038054 0.888000
-0.000094 0.022965 0.884000
0.032098 -0.038807 0.899000
-0.027150 0.028524 0.865000
-0.004818 0.035296 0.883000
-0.004813 0.028722 0.882000
0.030884 -0.017657 0.896000
0.017509 0.012146 0.891000
-0.003677 -0.024334 0.871000
0.003869 -0.029128 0.875000
0.007893 0.044331 0.882000
-0.020790 -0.001028 0.867000
0.007885 -0.020262 0.881000
-0.024601 0.013895 0.863000
0.006113 0.013552 0.887000
-0.014808 0.018347 0.872000
0.020466 -0.013907 0.892000
0.007590 0.016143 0.889000
-0.029219 0.019223 0.863000
0.010376 -0.029555 0.877000
-0.028864 0.023130 0.863000
0.030730 0.009109 0.881000
-0.028864 0.019934 0.863000
0.003549 0.044846 0.885000
-0.003376 0.041615 0.886000
0.006820 -0.002139 0.884000
-0.016864 0.000400 0.867000
-0.017039 0.043309 0.876000
0.024587 -0.009165 0.895000
0.001708 -0.023726 0.875000
-0.014432 0.012590 0.871000
0.019964 0.017548 0.886000
-0.012380 0.037987 0.878000
0.040157 -0.019714 0.889000
-0.012954 -0.002458 0.868000
0.033268 0.008383 0.881000
0.033797 -0.019479 0.895000
0.013842 0.004445 0.891000
0.018099 0.025148 0.884000
0.015676 -0.002156 0.891000
-0.036343 0.008298 0.872000
0.007530 0.002585 0.882000
0.036946 -0.016458 0.891000
0.015326 0.010691 0.892000
0.002462 0.023408 0.887000
0.011641 0.009579 0.891000
-0.022931 0.024665 0.867000
0.011237 0.028186 0.888000
0.008952 0.048160 0.879000
0.006820 0.042613 0.884000
0.003549 0.015342 0.885000
0.016989 -0.028304 0.883000
0.013718 -0.023216 0.883000
-0.005099 -0.009972 0.869000
0.022855 0.014978 0.885000
0.001343 -0.039077 0.872000
-0.008796 0.039567 0.881000
0.032070 -0.003976 0.888000
0.025711 0.013854 0.883000
-0.013342 -0.021800 0.870000
-0.024029 0.032910 0.868000
0.016873 0.039388 0.877000
-0.008319 -0.028570 0.869000
0.032026 -0.024691 0.897000
0.017352 -0.026123 0.883000
-0.023315 0.030767 0.868000
-0.008696 0.009364 0.871000
0.031741 -0.006176 0.889000
0.016006 -0.013860 0.889000
0.016133 0.040785 0.876000
-0.006173 -0.028570 0.869000
0.021471 -0.042352 0.888000
-0.018397 0.032344 0.872000
0.013233 0.047221 0.875000
0.013035 -0.011261 0.886000
-0.002641 0.029151 0.884000
0.009687 0.044593 0.880000
0.003185 -0.010884 0.885000
0.027503 -0.007315 0.894000
-0.037146 0.003281 0.874000
-0.027862 0.032084 0.865000
-0.005188 0.038247 0.884000
-0.033379 0.040201 0.879000
-0.000455 0.014515 0.879000
-0.015149 0.014024 0.871000
-0.003719 0.019624 0.881000
0.013749 0.028819 0.885000
0.012513 0.048301 0.875000
0.012727 0.001875 0.890000
-0.033241 0.029983 0.866000
0.011628 0.024220 0.890000
0.009808 0.022781 0.891000
-0.020645 0.045472 0.876000
-0.008319 -0.018913 0.869000
0.022649 0.028920 0.877000
0.006758 -0.039256 0.876000
0.013399 -0.014907 0.886000
0.027565 -0.020607 0.896000
-0.029666 0.044218 0.887000
-0.014842 0.030979 0.874000
0.016024 -0.009114 0.890000
-0.020886 0.036609 0.871000
0.005389 0.019415 0.888000
-0.030390 0.008241 0.866000
-0.021146 0.019312 0.867000
-0.027475 0.006088 0.864000
-0.014532 0.042636 0.877000
0.003142 -0.043793 0.873000
0.036374 -0.007249 0.886000
-0.030355 0.032440 0.865000
-0.000093 0.015635 0.881000
-0.030995 0.017092 0.863000
0.024138 -0.027124 0.892000
-0.011525 0.000400 0.868000
-0.012625 -0.024306 0.870000
0.008331 0.019092 0.890000
0.018609 -0.012791 0.891000
0.013248 0.046193 0.876000
-0.004824 0.038974 0.884000
0.031079 -0.008757 0.891000
0.026400 -0.026449 0.894000
0.033268 0.006933 0.881000
-0.003368 0.033517 0.884000
0.012742 0.019847 0.891000
0.006030 -0.028767 0.875000
0.041115 -0.015272 0.886000
0.019621 -0.035733 0.887000
0.008993 0.040021 0.883000
0.002465 0.040247 0.888000
0.021910 -0.023426 0.891000
-0.023672 0.031838 0.868000
-0.010130 -0.032579 0.871000
0.018526 -0.030987 0.887000
-0.015597 0.038982 0.876000
-0.018334 -0.007468 0.869000
-0.001540 0.015600 0.879000
0.010174 0.018013 0.891000
-0.034190 0.003632 0.872000
0.010761 -0.039752 0.879000
-0.007988 -0.038359 0.872000
-0.010810 -0.008174 0.868000
0.020099 0.006652 0.892000
-0.026469 0.033547 0.866000
-0.000094 0.043122 0.887000
0.023351 0.005905 0.890000
-0.003669 -0.035008 0.869000
0.009346 -0.019559 0.882000
-0.015472 0.023649 0.869000
0.010435 -0.009032 0.882000
-0.018670 0.018620 0.868000
0.005012 0.014266 0.886000
0.006113 0.038376 0.887000
0.024705 0.010254 0.886000
-0.035902 0.011859 0.870000
0.029409 -0.028352 0.896000
-0.010095 0.002544 0.868000
0.010529 0.023854 0.890000
0.013609 0.048356 0.876000
0.011641 0.015079 0.891000
0.032654 0.002227 0.884000
-0.011283 0.032529 0.877000
-0.019093 0.030873 0.871000
0.020397 -0.026667 0.889000
-0.005457 -0.009972 0.869000
-0.005099 -0.013191 0.869000
0.041750 -0.013055 0.884000
0.014808 -0.037026 0.883000
-0.002617 0.010860 0.876000
0.021713 0.020032 0.883000
0.024482 0.024255 0.878000
-0.011882 0.001115 0.868000
0.010399 -0.026728 0.879000
0.030515 -0.015813 0.896000
0.021422 0.016089 0.886000
-0.015149 0.014383 0.871000
0.021519 -0.028528 0.890000
0.032580 0.005852 0.882000
-0.014383 -0.014962 0.868000
0.017490 -0.014608 0.890000
0.023424 0.025368 0.879000
0.022593 -0.036912 0.889000
0.045491 -0.020742 0.886000
0.030515 -0.038677 0.896000
0.011927 -0.002142 0.885000
0.014673 -0.045735 0.897000
-0.012669 0.015134 0.873000
-0.011525 -0.019249 0.868000
0.026370 -0.003999 0.893000
-0.012239 -0.012818 0.868000
-0.001530 -0.024390 0.873000
-0.030995 0.018158 0.863000
-0.026022 0.016382 0.863000
-0.003319 -0.018240 0.871000
-0.000093 0.010162 0.878000
0.025973 -0.040340 0.892000
0.043084 -0.023008 0.889000
-0.009381 -0.010317 0.868000
0.011110 -0.027421 0.878000
0.021959 0.001514 0.893000
0.013294 -0.028899 0.879000
-0.017241 0.007902 0.868000
-0.017340 0.034178 0.873000
0.010435 -0.005402 0.882000
-0.013648 -0.025964 0.890000
-0.030311 0.040692 0.874000
0.006766 -0.027028 0.877000
0.038068 -0.004681 0.883000
0.031198 0.003682 0.884000
-0.021911 0.029014 0.869000
-0.006173 -0.031432 0.869000
-0.023918 0.017467 0.864000
0.002462 0.041662 0.887000
0.042114 -0.013418 0.884000
-0.009521 0.039205 0.881000
0.027565 -0.020238 0.896000
0.004605 -0.023446 0.878000
0.040477 -0.018230 0.888000
-0.015437 -0.003169 0.867000
-0.009511 0.038074 0.880000
-0.005457 -0.012833 0.869000
0.018284 0.007762 0.893000
0.027196 -0.021714 0.896000
0.026768 -0.027552 0.894000
-0.013028 0.017649 0.873000
0.006492 0.030047 0.889000
0.010117 0.032863 0.886000
0.011995 0.023121 0.890000
0.010140 0.004064 0.888000
0.013842 0.002611 0.891000
-0.024601 0.007857 0.863000
0.018017 0.032279 0.880000
0.030046 -0.009880 0.893000
-0.015597 0.040064 0.876000
-0.032453 0.022446 0.864000
-0.010835 -0.027887 0.870000
-0.029354 0.037154 0.867000
-0.041510 0.011928 0.875000
0.040247 -0.021592 0.891000
-0.023207 0.003954 0.864000
-0.022904 0.019290 0.866000
-0.028251 0.003251 0.866000
0.009420 0.009557 0.889000
0.003865 -0.031972 0.874000
0.026827 -0.018395 0.896000
0.027196 0.009503 0.884000
0.007885 0.045006 0.881000
-0.021885 0.027194 0.868000
0.021592 -0.014290 0.893000
-0.027798 0.009633 0.863000
-0.013668 -0.006030 0.868000
-0.008676 -0.000315 0.869000
0.019082 0.031157 0.879000
0.014161 -0.007631 0.888000
-0.017935 0.022524 0.867000
0.036662 -0.019803 0.893000
-0.006904 -0.037598 0.871000
-0.007979 -0.037240 0.871000
0.028639 -0.031267 0.895000
0.018589 -0.017173 0.890000
0.015068 0.040831 0.877000
-0.034271 0.019980 0.865000
-0.024915 0.043570 0.874000
0.001001 0.032535 0.887000
0.003865 -0.037008 0.874000
-0.009107 0.017710 0.876000
0.008210 -0.042550 0.877000
-0.018713 -0.009267 0.870000
0.009687 -0.044144 0.880000
-0.018059 0.036693 0.873000
0.012236 0.039567 0.881000
-0.019093 0.030514 0.871000
0.042574 -0.016731 0.886000
0.012742 0.009579 0.891000
0.005017 0.017567 0.887000
-0.013794 0.033935 0.876000
-0.016864 0.005039 0.867000
-0.000094 0.045678 0.887000
0.030175 0.001502 0.886000
-0.025599 -0.000325 0.898000
0.022959 -0.039107 0.889000
-0.006236 0.029314 0.878000
0.018202 -0.019349 0.889000
-0.001898 0.013399 0.877000
0.007582 0.012105 0.888000
0.005395 0.028584 0.889000
-0.009467 0.023479 0.876000
0.030113 -0.012849 0.895000
-0.009096 0.029574 0.875000
-0.026438 0.003603 0.865000
0.001718 0.008736 0.880000
0.013795 0.024897 0.888000
0.017896 -0.005830 0.892000
-0.009381 -0.018534 0.868000
-0.019407 -0.006037 0.869000
-0.023288 0.028590 0.867000
-0.003673 -0.010341 0.870000
0.035967 -0.020193 0.894000
0.041527 -0.017115 0.887000
0.010423 -0.010109 0.881000
0.010435 -0.022463 0.882000
0.003922 0.040567 0.887000
-0.026377 0.015316 0.863000
0.027196 -0.021345 0.896000
0.015394 0.043980 0.875000
-0.019093 0.028722 0.871000
0.002066 -0.031972 0.874000
-0.013342 -0.021442 0.870000
0.021616 -0.002164 0.894000
0.003927 0.024897 0.888000
-0.009467 0.020234 0.876000
-0.002646 0.040886 0.886000
-0.009749 -0.023921 0.869000
0.020506 0.030760 0.878000
-0.000824 0.042392 0.887000
-0.004435 0.016685 0.879000
0.026708 -0.037403 0.892000
-0.036576 0.014349 0.869000
0.023325 -0.039473 0.889000
0.026459 -0.019501 0.896000
0.017816 -0.021885 0.888000
0.016854 0.042948 0.876000
-0.016355 0.046660 0.878000
0.004616 0.005476 0.880000
-0.019810 0.034099 0.871000
0.003196 0.029283 0.888000
0.028639 -0.030162 0.895000
0.005761 0.022364 0.889000
0.036088 -0.025799 0.897000
-0.009761 -0.030393 0.870000
-0.020192 0.039163 0.872000
0.007479 -0.028079 0.876000
-0.004465 0.041204 0.885000
0.013123 0.015831 0.892000
0.019386 0.003352 0.893000
-0.007603 -0.026782 0.869000
-0.015132 -0.018219 0.870000
-0.009034 -0.026424 0.869000
0.029073 -0.019154 0.897000
-0.005105 -0.039703 0.870000
0.020351 0.016107 0.887000
0.008200 -0.029161 0.876000
-0.006173 -0.011760 0.869000
-0.010107 -0.024994 0.869000
0.023036 0.002981 0.892000
-0.013449 0.036139 0.877000
-0.007612 -0.035048 0.870000
0.030549 -0.028014 0.897000
0.006758 -0.037453 0.876000
-0.031386 0.022090 0.864000
0.000998 0.018599 0.884000
-0.009096 0.028134 0.875000
-0.027475 0.027424 0.864000
0.033268 0.008021 0.881000
0.036867 -0.025828 0.898000
-0.000821 0.024057 0.884000
0.044397 -0.020377 0.886000
0.012656 0.031005 0.885000
-0.006194 0.006862 0.872000
0.042890 -0.015619 0.885000
-0.014399 -0.016052 0.869000
0.011123 -0.038305 0.879000
-0.016641 0.032778 0.874000
-0.012954 0.002186 0.868000
0.010152 0.009191 0.889000
0.000271 0.025177 0.885000
0.013857 0.013995 0.892000
0.031253 -0.034621 0.896000
0.018651 -0.003999 0.893000
-0.017935 0.022881 0.867000
-0.022496 0.012845 0.864000
-0.012239 0.006116 0.868000
-0.014416 0.021886 0.870000
-0.004031 -0.009983 0.870000
0.008600 0.046404 0.880000
0.015916 0.028059 0.884000
0.033381 0.001135 0.884000
-0.001911 0.022939 0.883000
-0.028897 0.027780 0.864000
0.005761 0.026388 0.889000
-0.012019 0.038348 0.878000
-0.030390 0.007884 0.866000
-0.032321 0.037999 0.870000
-0.027895 0.034616 0.866000
0.005023 0.036592 0.888000
0.010785 -0.043469 0.881000
-0.007621 0.005779 0.871000
0.022720 -0.013938 0.894000
0.028239 -0.039327 0.894000
-0.002264 0.015962 0.879000
0.012305 0.030675 0.886000
-0.001554 0.045313 0.887000
0.037439 -0.023505 0.894000
0.034434 0.000044 0.883000
-0.037826 0.038873 0.890000
0.004224 -0.030893 0.874000
0.003196 0.025262 0.888000
0.004944 -0.041685 0.874000
0.031253 -0.033883 0.896000
-0.003686 -0.044152 0.873000
0.018870 -0.028764 0.886000
0.020351 -0.038654 0.887000
0.005322 -0.012951 0.877000
0.028287 0.009140 0.884000
0.011173 -0.006498 0.883000
0.018505 -0.033870 0.886000
-0.016923 0.016156 0.870000
-0.018313 -0.006388 0.868000
-0.011296 0.035819 0.878000
0.018484 -0.037838 0.885000
0.016757 -0.043913 0.890000
-0.024687 0.027488 0.866000
-0.027506 0.031016 0.865000
0.042842 -0.012691 0.884000
0.020397 -0.043132 0.889000
-0.016884 -0.009603 0.868000
0.009335 -0.008659 0.881000
-0.009044 0.007204 0.870000
0.044447 -0.021495 0.887000
0.010822 -0.016329 0.884000
-0.001190 0.046095 0.888000
-0.004802 0.021413 0.880000
-0.004747 -0.023232 0.870000
-0.008025 0.015547 0.876000
0.012917 0.043408 0.878000
0.009698 0.043193 0.881000
-0.034033 0.012547 0.868000
-0.020215 0.041005 0.873000
-0.008746 0.018071 0.876000
0.006434 0.000769 0.881000
0.030549 -0.024322 0.897000
-0.009738 -0.008174 0.868000
0.018547 -0.022251 0.888000
-0.008395 0.018813 0.877000
0.010037 -0.037582 0.879000
0.007151 0.048939 0.880000
-0.010885 0.029540 0.874000
-0.002957 -0.011774 0.870000
0.011249 0.027486 0.889000
0.005029 0.028218 0.889000
-0.006888 -0.004964 0.869000
-0.014757 0.008269 0.869000
-0.020122 -0.003176 0.869000
0.007151 0.048577 0.880000
0.022440 0.019669 0.883000
-0.031926 0.037955 0.869000
-0.034072 0.008985 0.869000
-0.018983 0.008241 0.866000
-0.002241 -0.035407 0.870000
-0.012741 0.037626 0.878000
-0.004384 -0.035366 0.869000
-0.025217 0.042393 0.872000
0.011199 -0.000321 0.885000
-0.033241 0.015013 0.866000
0.017142 0.012879 0.891000
-0.015219 0.035696 0.875000
0.018243 -0.012058 0.891000
-0.015508 0.017609 0.871000
0.026340 -0.035200 0.892000
-0.002649 0.042757 0.887000
0.022830 0.016780 0.884000
-0.009159 0.037754 0.881000
-0.016641 0.034936 0.874000
-0.016169 0.007188 0.868000
-0.034628 0.032418 0.874000
0.006133 0.027883 0.890000
0.003513 -0.046467 0.876000
0.012375 0.007378 0.891000
0.014330 0.045111 0.876000
0.008600 -0.012995 0.880000
0.005670 -0.028767 0.875000
0.033344 0.002951 0.883000
-0.017400 0.044751 0.876000
-0.021122 0.015726 0.866000
-0.001551 0.029184 0.885000
0.003922 0.042027 0.887000
0.039976 -0.010884 0.885000
-0.011671 0.038392 0.879000
0.003149 -0.046054 0.875000
0.015412 0.046554 0.876000
0.026311 0.000044 0.891000
0.024192 -0.018721 0.894000
0.032980 0.002588 0.883000
0.014959 0.003715 0.892000
0.030180 -0.026906 0.897000
-0.019810 0.031231 0.871000
0.010624 -0.045047 0.898000
-0.014399 -0.017840 0.869000
0.006058 -0.018407 0.879000
-0.027538 0.034616 0.866000
0.030039 0.008393 0.882000
0.030147 -0.015813 0.896000
0.028271 -0.030530 0.895000
-0.028864 0.013895 0.863000
0.003553 0.016818 0.886000
0.003188 0.044168 0.886000
0.031183 -0.014306 0.894000
0.008313 0.009181 0.888000
0.026002 -0.027889 0.893000
0.010810 -0.020308 0.883000
0.010822 -0.015601 0.884000
-0.016169 -0.008888 0.868000
0.003513 -0.027358 0.876000
-0.021936 0.035134 0.870000
0.030515 -0.017657 0.896000
-0.030995 0.018513 0.863000
0.012375 0.008479 0.891000
0.015326 0.012894 0.892000
-0.038181 0.009745 0.873000
0.020374 -0.032484 0.888000
0.021447 0.013917 0.887000
-0.001913 0.026968 0.884000
-0.010095 -0.017105 0.868000
0.011498 -0.036538 0.880000
-0.012239 -0.008888 0.868000
0.012208 -0.028899 0.879000
0.011485 0.043095 0.879000
-0.025399 0.031409 0.866000
0.008629 0.001497 0.883000
0.000997 0.016761 0.883000
-0.026082 0.027100 0.865000
0.028383 0.004060 0.887000
0.007505 -0.008639 0.879000
0.002429 -0.012561 0.875000
0.020351 -0.037559 0.887000
0.035058 -0.007726 0.899000
0.013445 0.023461 0.889000
0.014575 0.017280 0.891000
0.033354 -0.014658 0.893000
0.011186 -0.017057 0.884000
-0.027088 0.016382 0.863000
0.010060 0.041743 0.881000
0.022694 -0.019803 0.893000
-0.019696 0.002181 0.866000
-0.012394 0.040201 0.879000
0.031163 0.005495 0.883000
-0.010177 0.029934 0.875000
0.017836 -0.017519 0.889000
-0.006628 0.034530 0.882000
-0.025667 0.014961 0.863000
0.015309 -0.001790 0.891000
-0.012954 -0.001029 0.868000
-0.019407 0.027225 0.869000
-0.013668 -0.001029 0.868000
0.016795 0.009589 0.892000
-0.005815 -0.032147 0.869000
0.022491 0.015706 0.885000
-0.004419 0.014105 0.876000
-0.008786 0.035900 0.880000
0.045076 -0.016712 0.885000
-0.029643 0.008587 0.865000
-0.005457 -0.031432 0.869000
-0.022320 0.040911 0.871000
0.014193 -0.000689 0.890000
-0.012954 -0.011389 0.868000
0.012236 -0.035854 0.881000
-0.015526 0.029114 0.872000
0.001003 0.036592 0.888000
0.032692 -0.017269 0.895000
0.002092 0.017892 0.885000
-0.008405 0.022087 0.878000
-0.031386 0.016045 0.864000
-0.013826 0.041962 0.878000
0.025635 -0.029727 0.893000
-0.032358 0.002911 0.871000
-0.015490 0.011501 0.870000
0.011927 -0.014526 0.885000
-0.014074 0.014024 0.871000
0.001734 0.032937 0.888000
-0.025964 0.042801 0.873000
0.012727 0.001143 0.890000
0.014065 -0.032265 0.882000
0.013324 -0.025339 0.881000
0.016280 0.027695 0.884000
-0.026377 0.009278 0.863000
-0.006896 0.000043 0.870000
-0.029608 0.012489 0.864000
-0.009148 0.036263 0.880000
0.031288 -0.019892 0.897000
-0.015219 0.032455 0.875000
-0.007961 0.001116 0.869000
-0.005520 0.017409 0.879000
-0.020598 0.043929 0.874000
-0.005188 0.037519 0.884000
0.014510 -0.016750 0.887000
-0.016121 -0.018897 0.885000
-0.012596 -0.011389 0.868000
0.024587 -0.013585 0.895000
0.017736 0.025876 0.884000
-0.022957 0.028266 0.868000
0.001730 0.047085 0.886000
0.004984 0.002944 0.881000
-0.007237 -0.008888 0.868000
0.032619 -0.010615 0.893000
-0.008686 0.006130 0.870000
-0.035590 0.039160 0.880000
-0.009446 0.024864 0.874000
-0.012596 0.000400 0.868000
0.025262 0.019602 0.880000
0.039015 -0.015306 0.888000
0.020810 -0.020859 0.891000
0.014428 -0.039525 0.882000
-0.031742 0.021379 0.864000
0.018120 -0.023268 0.885000
0.007224 0.030779 0.889000
-0.011244 0.029540 0.874000
0.010761 -0.038305 0.879000
-0.010872 0.024836 0.873000
0.033669 0.004037 0.882000
0.030746 -0.009134 0.892000
-0.025934 0.042393 0.872000
-0.014757 0.008985 0.869000
-0.025696 0.020668 0.864000
0.040249 -0.006861 0.883000
-0.005842 0.010104 0.873000
-0.031386 0.021735 0.864000
-0.032453 0.017823 0.864000
-0.021835 0.016795 0.866000
-0.006530 -0.027140 0.869000
-0.012611 0.006481 0.869000
-0.017618 0.026152 0.869000
-0.019049 -0.005680 0.869000
-0.019856 0.041005 0.873000
-0.014723 -0.004596 0.867000
0.002431 -0.020147 0.876000
-0.031742 0.016045 0.864000
-0.017618 0.013634 0.869000
0.008921 -0.032766 0.876000
0.026370 -0.030462 0.893000
-0.003004 0.029151 0.884000
0.040247 -0.021959 0.891000
0.018976 -0.014258 0.891000
0.024219 -0.006955 0.895000
-0.009511 0.036625 0.880000
0.011576 0.031769 0.886000
0.008983 -0.021374 0.882000
0.021205 0.031447 0.877000
-0.009817 0.029934 0.875000
-0.022652 0.035851 0.870000
0.001363 0.021170 0.885000
-0.011592 -0.032589 0.901000
0.024587 -0.015059 0.895000
0.005676 -0.028440 0.876000
-0.014025 -0.008531 0.868000
0.025721 -0.012494 0.896000
0.001345 -0.031936 0.873000
-0.039755 0.006173 0.876000
0.036656 -0.004686 0.884000
0.017529 -0.004729 0.892000
-0.007603 -0.002818 0.869000
0.023088 -0.002899 0.894000
-0.027088 0.010343 0.863000
0.008668 0.033265 0.887000
0.001368 0.042075 0.888000
0.010810 -0.004681 0.883000
-0.025072 0.031445 0.867000
-0.021479 0.001112 0.866000
-0.013311 -0.004959 0.868000
-0.014723 -0.004239 0.867000
0.006383 -0.031253 0.874000
0.028447 -0.001054 0.889000
0.024900 -0.026786 0.893000
0.023062 -0.021273 0.893000
0.005029 0.032975 0.889000
0.017214 0.040424 0.876000
0.032543 0.009834 0.881000
0.004605 -0.018748 0.878000
-0.016169 -0.008531 0.868000
-0.026408 0.003954 0.864000
-0.013668 0.005759 0.868000
0.002830 0.037689 0.888000
-0.020790 0.020383 0.867000
-0.014025 -0.015319 0.868000
0.014925 0.018726 0.890000
-0.011009 -0.032338 0.884000
-0.031705 0.019934 0.863000
-0.011882 -0.003530 0.868000
-0.006173 -0.016052 0.869000
0.005352 0.010208 0.882000
0.035121 0.000770 0.882000
0.001732 0.026329 0.887000
0.023690 -0.038741 0.889000
0.019039 0.036139 0.877000
-0.030103 0.038626 0.868000
-0.015437 -0.006023 0.867000
-0.031350 0.017802 0.863000
0.036251 -0.001410 0.883000
-0.011591 0.028429 0.873000
-0.035625 0.006503 0.872000
0.005304 -0.040965 0.874000
0.023430 -0.021273 0.893000
0.009698 -0.007571 0.881000
-0.039573 0.014040 0.872000
0.013490 0.012159 0.892000
-0.015455 0.005044 0.868000
0.014892 -0.013845 0.888000
0.010411 0.043144 0.880000
-0.025875 0.040506 0.870000
-0.010453 -0.000314 0.868000
0.006866 0.027517 0.890000
0.025377 0.013870 0.884000
-0.010095 -0.019249 0.868000
0.012599 -0.040931 0.881000
-0.005895 0.030865 0.881000
0.022202 -0.037236 0.888000
-0.004753 -0.021825 0.871000
-0.032528 0.028914 0.866000
0.020076 0.009579 0.891000
0.007505 -0.014066 0.879000
0.035121 0.004763 0.882000
0.015570 0.025905 0.885000
-0.010095 -0.004959 0.868000
-0.030320 0.025646 0.864000
-0.028508 0.013540 0.863000
0.014193 -0.002520 0.890000
-0.012954 -0.006388 0.868000
-0.004394 -0.004976 0.871000
0.023850 -0.010638 0.895000
-0.010810 -0.003887 0.868000
-0.027538 0.002538 0.866000
-0.042349 0.013157 0.885000
0.014543 -0.005810 0.889000
-0.027150 0.029592 0.865000
-0.026438 0.027100 0.865000
0.007167 0.004400 0.882000
0.022102 0.018599 0.884000
-0.005822 -0.021442 0.870000
-0.030711 0.010723 0.865000
0.017776 0.021194 0.886000
-0.023315 0.030052 0.868000
0.025957 0.024644 0.879000
-0.034072 0.009342 0.869000
0.012961 -0.038030 0.881000
0.012656 0.032098 0.885000
0.012727 0.004806 0.890000
0.023824 -0.002164 0.894000
-0.017914 0.003607 0.866000
-0.020742 0.002179 0.865000
-0.014740 -0.000672 0.868000
0.017896 0.009222 0.892000
-0.023011 -0.002543 0.898000
-0.016507 -0.003526 0.867000
0.009064 0.016161 0.890000
0.035846 -0.015358 0.891000
0.010026 0.047383 0.878000
-0.024358 0.028590 0.867000
-0.024630 0.005021 0.864000
0.005761 0.034438 0.889000
-0.032491 0.016064 0.865000
0.002459 0.045262 0.886000
0.007119 -0.043583 0.876000
-0.004389 -0.024306 0.870000
0.020121 -0.009512 0.893000
0.016427 -0.001424 0.892000
-0.007246 -0.016052 0.869000
-0.041855 0.007370 0.890000
-0.006244 0.022474 0.879000
-0.003311 -0.035008 0.869000
-0.012295 0.013322 0.872000
-0.008319 0.001474 0.869000
0.008649 0.005872 0.885000
0.016989 -0.027577 0.883000
-0.015830 0.020787 0.869000
0.012236 -0.025339 0.881000
0.022567 0.011008 0.888000
-0.004389 -0.009983 0.870000
0.020031 -0.023739 0.889000
-0.021293 0.042082 0.873000
0.030884 -0.034621 0.896000
0.019343 0.011046 0.891000
-0.038225 0.007597 0.874000
0.021568 0.005184 0.892000
0.019365 -0.013173 0.892000
-0.021785 0.008222 0.864000
0.024482 0.027146 0.878000
-0.007961 -0.002818 0.869000
0.012699 0.026724 0.888000
0.010376 -0.028833 0.877000
-0.018271 0.001468 0.866000
0.013490 0.011792 0.892000
0.040340 -0.011248 0.885000
-0.022626 0.034736 0.869000
-0.022756 0.044289 0.874000
-0.004096 0.035336 0.884000
-0.041103 0.012993 0.874000
0.045025 -0.018512 0.884000
-0.014383 -0.002458 0.868000
-0.010119 0.007921 0.870000
-0.015132 -0.017861 0.870000
-0.028121 0.015653 0.862000
0.002459 0.020465 0.886000
-0.016717 0.047021 0.878000
-0.014025 -0.005316 0.868000
0.010529 0.024220 0.890000
-0.020790 0.021096 0.867000
0.016372 -0.013128 0.889000
-0.034150 0.034458 0.871000
0.009441 0.022047 0.891000
0.000636 0.045313 0.887000
-0.017261 0.016495 0.869000
-0.015437 0.001827 0.867000
-0.004040 -0.006058 0.872000
-0.000823 0.031040 0.886000
0.028127 0.018132 0.879000
-0.007961 -0.029286 0.869000
-0.031859 0.040471 0.877000
-0.023672 0.032553 0.868000
0.023036 0.026423 0.878000
-0.022851 0.012845 0.864000
-0.009392 -0.014264 0.869000
-0.008338 -0.036523 0.871000
0.041162 -0.017115 0.887000
-0.007337 0.031916 0.880000
0.030765 0.008756 0.882000
0.021568 -0.017945 0.892000
0.020857 0.004822 0.893000
0.008238 -0.007563 0.880000
-0.024956 0.013185 0.863000
-0.031067 0.027100 0.865000
0.034473 -0.001048 0.884000
-0.002259 0.009067 0.877000
0.005735 0.011700 0.885000
-0.013326 -0.019271 0.869000
-0.002246 -0.018261 0.872000
0.006812 0.044745 0.883000
0.015447 0.039071 0.878000
0.026134 0.010243 0.885000
0.013460 0.021656 0.890000
-0.008786 0.035176 0.880000
0.007658 -0.006970 0.897000
0.015570 -0.021811 0.885000
-0.001186 0.030276 0.885000
0.025664 -0.005475 0.894000
-0.002638 0.024757 0.883000
-0.022345 0.042034 0.872000
-0.004068 0.015582 0.878000
-0.033954 0.015726 0.866000
0.018263 -0.007299 0.892000
0.028145 -0.003623 0.891000
0.028303 -0.020976 0.896000
0.001367 0.043487 0.887000
-0.000094 0.025177 0.885000
0.025013 0.014233 0.884000
-0.006983 0.032315 0.881000
0.012584 -0.025672 0.880000
-0.004813 0.030174 0.882000
-0.007246 -0.022132 0.869000
-0.018627 0.001468 0.866000
0.002805 0.007287 0.880000
-0.007603 -0.030001 0.869000
0.020351 -0.040114 0.887000
-0.004031 -0.025739 0.870000
-0.004460 0.037883 0.884000
-0.038364 0.002252 0.894000
0.002827 0.024869 0.887000
-0.024687 0.029270 0.866000
-0.019246 -0.009714 0.878000
0.016335 0.022313 0.887000
-0.020076 0.013246 0.867000
0.002426 -0.029454 0.874000
0.024111 -0.032961 0.891000
-0.027321 0.044331 0.882000
0.007947 0.032937 0.888000
0.024788 0.004801 0.889000
0.011262 0.024587 0.890000
0.021082 -0.039384 0.887000
0.031445 -0.009124 0.891000
0.006133 0.029349 0.890000
0.006390 -0.043533 0.875000
-0.020790 0.017528 0.867000
0.004297 0.028950 0.889000
-0.007961 0.000758 0.869000
-0.004394 -0.005334 0.871000
0.008972 -0.006483 0.881000
-0.016564 0.017589 0.870000
0.000272 0.036592 0.888000
0.006113 0.038742 0.887000
0.013079 -0.000322 0.889000
-0.007603 -0.015694 0.869000
0.018976 -0.013158 0.891000
0.002821 0.017528 0.885000
-0.026887 0.038626 0.868000
-0.006880 -0.010317 0.868000
0.009356 0.039657 0.883000
0.037807 -0.024241 0.894000
0.009356 0.040021 0.883000
0.013795 -0.009824 0.888000
-0.041966 0.010872 0.877000
0.017549 0.000412 0.893000
0.024587 -0.011007 0.895000
0.014925 -0.006183 0.890000
0.006037 -0.044664 0.876000
-0.018439 0.041411 0.874000
-0.019719 0.022524 0.867000
0.029711 -0.010627 0.894000
-0.028284 0.036797 0.867000
0.044712 -0.018897 0.885000
0.028639 -0.010638 0.895000
0.005310 -0.038851 0.875000
0.020420 0.009934 0.890000
-0.009805 0.024864 0.874000
0.005328 -0.022361 0.878000
-0.028186 0.008933 0.864000
0.040976 -0.010132 0.883000
0.008331 0.026052 0.890000
-0.038050 0.015082 0.870000
-0.018313 -0.006745 0.868000
-0.022904 0.021785 0.866000
0.011941 0.029946 0.886000
-0.018503 0.046607 0.877000
0.026771 0.014927 0.882000
0.029811 -0.022107 0.897000
-0.013684 -0.016410 0.869000
0.012961 -0.036579 0.881000
-0.036744 0.006151 0.873000
0.009399 -0.044860 0.887000
-0.002998 0.021824 0.882000
0.019408 -0.001428 0.894000
-0.024658 0.023540 0.865000
-0.009392 -0.025709 0.869000
-0.019474 0.034497 0.872000
-0.000451 -0.028669 0.872000
-0.001554 0.038742 0.887000
0.022745 -0.005113 0.895000
0.023377 0.003711 0.891000
-0.002243 -0.015730 0.871000
0.026459 -0.019870 0.896000
-0.003315 -0.010699 0.870000
0.001362 0.016780 0.884000
0.020880 -0.008787 0.894000
0.030147 -0.030195 0.896000
0.020121 -0.008409 0.893000
0.023377 -0.029294 0.891000
0.010174 0.019480 0.891000
-0.024246 0.006081 0.863000
0.012961 -0.040205 0.881000
0.005322 -0.012229 0.877000
0.009303 -0.039707 0.878000
0.035444 0.002944 0.881000
-0.005105 -0.023590 0.870000
0.032180 0.007296 0.881000
0.020144 0.001884 0.894000
0.031288 -0.021369 0.897000
0.014909 -0.009103 0.889000
0.035280 -0.005061 0.886000
0.010458 -0.017784 0.884000
-0.004175 -0.046681 0.901000
0.012976 -0.034806 0.882000
0.003192 0.041662 0.887000
0.027073 0.017429 0.880000
0.030746 -0.009868 0.892000
-0.014383 -0.007817 0.868000
-0.029964 0.013200 0.864000
-0.005822 -0.039345 0.870000
-0.001524 -0.040420 0.870000
0.038432 -0.006498 0.883000
0.003549 0.045211 0.885000
-0.000452 -0.025468 0.873000
-0.005099 -0.034651 0.869000
0.002064 -0.034091 0.873000
-0.020742 0.003247 0.865000
0.031113 -0.010603 0.892000
0.011927 -0.018169 0.885000
0.022202 0.011739 0.888000
-0.004414 0.012648 0.875000
0.010152 0.027852 0.889000
0.000636 0.032535 0.887000
0.004258 0.004032 0.881000
0.010847 0.031769 0.886000
0.022202 -0.038697 0.888000
0.000267 -0.029420 0.873000
-0.000824 0.040567 0.887000
0.012976 -0.034080 0.882000
0.015309 -0.003623 0.891000
-0.017781 0.045885 0.877000
0.018848 -0.026911 0.885000
-0.032809 0.018890 0.864000
-0.013342 -0.020725 0.870000
0.007530 0.000770 0.882000
-0.001169 -0.026157 0.872000
0.006797 -0.000682 0.881000
0.035152 -0.016477 0.892000
0.020787 -0.023033 0.890000
0.013339 -0.041703 0.882000
0.016873 0.037944 0.877000
0.002061 -0.038718 0.872000
0.034495 -0.018354 0.894000
-0.000093 -0.046414 0.875000
-0.011895 -0.021775 0.869000
0.009346 -0.022463 0.882000
-0.022522 0.014283 0.865000
-0.029964 0.027424 0.864000
0.012684 -0.002877 0.887000
0.002083 0.013822 0.881000
0.004297 0.035170 0.889000
0.015988 0.020511 0.888000
0.003145 -0.033051 0.874000
0.031323 -0.028784 0.898000
0.015535 -0.039570 0.883000
0.026429 -0.020953 0.895000
-0.017955 0.012547 0.868000
-0.015848 -0.015712 0.870000
0.034148 -0.003235 0.885000
0.005383 0.039472 0.887000
-0.014565 0.044542 0.879000
-0.013311 -0.000314 0.868000
0.000269 0.009800 0.878000
0.012305 0.033228 0.886000
0.018401 0.030140 0.881000
-0.005099 -0.009256 0.869000
0.003505 -0.031612 0.874000
-0.024956 0.007502 0.863000
0.020880 -0.000692 0.894000
0.027934 -0.015076 0.896000
-0.007612 0.004698 0.870000
-0.007321 0.022087 0.878000
-0.003372 0.037561 0.885000
0.044762 -0.020742 0.886000
-0.003673 -0.015354 0.870000
0.030180 -0.028014 0.897000
-0.008080 0.039975 0.882000
-0.013715 -0.023617 0.871000
0.043569 -0.014874 0.884000
-0.011564 -0.028636 0.871000
0.020512 -0.003267 0.894000
-0.006180 -0.020725 0.870000
0.029409 -0.029458 0.896000
0.019422 0.033651 0.878000
0.010083 -0.020308 0.883000
0.009665 -0.026698 0.878000
-0.005822 -0.016429 0.870000
-0.012654 0.014040 0.872000
0.011498 -0.039073 0.880000
-0.005822 -0.018219 0.870000
-0.017955 -0.004959 0.868000
0.039059 -0.017153 0.889000
0.012361 0.003341 0.890000
0.006758 -0.028440 0.876000
-0.014757 -0.016410 0.869000
0.021984 -0.004003 0.894000
-0.026499 0.036797 0.867000
-0.019027 0.014690 0.868000
-0.023535 0.009633 0.863000
-0.002957 -0.038629 0.870000
-0.013668 0.004687 0.868000
-0.022957 0.029338 0.868000
-0.014432 0.027288 0.871000
-0.018627 0.006459 0.866000
-0.004791 0.016305 0.878000
0.027955 0.007329 0.885000
0.014724 0.041239 0.878000
-0.021528 0.026480 0.868000
0.030919 -0.028014 0.897000
-0.016564 0.018305 0.870000
0.034032 0.003311 0.882000
-0.030853 0.038671 0.869000
-0.019049 -0.007110 0.869000
0.015898 -0.037026 0.883000
-0.032961 0.010403 0.868000
0.010810 -0.021762 0.883000
-0.011193 -0.025380 0.870000
0.024587 -0.014322 0.895000
0.016989 0.028391 0.883000
0.002824 0.044168 0.886000
0.012599 -0.040568 0.881000
-0.017261 0.015780 0.869000
0.009720 0.000407 0.883000
-0.015202 0.030260 0.874000
-0.025667 0.016026 0.863000
0.010435 0.039612 0.882000
0.013094 0.000777 0.890000
0.000626 -0.044102 0.872000
0.019964 0.019006 0.886000
-0.023142 0.044340 0.875000
0.021935 -0.021984 0.892000
-0.018355 0.027257 0.870000
-0.018397 0.030549 0.872000
0.004224 -0.035929 0.874000
0.020009 0.015029 0.888000
0.025377 0.013506 0.884000
-0.015167 0.028396 0.872000
-0.018778 0.037411 0.873000
-0.023699 0.038671 0.869000
0.038198 -0.009802 0.886000
0.015552 -0.033793 0.884000
-0.004026 -0.031789 0.869000
0.007216 0.014298 0.888000
0.016243 0.031263 0.882000
-0.029964 0.028491 0.864000
0.010117 0.035781 0.886000
0.045440 -0.018897 0.885000
0.019621 -0.032813 0.887000
0.016427 -0.001057 0.892000
-0.003001 0.025847 0.883000
0.011914 -0.019604 0.884000
-0.001186 0.028455 0.885000
-0.023010 0.037999 0.870000
0.020374 -0.034312 0.888000
0.042478 -0.014510 0.884000
0.003557 0.040567 0.887000
0.006071 0.004032 0.881000
