0.014656 -0.040683 0.853000
-0.000091 -0.037390 0.858000
0.033108 0.005633 0.849000
0.030140 0.016211 0.854000
0.006980 -0.038494 0.859000
0.024838 -0.004522 0.853000
-0.006690 -0.027748 0.844000
0.012227 -0.039723 0.855000
0.016841 -0.013361 0.857000
-0.021611 -0.020114 0.830000
0.019502 -0.038091 0.850000
-0.023403 -0.032872 0.833000
-0.002913 -0.041932 0.857000
-0.007104 -0.040285 0.852000
0.018103 -0.045438 0.850000
0.015801 -0.013377 0.858000
0.018167 0.016543 0.853000
0.025952 0.009192 0.855000
-0.027385 -0.029302 0.829000
-0.002194 -0.028362 0.852000
-0.013786 -0.011602 0.832000
0.025159 0.033355 0.852000
0.014778 0.038072 0.840000
0.009569 0.049708 0.838000
-0.008185 -0.047113 0.855000
0.020155 0.032850 0.848000
-0.006879 0.029582 0.825000
0.026850 -0.009754 0.850000
-0.009935 0.025507 0.825000
0.042443 0.027233 0.847000
-0.017831 -0.008148 0.829000
0.018781 -0.043637 0.849000
0.023516 0.018715 0.856000
-0.018282 0.035740 0.834000
-0.003929 -0.022994 0.848000
0.012593 -0.003481 0.856000
0.000942 0.015831 0.834000
-0.003246 -0.030466 0.852000
-0.005554 0.016780 0.830000
0.004495 -0.025001 0.857000
-0.023689 -0.028005 0.831000
0.003429 -0.022128 0.855000
0.017878 0.008498 0.856000
0.031984 -0.006582 0.847000
-0.006002 -0.030911 0.845000
0.006076 0.038394 0.832000
0.036689 0.028413 0.851000
-0.002145 0.006898 0.833000
0.020226 -0.041989 0.851000
-0.014027 0.021459 0.826000
0.032720 -0.008335 0.848000
0.029051 0.009170 0.853000
0.014742 -0.005961 0.858000
0.037562 0.009803 0.847000
0.009213 0.025189 0.837000
-0.006979 -0.013738 0.837000
0.022485 0.011330 0.857000
0.015095 -0.008433 0.858000
-0.017490 0.004818 0.829000
-0.000091 -0.039201 0.859000
-0.015822 -0.009536 0.831000
-0.000436 -0.012796 0.843000
-0.017010 -0.032764 0.839000
0.012358 0.033923 0.840000
0.028881 -0.017409 0.848000
-0.026671 -0.023814 0.828000
0.031158 0.012681 0.853000
0.017154 -0.022128 0.855000
-0.010666 -0.001665 0.829000
0.019829 -0.041541 0.849000
0.017565 0.045386 0.841000
-0.032884 -0.028313 0.830000
0.015106 0.045969 0.839000
-0.007604 0.000383 0.830000
-0.007121 -0.044949 0.854000
0.019265 -0.012978 0.855000
-0.018968 0.034024 0.834000
-0.013007 0.020099 0.826000
0.026687 0.018010 0.856000
0.006826 0.010413 0.840000
0.037651 0.018911 0.849000
0.027834 -0.016362 0.848000
-0.012176 -0.024476 0.839000
-0.016566 0.038829 0.834000
0.020976 -0.015405 0.853000
0.015358 -0.037523 0.853000
0.018252 -0.011245 0.857000
-0.008277 0.003453 0.829000
0.001279 0.031469 0.830000
-0.009959 0.034079 0.827000
0.018431 0.025201 0.849000
-0.011844 -0.023814 0.840000
0.022406 0.023241 0.854000
-0.022745 0.028188 0.834000
0.034277 0.022485 0.852000
-0.028715 -0.026200 0.828000
0.002652 0.027094 0.832000
-0.001114 0.045188 0.831000
0.004506 -0.028595 0.859000
-0.000088 0.043715 0.829000
-0.006769 -0.042137 0.854000
-0.021371 0.030935 0.834000
0.026211 -0.004867 0.852000
0.014120 0.030885 0.842000
-0.009525 -0.038046 0.849000
-0.006547 0.023159 0.826000
-0.029774 -0.029985 0.829000
-0.012820 -0.016131 0.836000
-0.010614 0.021093 0.825000
0.015412 0.001452 0.856000
0.007688 -0.030363 0.859000
0.011639 0.026944 0.838000
0.027744 0.016953 0.856000
0.028249 -0.006605 0.850000
0.030277 -0.006590 0.848000
0.031582 0.031362 0.855000
-0.021793 -0.036475 0.837000
-0.006920 0.011656 0.830000
-0.008079 -0.031222 0.844000
0.010705 0.013970 0.846000
0.028565 -0.009742 0.849000
-0.017128 0.001063 0.828000
-0.021979 -0.024243 0.831000
0.030384 0.005996 0.851000
-0.025027 -0.029679 0.830000
-0.001117 0.018212 0.833000
0.002301 0.037232 0.829000
-0.020195 -0.002685 0.828000
-0.013023 0.017060 0.827000
0.012638 -0.014807 0.859000
0.025891 0.000744 0.853000
-0.031480 -0.024526 0.829000
-0.004970 -0.022618 0.847000
-0.024202 0.028695 0.849000
-0.005319 -0.024012 0.847000
0.025071 -0.022322 0.849000
0.023868 0.020829 0.856000
-0.005219 0.004145 0.831000
0.003675 0.028429 0.831000
0.002738 -0.032484 0.859000
0.037214 0.008408 0.847000
0.007652 -0.012978 0.855000
0.017134 -0.024562 0.854000
-0.017896 -0.016396 0.832000
-0.011403 -0.011616 0.833000
0.031398 0.005639 0.850000
-0.023543 -0.037553 0.838000
0.029119 0.033121 0.855000
-0.005181 0.029582 0.825000
0.026687 0.019772 0.856000
0.015801 -0.005961 0.858000
-0.015803 -0.007474 0.830000
-0.017469 -0.003708 0.828000
0.015764 0.003565 0.856000
0.020976 -0.016108 0.853000
0.030527 0.025379 0.855000
0.023543 0.016268 0.857000
0.016023 -0.044090 0.851000
-0.016031 -0.036000 0.842000
-0.015917 -0.030238 0.836000
-0.006579 0.006190 0.830000
-0.004959 -0.018391 0.845000
0.004735 0.050337 0.837000
-0.026735 -0.030363 0.830000
0.006635 -0.033230 0.860000
0.002990 0.047240 0.831000
-0.015498 0.037024 0.832000
0.001630 0.010695 0.835000
-0.009983 0.010277 0.829000
0.025041 -0.026484 0.848000
0.009102 -0.031423 0.859000
0.038045 0.025581 0.850000
0.005219 -0.039955 0.860000
-0.006579 0.005165 0.830000
-0.009197 -0.040938 0.851000
-0.000430 0.011684 0.832000
0.038911 0.011881 0.846000
-0.021028 0.031621 0.834000
0.013970 -0.037216 0.854000
0.010357 0.013273 0.846000
0.016392 0.013367 0.852000
-0.029774 -0.018725 0.829000
0.021277 -0.026577 0.851000
-0.017438 -0.039165 0.843000
0.022132 0.002511 0.857000
0.005037 0.045817 0.830000
0.034076 -0.000307 0.847000
-0.006571 0.015054 0.829000
-0.020829 0.003909 0.854000
-0.030603 -0.034244 0.833000
-0.013363 0.018421 0.827000
-0.008959 0.011983 0.829000
-0.024967 -0.016317 0.828000
0.014389 -0.018321 0.858000
0.025307 0.017326 0.857000
0.009926 0.024214 0.839000
0.012012 0.033231 0.840000
-0.013038 0.008220 0.828000
0.012674 0.028324 0.838000
-0.017810 0.000382 0.828000
0.006867 -0.002045 0.845000
0.028282 -0.002760 0.851000
0.024838 -0.006277 0.853000
-0.018923 -0.019478 0.832000
-0.022240 -0.011205 0.828000
-0.009781 -0.025573 0.841000
0.011223 -0.020110 0.859000
0.028282 -0.001359 0.851000
0.015672 -0.042339 0.851000
0.016605 0.031343 0.845000
0.000935 0.040254 0.828000
0.004152 -0.031423 0.859000
-0.020927 -0.020114 0.830000
0.004017 0.028429 0.831000
0.005566 -0.042737 0.859000
0.028096 0.026818 0.856000
-0.026330 -0.016658 0.828000
-0.013767 -0.047298 0.852000
0.008616 0.000738 0.846000
0.005134 -0.006922 0.846000
0.000614 -0.030257 0.856000
0.022354 0.028446 0.852000
-0.011972 0.021093 0.825000
0.024487 -0.005224 0.853000
0.022132 0.005333 0.857000
0.022081 0.021156 0.855000
-0.005959 -0.014807 0.839000
-0.014061 0.002426 0.828000
-0.003962 -0.038667 0.855000
-0.007393 -0.024999 0.845000
-0.015666 -0.033880 0.841000
0.004695 0.039326 0.830000
0.032990 0.031362 0.855000
0.019365 0.046937 0.844000
-0.000088 0.039913 0.828000
0.028415 0.033121 0.855000
-0.014419 -0.005077 0.829000
0.011210 -0.030327 0.858000
0.004046 0.020711 0.837000
-0.014112 0.036980 0.831000
-0.009921 -0.047002 0.853000
-0.002542 -0.025527 0.851000
0.008385 -0.017614 0.858000
-0.003952 -0.035066 0.853000
0.009879 0.039220 0.835000
-0.003504 0.010631 0.830000
-0.014725 0.019102 0.827000
0.005844 -0.009382 0.848000
0.017321 0.029639 0.846000
0.004046 0.010376 0.837000
-0.012372 0.034161 0.829000
-0.011312 -0.046947 0.852000
0.036909 0.011909 0.848000
-0.002467 0.033697 0.826000
0.001624 0.025724 0.832000
0.002304 0.033177 0.830000
-0.016203 -0.016416 0.833000
-0.002557 -0.039065 0.856000
0.006834 0.016656 0.841000
-0.007558 0.022791 0.825000
-0.008317 -0.008873 0.833000
0.011158 -0.046706 0.854000
-0.002824 0.013380 0.831000
-0.000090 -0.030573 0.855000
-0.004671 -0.043997 0.856000
0.032720 0.001089 0.848000
0.017134 -0.025617 0.854000
0.038000 0.024153 0.849000
-0.008277 0.004135 0.829000
0.017628 0.047979 0.844000
0.021951 -0.028995 0.850000
0.032324 0.018363 0.856000
-0.026962 -0.040969 0.859000
0.031673 -0.010778 0.848000
0.011415 0.011546 0.847000
-0.027484 -0.034545 0.832000
0.015007 0.008468 0.853000
0.021302 -0.021699 0.852000
-0.005006 -0.037523 0.853000
0.009890 0.031353 0.836000
0.013634 -0.036556 0.855000
0.013314 -0.005601 0.857000
-0.003618 -0.042285 0.857000
0.007807 0.027502 0.834000
0.023433 -0.011543 0.853000
0.023323 -0.027214 0.849000
0.029788 0.017968 0.854000
0.013267 0.003206 0.854000
0.002306 0.029797 0.831000
-0.009947 0.031318 0.826000
0.005547 -0.019335 0.856000
0.008585 0.017043 0.843000
-0.026584 -0.036776 0.836000
-0.019173 -0.039859 0.843000
0.028448 0.019067 0.856000
-0.004871 0.016438 0.830000
-0.021129 -0.036519 0.838000
-0.015424 0.002767 0.828000
0.000942 0.010682 0.834000
0.002709 -0.015351 0.850000
-0.002140 0.020905 0.831000
-0.010653 0.034120 0.828000
0.021352 -0.013314 0.854000
-0.009154 -0.034471 0.847000
0.030210 0.028932 0.856000
0.008616 0.001086 0.846000
-0.014419 -0.000983 0.829000
0.004133 -0.019664 0.855000
0.016154 -0.005608 0.858000
-0.025648 -0.017339 0.828000
0.029085 0.014805 0.854000
-0.014796 -0.010220 0.831000
0.018279 0.042321 0.842000
0.023896 0.016973 0.857000
0.018103 -0.038441 0.850000
-0.006666 -0.016227 0.841000
0.009752 -0.005933 0.854000
-0.003250 -0.033661 0.853000
-0.005527 0.024178 0.826000
-0.024285 -0.012568 0.828000
0.033264 0.021809 0.853000
0.000935 0.041617 0.828000
0.005547 -0.020392 0.856000
0.024838 -0.004171 0.853000
-0.002824 0.008250 0.831000
-0.019537 0.001747 0.829000
0.020779 0.045950 0.845000
-0.007472 -0.044246 0.854000
0.018103 -0.039840 0.850000
-0.011675 0.012309 0.828000
-0.001857 -0.041275 0.858000
-0.017030 0.023551 0.840000
0.000970 -0.038848 0.859000
0.029153 0.027523 0.856000
0.007688 -0.037787 0.859000
-0.026194 -0.038757 0.857000
0.022485 0.009213 0.857000
0.008932 0.007328 0.843000
-0.008916 0.028903 0.825000
0.012900 0.003904 0.853000
-0.015879 -0.017808 0.834000
0.005201 -0.023590 0.857000
0.013682 -0.019380 0.858000
0.020226 -0.029730 0.851000
0.025540 -0.001713 0.853000
-0.006634 -0.012360 0.837000
0.001276 0.042299 0.828000
-0.008194 -0.048225 0.856000
-0.009935 0.025168 0.825000
-0.007306 -0.009238 0.835000
-0.014436 -0.007133 0.830000
-0.004187 0.019513 0.830000
-0.011348 0.007889 0.829000
0.026850 -0.010803 0.850000
-0.002814 0.025600 0.828000
0.004740 0.014872 0.838000
0.018039 0.029325 0.847000
0.039748 0.026249 0.849000
0.014171 0.022648 0.845000
0.024458 -0.009426 0.852000
0.011998 0.031811 0.839000
0.012329 0.038326 0.838000
0.005128 -0.005175 0.845000
0.002990 0.028771 0.831000
0.007779 0.045872 0.831000
-0.019173 -0.007797 0.828000
0.027199 -0.007655 0.850000
-0.029056 -0.024837 0.828000
-0.004172 0.026250 0.827000
0.007882 0.015636 0.842000
0.020178 -0.038745 0.849000
0.033030 -0.006233 0.847000
-0.009619 0.034419 0.827000
-0.012045 -0.005766 0.830000
-0.010586 -0.043339 0.850000
0.008616 0.000390 0.846000
-0.017252 -0.026733 0.834000
0.003091 -0.033898 0.859000
0.001276 0.041617 0.828000
0.001286 0.019630 0.835000
0.021227 0.031840 0.849000
0.021252 0.030478 0.850000
0.011223 -0.022938 0.859000
0.006237 -0.012611 0.854000
0.023378 0.033316 0.851000
0.002345 -0.011087 0.845000
0.014742 -0.008786 0.858000
0.024164 -0.003473 0.854000
-0.002554 -0.036908 0.855000
0.015797 0.042515 0.839000
0.018301 0.039942 0.843000
0.005443 0.016636 0.840000
0.000935 0.034120 0.828000
0.030879 0.015174 0.855000
0.019310 -0.001721 0.857000
0.008728 -0.041579 0.857000
0.010832 -0.007356 0.856000
0.022029 -0.013650 0.853000
0.022003 0.027043 0.852000
0.005789 0.015945 0.840000
0.003723 0.051678 0.842000
-0.007385 -0.026011 0.844000
0.020016 -0.004543 0.857000
-0.021899 -0.010524 0.828000
-0.000090 -0.018850 0.850000
-0.020953 -0.021164 0.831000
-0.001152 -0.042383 0.859000
-0.003836 0.039913 0.828000
0.020625 0.021107 0.853000
-0.023459 0.029941 0.835000
-0.032434 -0.022668 0.836000
-0.008527 -0.046355 0.854000
-0.000091 -0.041323 0.859000
-0.022581 -0.016999 0.828000
0.020976 0.023564 0.853000
-0.009971 0.011969 0.828000
-0.017169 0.007898 0.830000
0.002731 -0.029234 0.857000
0.019130 -0.042589 0.849000
0.027744 0.019772 0.856000
-0.016585 -0.021610 0.835000
0.022354 -0.015738 0.852000
0.028183 -0.015315 0.848000
0.000606 -0.014565 0.845000
-0.019878 -0.014290 0.829000
0.004046 0.012443 0.837000
0.010705 0.012925 0.846000
0.013314 -0.025001 0.857000
0.000963 -0.022778 0.853000
0.004791 -0.011114 0.847000
-0.009947 0.031998 0.826000
0.012870 0.009499 0.851000
-0.031264 -0.036034 0.851000
0.035163 0.008418 0.848000
0.017444 -0.036077 0.852000
-0.016125 0.007547 0.829000
-0.020366 0.034065 0.835000
0.021000 -0.013314 0.854000
-0.018611 -0.045384 0.849000
0.013937 0.008458 0.852000
0.005741 0.034326 0.833000
0.038654 0.021332 0.848000
-0.016744 -0.039165 0.843000
-0.008981 -0.004405 0.831000
-0.011957 -0.041841 0.848000
0.015617 0.021332 0.848000
0.019062 0.035210 0.846000
0.023812 -0.002770 0.854000
0.025739 -0.021597 0.848000
-0.011987 0.017719 0.826000
0.026976 0.007072 0.854000
0.038305 0.018540 0.848000
-0.008297 -0.003379 0.831000
-0.008577 0.026866 0.825000
0.019175 -0.031131 0.851000
-0.015517 0.038440 0.833000
-0.011389 -0.010232 0.832000
-0.026330 -0.021429 0.828000
0.007807 0.027159 0.834000
0.024107 -0.013283 0.852000
0.027549 -0.009754 0.850000
0.030698 0.001441 0.850000
-0.011663 -0.046597 0.852000
0.000599 0.016881 0.835000
0.023109 -0.008042 0.854000
0.019388 0.038298 0.845000
-0.002130 0.031696 0.827000
-0.017190 0.030481 0.831000
0.016508 -0.010199 0.858000
0.007679 -0.021146 0.858000
0.018869 -0.025236 0.853000
-0.019241 -0.041046 0.846000
0.018803 -0.036692 0.850000
-0.002140 0.011670 0.831000
0.020273 0.020405 0.853000
0.031361 0.000391 0.849000
0.013603 -0.040683 0.853000
0.002306 0.046898 0.831000
0.000253 0.034801 0.828000
-0.004871 0.012681 0.830000
0.037258 0.013305 0.848000
0.000970 -0.037434 0.859000
0.006142 0.017349 0.841000
0.024515 -0.002067 0.854000
0.013298 -0.001015 0.856000
-0.023603 -0.019043 0.828000
0.014104 0.035002 0.841000
-0.018625 -0.023300 0.834000
0.018082 0.025900 0.849000
0.026687 0.015544 0.856000
-0.020734 -0.032991 0.836000
-0.010640 0.015698 0.827000
0.019153 -0.039141 0.850000
-0.000769 0.031053 0.828000
-0.015765 0.005494 0.828000
0.033303 0.027107 0.854000
-0.025178 -0.036388 0.835000
0.013251 -0.042438 0.853000
-0.031214 -0.031767 0.831000
0.015412 -0.024267 0.856000
0.008395 -0.023292 0.859000
-0.005860 0.026186 0.825000
0.020016 0.009566 0.857000
-0.003496 0.025600 0.828000
-0.032162 -0.026573 0.829000
-0.012866 -0.022749 0.839000
0.006473 0.021451 0.839000
0.023028 -0.021324 0.851000
0.023109 0.024998 0.854000
0.015525 0.031268 0.843000
0.029230 -0.013570 0.848000
0.006488 0.007657 0.841000
0.036646 0.023482 0.850000
0.015966 0.022379 0.848000
-0.013180 -0.024762 0.837000
0.042045 0.017452 0.846000
-0.016546 0.038097 0.833000
0.008150 0.036770 0.834000
0.031984 -0.008673 0.847000
0.002387 -0.042787 0.860000
-0.023944 -0.013931 0.828000
-0.013525 -0.018217 0.837000
0.039607 0.012577 0.846000
0.002373 -0.025295 0.855000
-0.022922 -0.007797 0.828000
-0.000774 0.016498 0.833000
-0.004841 0.029922 0.825000
-0.016106 0.024578 0.828000
0.008943 0.016021 0.844000
0.035988 0.023859 0.851000
-0.011689 0.005500 0.829000
-0.012306 -0.041143 0.848000
0.001962 0.032836 0.830000
0.009997 0.014997 0.845000
-0.003966 -0.041178 0.856000
-0.017831 -0.008489 0.829000
-0.014760 0.008230 0.829000
0.021327 -0.014352 0.853000
-0.010324 0.005159 0.829000
0.018082 -0.042938 0.849000
-0.017701 -0.032764 0.839000
0.035554 0.012622 0.849000
0.004026 0.025412 0.833000
0.027295 0.005659 0.853000
0.006281 -0.035000 0.860000
0.003417 -0.015738 0.852000
-0.015517 -0.013330 0.833000
0.000617 -0.041725 0.860000
0.001995 -0.010727 0.844000
-0.014035 -0.043534 0.847000
0.020697 -0.007004 0.856000
-0.016807 -0.005418 0.829000
0.027391 0.026818 0.856000
0.001285 0.015145 0.834000
0.001675 -0.008786 0.858000
0.020321 0.015174 0.855000
0.010516 -0.016574 0.859000
0.012579 -0.035852 0.855000
-0.002143 0.015793 0.832000
-0.012103 -0.013003 0.834000
0.017301 0.032038 0.845000
0.000255 0.015126 0.833000
0.034732 0.000042 0.846000
0.008748 -0.029656 0.859000
0.012255 -0.006307 0.857000
0.006105 0.024471 0.836000
0.016004 0.017884 0.850000
0.012098 0.018148 0.846000
-0.009971 0.036846 0.828000
-0.009078 -0.016553 0.840000
0.033147 0.008788 0.850000
-0.031821 -0.025208 0.829000
-0.029433 -0.030667 0.829000
0.005385 0.030481 0.831000
0.006956 -0.016869 0.856000
0.005782 0.020760 0.839000
0.039654 0.017124 0.847000
0.003666 0.042009 0.829000
0.030975 -0.006590 0.848000
0.022106 0.015192 0.856000
-0.015703 -0.036736 0.843000
-0.019584 -0.018086 0.831000
-0.002476 0.025290 0.829000
0.014742 -0.004195 0.858000
-0.002554 -0.034796 0.855000
-0.024997 -0.024867 0.829000
0.028349 0.006362 0.853000
0.016893 0.039202 0.842000
-0.007045 -0.026042 0.845000
-0.010820 -0.024534 0.841000
0.013003 0.041036 0.837000
0.018252 -0.010539 0.857000
-0.013395 -0.002347 0.829000
0.004791 -0.010416 0.847000
0.028216 -0.010441 0.849000
-0.024967 -0.013591 0.828000
-0.023403 -0.003387 0.833000
-0.000440 -0.021674 0.851000
0.008738 -0.035624 0.858000
0.016873 0.046078 0.841000
0.016546 0.037816 0.842000
0.033615 0.026373 0.853000
0.004021 0.026751 0.832000
-0.022922 -0.015635 0.828000
0.013143 0.020934 0.846000
0.007455 0.029526 0.833000
-0.014454 -0.008852 0.831000
-0.018479 -0.039512 0.843000
0.022459 0.000395 0.856000
0.020853 0.034246 0.848000
0.009809 -0.025060 0.859000
0.034506 0.011224 0.849000
-0.006237 0.012339 0.830000
-0.013379 0.008561 0.828000
-0.005896 0.003799 0.830000
0.010897 0.045008 0.834000
0.018453 -0.040890 0.850000
0.028666 0.005653 0.852000
0.015160 0.028805 0.842000
0.017586 0.039202 0.842000
-0.010967 0.029958 0.826000
0.017154 -0.021776 0.855000
-0.011259 -0.039398 0.848000
-0.020877 -0.005071 0.828000
0.025861 -0.007322 0.852000
-0.006066 -0.042488 0.854000
0.012976 -0.022205 0.858000
-0.027109 -0.032793 0.831000
-0.021269 -0.000301 0.830000
0.032681 -0.002747 0.847000
-0.016863 -0.045734 0.849000
-0.014367 0.020439 0.826000
0.040652 0.019193 0.846000
0.029051 0.011277 0.853000
-0.012161 -0.025827 0.838000
-0.008257 0.018421 0.827000
0.007464 0.034710 0.834000
0.025420 -0.022322 0.849000
0.020721 0.001806 0.857000
-0.007367 -0.017286 0.842000
-0.012292 -0.040397 0.847000
0.008219 0.050578 0.841000
0.003345 0.025099 0.834000
0.000261 -0.027023 0.854000
0.030843 0.017617 0.854000
-0.003262 -0.039769 0.856000
0.019342 0.045494 0.843000
-0.010031 -0.011616 0.833000
-0.001787 0.035737 0.826000
-0.010954 0.022451 0.825000
0.008738 -0.019027 0.858000
0.021703 0.020780 0.854000
-0.005357 -0.037874 0.853000
0.016488 0.000748 0.857000
-0.027418 -0.012940 0.830000
-0.001110 0.040936 0.828000
0.006076 0.029491 0.832000
-0.019702 -0.031958 0.836000
0.000614 -0.031314 0.856000
-0.010653 0.010605 0.828000
0.020297 -0.014369 0.854000
-0.023717 -0.030093 0.832000
-0.003147 0.032678 0.826000
0.034979 0.025641 0.852000
0.025770 -0.017779 0.849000
-0.015083 0.004130 0.828000
0.008494 0.048784 0.834000
0.001669 -0.025295 0.855000
-0.020244 -0.018406 0.830000
0.001285 0.012742 0.834000
0.035371 0.028831 0.853000
0.040399 0.027964 0.848000
-0.006237 0.005165 0.830000
0.027711 0.014822 0.855000
-0.005206 0.018807 0.829000
0.040050 0.023077 0.848000
0.018540 -0.032295 0.854000
-0.000773 0.022984 0.832000
-0.019974 0.030212 0.833000
0.000261 -0.027374 0.854000
0.028666 0.004951 0.852000
-0.012958 -0.035432 0.845000
-0.010274 0.021093 0.825000
-0.016844 -0.045331 0.848000
-0.007897 0.029242 0.825000
0.001616 0.039572 0.828000
-0.020342 -0.028106 0.834000
0.037911 0.014683 0.847000
0.005201 -0.023943 0.857000
0.037695 0.025930 0.850000
0.015451 0.046314 0.839000
0.027517 -0.022322 0.849000
0.023868 0.008145 0.856000
0.015783 0.000042 0.857000
-0.018946 0.031926 0.833000
0.018301 0.039595 0.843000
0.029963 -0.003802 0.849000
0.011639 0.029703 0.838000
-0.002205 -0.036951 0.856000
0.020552 -0.033193 0.850000
0.032098 0.004940 0.850000
-0.008949 0.013332 0.828000
-0.013054 0.002771 0.829000
0.031860 0.020756 0.853000
0.011917 -0.014083 0.858000
0.005391 0.036339 0.832000
0.011764 0.015381 0.847000
0.012961 -0.025354 0.857000
0.015077 -0.021121 0.857000
-0.012016 0.007538 0.828000
0.019175 -0.031831 0.851000
0.008494 0.039173 0.834000
0.027744 0.022590 0.856000
0.004401 0.018343 0.839000
-0.018150 -0.004389 0.828000
0.003361 0.017632 0.838000
0.012373 0.023579 0.841000
0.011722 0.021232 0.844000
-0.004853 0.038163 0.827000
0.020976 0.023213 0.853000
0.012608 -0.029939 0.857000
-0.013086 0.037664 0.831000
-0.015480 -0.010562 0.831000
-0.010337 -0.004400 0.830000
0.011280 0.030357 0.837000
0.012549 -0.045949 0.853000
0.029153 0.023295 0.856000
0.017920 -0.001017 0.858000
-0.014061 0.006857 0.828000
-0.000430 0.012026 0.832000
-0.009547 -0.042339 0.851000
-0.020220 -0.000641 0.829000
0.020016 0.010624 0.857000
-0.008597 0.036802 0.827000
0.005734 0.027094 0.832000
0.010163 -0.024706 0.859000
0.020552 0.028030 0.850000
0.011833 0.003198 0.852000
0.015178 0.033003 0.843000
-0.011348 0.004135 0.829000
-0.006579 0.003457 0.830000
0.019108 0.030756 0.848000
0.002320 0.016213 0.836000
0.025277 0.019067 0.856000
-0.007984 -0.008884 0.834000
0.013329 -0.010552 0.858000
0.010693 0.007693 0.845000
-0.019584 -0.019454 0.831000
0.012987 0.045116 0.836000
0.005437 0.015235 0.839000
-0.026362 -0.013948 0.829000
0.006480 0.019402 0.840000
-0.004965 -0.028859 0.846000
-0.011647 0.028598 0.826000
-0.028715 -0.023814 0.828000
-0.026832 -0.034929 0.833000
0.010021 0.050939 0.847000
-0.005394 -0.049101 0.859000
-0.006690 -0.029485 0.844000
-0.012357 0.031394 0.828000
-0.011307 0.019079 0.826000
0.006244 -0.015793 0.855000
0.021427 0.008508 0.857000
0.018018 0.031031 0.846000
-0.010678 0.037618 0.830000
-0.001142 -0.024505 0.852000
0.009985 0.018800 0.844000
-0.030115 -0.019749 0.829000
-0.002207 -0.040521 0.857000
-0.013070 -0.006791 0.830000
-0.015174 -0.014358 0.833000
0.005920 -0.042383 0.859000
0.041746 0.025839 0.847000
0.020754 0.043464 0.844000
0.025952 0.029602 0.855000
0.011456 0.003890 0.850000
0.025159 -0.007673 0.852000
-0.027385 -0.013266 0.829000
0.013682 -0.006667 0.858000
-0.018282 -0.022271 0.834000
-0.026330 -0.026200 0.828000
-0.019655 -0.028793 0.834000
0.026656 0.010599 0.855000
-0.012387 -0.006791 0.830000
0.037039 0.028413 0.851000
0.017837 -0.022453 0.854000
-0.010561 -0.036605 0.848000
0.001624 0.026409 0.832000
-0.007446 -0.037085 0.851000
0.011523 -0.042186 0.855000
0.010579 0.048557 0.836000
-0.011293 0.022112 0.825000
-0.011348 0.003794 0.829000
0.041348 0.022326 0.846000
-0.010287 0.017379 0.826000
0.005134 -0.007967 0.846000
-0.002875 -0.017716 0.846000
-0.013038 0.013332 0.828000
0.006550 -0.008694 0.849000
-0.009793 -0.022138 0.842000
-0.010274 0.028563 0.825000
0.022029 -0.037523 0.853000
0.028881 -0.011476 0.848000
0.038090 0.029464 0.851000
-0.007796 -0.038136 0.851000
-0.002135 0.026996 0.829000
-0.014506 -0.014376 0.834000
0.015077 -0.001721 0.857000
-0.020710 0.033721 0.835000
-0.029859 -0.016573 0.841000
-0.032621 -0.031463 0.832000
0.012689 0.037336 0.839000
0.009638 0.017410 0.844000
-0.002824 0.009618 0.831000
0.008238 0.017043 0.843000
0.006989 -0.031814 0.860000
-0.027827 -0.034545 0.832000
0.014087 0.035997 0.840000
-0.005181 0.028563 0.825000
-0.003254 -0.035107 0.854000
0.008022 -0.017594 0.857000
-0.029433 -0.029985 0.829000
-0.003254 -0.035810 0.854000
0.007535 0.014943 0.842000
-0.016868 -0.013656 0.832000
0.016469 0.004975 0.856000
-0.007907 0.033697 0.826000
0.001971 0.023726 0.834000
-0.008753 -0.029069 0.842000
-0.008618 0.003453 0.829000
-0.031821 -0.022478 0.829000
0.022328 -0.020273 0.851000
-0.001846 -0.029449 0.853000
0.019153 -0.036342 0.850000
0.025159 -0.006621 0.852000
0.035329 0.025641 0.852000
-0.006879 0.030261 0.825000
-0.016106 0.002767 0.828000
0.038045 0.024881 0.850000
-0.002187 -0.020924 0.849000
0.033342 0.031010 0.855000
-0.012836 -0.027174 0.837000
-0.027693 -0.026541 0.828000
-0.011943 -0.037608 0.847000
0.013283 -0.000662 0.855000
0.028565 -0.019526 0.849000
0.013937 0.009861 0.852000
-0.000768 0.036461 0.827000
0.028183 -0.019154 0.848000
0.015672 0.014052 0.851000
0.019479 -0.040842 0.849000
-0.010967 0.028598 0.826000
0.006867 0.004215 0.845000
0.015910 0.024039 0.845000
-0.012713 0.034502 0.829000
0.033497 0.011587 0.850000
-0.011999 -0.046192 0.851000
0.024458 0.031953 0.852000
0.006426 0.032954 0.833000
0.035554 -0.001356 0.849000
0.012446 0.019889 0.846000
-0.018893 -0.041046 0.846000
0.014725 -0.022179 0.857000
-0.016909 -0.024673 0.834000
0.018825 -0.035684 0.851000
0.023378 -0.020273 0.851000
0.015853 0.036083 0.842000
0.003425 -0.018938 0.854000
0.019594 0.017617 0.854000
0.016782 -0.025265 0.854000
0.009867 0.048097 0.834000
-0.015498 0.035654 0.832000
0.026469 -0.017080 0.849000
-0.013164 -0.015786 0.836000
-0.000782 -0.012781 0.842000
0.019153 -0.037042 0.850000
0.002023 -0.027438 0.856000
0.013267 -0.037216 0.854000
0.000253 0.034461 0.828000
-0.018536 -0.014990 0.830000
0.022838 0.010624 0.857000
-0.008916 0.022112 0.825000
0.002016 -0.021023 0.853000
-0.020685 0.031964 0.834000
0.036646 0.022432 0.850000
0.035596 0.019983 0.850000
-0.020195 -0.005753 0.828000
0.000254 0.025039 0.832000
0.000258 -0.014913 0.845000
-0.003504 0.020538 0.830000
0.009102 -0.027181 0.859000
-0.008857 -0.043090 0.852000
0.018627 0.000042 0.858000
-0.012697 0.005153 0.828000
0.011930 -0.023292 0.859000
0.016821 0.006736 0.856000
0.008932 0.018084 0.843000
-0.008175 -0.046706 0.854000
-0.008577 0.031619 0.825000
0.008219 0.020464 0.841000
-0.024685 -0.027630 0.830000
0.035988 0.025961 0.851000
0.017214 -0.008433 0.858000
-0.031095 -0.019595 0.837000
0.003357 0.010032 0.837000
0.031546 0.022186 0.854000
-0.001787 0.033358 0.826000
0.026119 -0.019177 0.849000
-0.009424 -0.016899 0.840000
0.003095 -0.042433 0.860000
0.004385 0.023783 0.836000
0.011280 0.026912 0.837000
0.013220 0.009499 0.851000
-0.026671 -0.027222 0.828000
0.003763 -0.014318 0.851000
-0.014061 0.004812 0.828000
-0.004671 -0.042235 0.856000
-0.021269 -0.019431 0.830000
0.033418 0.003881 0.848000
-0.014662 -0.034655 0.843000
-0.015936 -0.030619 0.837000
0.018847 -0.030115 0.852000
0.008879 0.024530 0.838000
0.018540 -0.020696 0.854000
0.002021 -0.025295 0.855000
-0.003491 0.027611 0.827000
-0.008970 -0.003034 0.830000
0.013757 0.031194 0.841000
0.001323 -0.037434 0.859000
0.036952 0.017514 0.849000
-0.005212 0.010289 0.830000
0.011889 -0.036951 0.856000
-0.014760 0.010618 0.829000
-0.015229 -0.029894 0.836000
0.004021 0.027094 0.832000
0.027744 0.025057 0.856000
-0.002140 0.011328 0.831000
0.028633 -0.000308 0.851000
-0.001489 -0.021998 0.850000
0.021127 0.044558 0.845000
-0.028750 -0.015996 0.829000
0.007863 0.022514 0.840000
-0.022374 -0.030472 0.833000
-0.018216 -0.016376 0.831000
0.017753 0.021382 0.850000
0.023082 -0.010490 0.853000
-0.005728 -0.046111 0.856000
0.004348 0.040985 0.829000
-0.004841 0.033996 0.825000
-0.027726 -0.030326 0.829000
-0.000773 0.022642 0.832000
-0.015120 -0.006791 0.830000
-0.016889 0.036383 0.833000
-0.010324 -0.000300 0.829000
0.003325 0.037232 0.829000
0.001628 0.023726 0.834000
0.029823 0.022916 0.855000
-0.016222 -0.018838 0.834000
-0.011816 -0.017549 0.838000
-0.002199 -0.031943 0.854000
-0.003265 -0.041227 0.857000
0.006627 -0.039555 0.859000
0.028030 0.012696 0.854000
0.028249 -0.005556 0.850000
-0.014885 -0.018539 0.836000
0.027932 -0.003461 0.851000
0.001630 0.015506 0.835000
0.017774 0.020007 0.851000
0.035288 0.022458 0.851000
0.008131 0.047297 0.832000
0.004859 -0.030363 0.859000
0.032720 -0.001354 0.848000
0.010504 -0.015143 0.858000
0.037956 0.019587 0.848000
-0.014095 -0.007474 0.830000
-0.003250 -0.031906 0.853000
0.002693 -0.011087 0.845000
-0.014558 -0.029585 0.837000
0.010284 0.023551 0.840000
-0.006698 -0.031607 0.845000
-0.017680 -0.032035 0.838000
0.011680 0.023233 0.841000
-0.000437 -0.014895 0.844000
0.019220 0.018649 0.853000
-0.006200 0.030601 0.825000
-0.013038 0.009583 0.828000
0.022003 0.027394 0.852000
0.014707 -0.026734 0.856000
0.039955 0.014318 0.846000
0.015007 -0.038928 0.853000
0.012931 -0.001013 0.855000
0.026687 0.013078 0.856000
-0.025307 -0.023814 0.828000
0.016154 -0.005255 0.858000
-0.012001 0.030334 0.827000
-0.001133 -0.016304 0.845000
-0.007306 -0.009925 0.835000
0.015448 -0.011611 0.858000
0.006834 0.014579 0.841000
0.036168 0.009106 0.847000
0.019342 0.043065 0.843000
0.031324 -0.004146 0.848000
0.009512 0.045983 0.833000
-0.008277 0.013007 0.829000
-0.001454 0.025662 0.830000
0.005085 0.021770 0.838000
0.023757 0.030199 0.852000
-0.016446 -0.001663 0.828000
-0.009642 0.001065 0.829000
0.002301 0.036891 0.829000
-0.003589 -0.025846 0.850000
0.012461 0.017472 0.847000
0.003697 0.013805 0.836000
-0.021104 -0.035097 0.837000
-0.008307 -0.005438 0.832000
-0.012016 0.009242 0.828000
-0.001503 -0.040215 0.858000
0.021000 -0.012963 0.854000
0.032098 0.006339 0.850000
0.022081 0.019749 0.855000
0.003803 -0.036061 0.860000
0.025770 -0.019526 0.849000
0.013682 -0.011611 0.858000
-0.014628 -0.032842 0.841000
-0.005874 0.021144 0.827000
0.026593 0.001095 0.853000
-0.010666 0.006865 0.829000
-0.004177 0.039913 0.828000
0.001964 0.047582 0.831000
-0.019608 0.029148 0.832000
0.003421 -0.018214 0.853000
0.005920 -0.026120 0.859000
0.005573 -0.033938 0.860000
0.011889 -0.004185 0.856000
-0.017169 0.008240 0.830000
-0.013687 0.022819 0.826000
-0.011689 0.002429 0.829000
-0.007907 0.019759 0.826000
-0.018150 -0.003708 0.828000
0.008219 0.010080 0.841000
0.018082 -0.045035 0.849000
0.024809 -0.009075 0.852000
0.019969 -0.011219 0.855000
0.019663 0.004980 0.857000
-0.004534 0.016116 0.831000
0.006083 0.033640 0.833000
-0.007567 0.034037 0.826000
0.000254 0.026035 0.831000
0.005782 0.009710 0.839000
0.010163 -0.029656 0.859000
0.040351 0.022353 0.847000
-0.002807 0.030298 0.826000
0.012638 -0.017281 0.859000
-0.008722 -0.016188 0.839000
0.009798 -0.031034 0.858000
-0.009995 -0.003034 0.830000
0.025041 -0.024739 0.848000
-0.005881 0.039913 0.828000
0.035946 0.020683 0.850000
0.026624 0.007423 0.854000
0.020528 0.031840 0.849000
-0.021457 -0.043740 0.851000
0.011223 -0.024352 0.859000
0.036296 0.022082 0.850000
0.041348 0.015362 0.846000
0.007661 -0.014755 0.856000
0.018279 0.045786 0.842000
0.009626 0.008716 0.843000
-0.008237 0.028224 0.825000
0.027679 0.008126 0.854000
-0.009301 0.001747 0.829000
-0.029846 -0.017744 0.831000
0.007679 -0.021499 0.858000
0.005378 0.040010 0.830000
-0.000428 0.034759 0.827000
-0.017211 -0.015369 0.832000
-0.016909 -0.019181 0.834000
-0.006879 0.027884 0.825000
0.024164 -0.000309 0.854000
-0.016807 0.007547 0.829000
-0.009595 0.021772 0.825000
0.008356 -0.010867 0.855000
-0.009289 0.014013 0.828000
0.006611 -0.019710 0.857000
-0.031898 -0.031083 0.831000
0.033418 0.003183 0.848000
0.017485 0.013047 0.854000
-0.008916 0.026526 0.825000
0.009433 -0.038052 0.857000
0.018409 0.028662 0.848000
0.003675 0.034243 0.831000
-0.008079 -0.023232 0.844000
0.018344 0.035516 0.845000
0.017174 0.007441 0.856000
0.026687 0.020829 0.856000
0.002379 -0.029587 0.857000
-0.001109 0.032377 0.827000
-0.014084 -0.046137 0.850000
-0.015405 0.021825 0.827000
0.004353 0.046842 0.830000
0.025770 -0.020225 0.849000
-0.009346 -0.009559 0.833000
-0.004970 -0.030984 0.847000
-0.001456 0.022615 0.831000
0.019175 0.023509 0.851000
-0.033083 -0.024703 0.835000
-0.012327 0.026218 0.826000
-0.011957 -0.039747 0.848000
-0.021079 -0.033335 0.836000
-0.001109 0.032036 0.827000
0.002031 -0.036727 0.859000
-0.004524 0.020513 0.829000
0.025921 0.003206 0.854000
-0.017595 -0.023300 0.834000
-0.026767 -0.033135 0.831000
-0.016125 0.006183 0.829000
0.000966 -0.030609 0.856000
-0.013670 -0.040697 0.846000
0.009169 0.047011 0.833000
-0.002906 -0.035500 0.855000
0.006519 -0.002393 0.845000
0.007571 -0.001003 0.846000
-0.026703 -0.028279 0.829000
0.034116 0.003183 0.848000
-0.020488 0.003499 0.840000
-0.017149 0.006865 0.829000
0.002719 -0.018214 0.853000
-0.009851 -0.034819 0.847000
-0.009851 -0.034471 0.847000
-0.019014 -0.031270 0.836000
-0.024685 -0.026946 0.830000
0.014690 0.002506 0.855000
0.029085 0.013047 0.854000
0.025630 0.009907 0.856000
0.015077 -0.001016 0.857000
0.036996 0.021033 0.850000
-0.018855 -0.010536 0.829000
0.019017 0.039295 0.844000
0.015448 -0.003842 0.858000
0.032720 -0.001005 0.848000
-0.020220 -0.013948 0.829000
-0.001500 -0.034837 0.856000
-0.012387 0.036594 0.830000
0.010705 0.004568 0.846000
0.002642 0.035867 0.829000
0.018231 0.009555 0.856000
-0.017500 -0.042090 0.846000
0.004046 0.014855 0.837000
-0.013180 -0.026829 0.837000
-0.003832 0.025910 0.827000
-0.008060 -0.018672 0.842000
-0.014402 0.008220 0.828000
-0.025552 -0.036776 0.836000
-0.025399 -0.031767 0.831000
0.025600 0.028546 0.855000
0.026334 0.015896 0.856000
0.008524 0.024845 0.837000
-0.020022 0.034752 0.835000
0.020250 0.023537 0.852000
0.017485 0.012344 0.854000
0.009997 0.016735 0.845000
0.035512 0.008418 0.848000
0.006237 -0.014369 0.854000
-0.016868 -0.015369 0.832000
0.013757 0.030848 0.841000
0.027549 -0.007305 0.850000
-0.017490 0.003794 0.829000
0.018252 0.004980 0.857000
-0.022084 -0.033982 0.835000
0.012704 0.033577 0.840000
0.009191 0.028566 0.835000
-0.001822 -0.013127 0.842000
0.022838 0.009566 0.857000
0.003670 0.036252 0.830000
-0.012820 -0.015786 0.836000
-0.006777 -0.046057 0.855000
-0.006410 -0.040683 0.853000
0.003357 0.015544 0.837000
0.020877 0.030792 0.849000
0.000606 -0.013159 0.844000
0.002317 0.011726 0.835000
-0.011943 -0.038305 0.847000
0.005128 -0.004132 0.845000
0.009444 -0.015496 0.858000
-0.009413 -0.016188 0.839000
-0.016909 -0.025017 0.834000
0.026687 0.022590 0.856000
-0.023515 -0.037164 0.837000
-0.011060 -0.011616 0.833000
-0.030677 -0.018861 0.835000
0.000942 0.015145 0.834000
0.008837 0.030591 0.834000
0.028801 0.021533 0.856000
-0.016909 -0.023644 0.834000
0.038654 0.020983 0.848000
-0.031214 -0.032109 0.831000
-0.012342 0.027611 0.827000
0.013395 0.024934 0.840000
-0.027011 -0.024496 0.828000
-0.017532 0.030139 0.831000
0.005816 -0.001348 0.844000
0.003741 -0.004485 0.846000
-0.019561 -0.017040 0.830000
-0.017273 -0.022641 0.835000
-0.010897 -0.035516 0.847000
0.008858 0.035138 0.836000
-0.023143 0.027568 0.836000
0.032022 -0.003448 0.848000
0.008395 -0.025060 0.859000
0.006259 -0.020768 0.857000
-0.015424 0.005153 0.828000
0.009028 -0.003815 0.852000
0.006266 -0.021852 0.858000
0.012329 0.027979 0.838000
-0.033518 -0.024680 0.846000
-0.018782 -0.037688 0.841000
0.034076 0.000042 0.847000
-0.025841 -0.041579 0.857000
0.004474 -0.001713 0.853000
0.039607 0.010488 0.846000
-0.024685 -0.027288 0.830000
-0.019451 -0.037297 0.840000
0.027647 0.005308 0.853000
0.019969 -0.010515 0.855000
-0.009935 0.029242 0.825000
-0.013347 0.022819 0.826000
0.018803 -0.038791 0.850000
-0.007253 0.008571 0.829000
-0.008764 -0.023552 0.843000
0.006635 -0.035354 0.860000
0.017753 -0.042639 0.850000
0.007138 0.025159 0.836000
0.010222 0.040594 0.835000
0.005534 -0.014369 0.854000
0.022625 -0.033504 0.849000
0.001286 0.020318 0.835000
-0.011007 -0.001665 0.829000
-0.015784 -0.006442 0.829000
-0.007490 -0.047520 0.856000
0.021602 -0.027246 0.850000
0.012564 0.001448 0.854000
0.030420 0.010913 0.852000
0.018540 0.015508 0.854000
-0.023973 -0.007807 0.829000
0.014656 0.007415 0.853000
-0.003915 -0.018043 0.845000
0.030662 -0.002754 0.849000
-0.015138 0.034243 0.831000
0.009890 0.026536 0.836000
0.039352 0.020634 0.848000
-0.014742 0.017762 0.828000
0.024249 0.012740 0.857000
0.024867 -0.001364 0.854000
0.003675 0.034585 0.831000
0.023812 -0.004879 0.854000
-0.015822 0.032191 0.831000
0.014972 -0.047593 0.851000
-0.017722 -0.034877 0.840000
-0.016526 0.033257 0.832000
0.007491 0.024500 0.837000
0.000598 0.015488 0.834000
0.018583 0.008145 0.856000
0.009626 0.011838 0.843000
0.011184 -0.007356 0.856000
-0.004976 -0.026135 0.848000
0.032797 0.008438 0.850000
0.008738 -0.046219 0.858000
0.039955 0.017452 0.846000
-0.003204 -0.013804 0.841000
0.036689 0.024910 0.851000
-0.015536 0.018577 0.834000
-0.014018 -0.041394 0.846000
0.013018 0.038326 0.838000
0.002359 -0.015701 0.850000
0.027866 -0.013237 0.849000
0.024515 -0.002418 0.854000
0.008585 0.006287 0.843000
0.021227 -0.038046 0.849000
0.004479 -0.017181 0.854000
0.003008 0.020342 0.836000
0.029299 -0.000658 0.850000
-0.023831 0.030321 0.836000
0.032720 -0.007986 0.848000
-0.013023 0.027611 0.827000
-0.029969 -0.015775 0.854000
-0.024373 -0.029373 0.831000
-0.006425 -0.045705 0.855000
-0.013395 0.013007 0.829000
-0.000089 0.008674 0.839000
0.005430 0.021081 0.838000
-0.001140 -0.020949 0.850000
-0.007315 -0.008561 0.836000
0.014707 0.002156 0.856000
0.016861 -0.005255 0.858000
0.019479 -0.039793 0.849000
0.009290 0.017410 0.844000
0.022784 0.020804 0.855000
0.009081 -0.040874 0.857000
-0.014541 -0.024733 0.836000
-0.006879 0.024149 0.825000
-0.015083 0.001063 0.828000
-0.021558 -0.015295 0.828000
0.023645 -0.028578 0.848000
0.017567 -0.004902 0.858000
-0.010140 -0.023177 0.842000
-0.019105 -0.037643 0.840000
0.008013 -0.014050 0.856000
0.023461 0.024998 0.854000
-0.021979 -0.023217 0.831000
-0.014742 -0.000300 0.828000
-0.012001 0.016039 0.827000
0.000253 0.037823 0.827000
0.023729 0.033667 0.851000
0.002661 0.013101 0.835000
0.011969 0.040347 0.837000
-0.002143 0.017505 0.832000
0.033847 0.011587 0.850000
-0.010248 -0.044791 0.851000
0.016219 0.027799 0.843000
0.000613 -0.027758 0.855000
-0.000798 -0.042030 0.859000
0.019992 -0.008061 0.856000
-0.001852 -0.035894 0.856000
-0.007897 0.025847 0.825000
0.023994 -0.029276 0.848000
0.004411 0.050924 0.841000
0.020625 -0.020672 0.853000
-0.016807 0.025631 0.829000
0.009535 0.048842 0.835000
-0.023632 -0.022137 0.829000
0.017194 -0.012303 0.857000
-0.021371 0.029905 0.834000
0.010139 -0.036994 0.857000
0.008013 -0.014755 0.856000
-0.020536 -0.011205 0.828000
0.039259 0.014318 0.846000
0.013682 -0.011964 0.858000
-0.025338 -0.010195 0.829000
-0.003483 0.032978 0.825000
0.008677 -0.004517 0.852000
-0.006920 0.001749 0.830000
-0.007926 0.038550 0.828000
0.029505 0.030341 0.856000
0.015728 0.009181 0.854000
-0.000088 0.009309 0.834000
-0.012728 0.035227 0.830000
0.000955 -0.015279 0.846000
-0.006753 -0.038181 0.852000
-0.012713 -0.003371 0.829000
0.014656 0.008117 0.853000
-0.012866 -0.030346 0.839000
0.004735 0.012099 0.837000
0.000598 0.012726 0.833000
-0.003508 0.017484 0.831000
0.024343 -0.027182 0.848000
0.007688 -0.037080 0.859000
-0.020439 -0.036519 0.838000
-0.016909 -0.020211 0.834000
0.015448 -0.015496 0.858000
-0.031139 -0.022137 0.829000
-0.007253 0.007889 0.829000
0.010394 0.051059 0.849000
-0.029433 -0.028961 0.829000
0.006208 0.052519 0.850000
0.027327 0.009884 0.854000
0.003675 0.034928 0.831000
-0.012321 -0.043637 0.849000
0.000598 0.021983 0.833000
0.030034 0.006347 0.851000
0.006627 -0.040616 0.859000
0.012976 -0.011258 0.858000
0.005727 0.038690 0.831000
0.025450 -0.014302 0.850000
-0.014129 -0.010574 0.832000
-0.017128 -0.004389 0.828000
0.019085 0.032811 0.847000
-0.014454 0.036980 0.831000
0.016098 -0.025647 0.855000
0.007180 0.009387 0.841000
0.024809 -0.008725 0.852000
0.028801 0.022238 0.856000
-0.003948 -0.031869 0.852000
-0.015765 -0.000981 0.828000
0.020552 -0.034593 0.850000
-0.019537 -0.012242 0.829000
0.011861 -0.001715 0.854000
0.028666 0.005302 0.852000
-0.028854 -0.033860 0.832000
0.026181 -0.009765 0.851000
0.005906 -0.020063 0.857000
-0.016106 0.005494 0.828000
0.024107 0.033005 0.852000
0.015691 0.013017 0.852000
0.016041 -0.040635 0.852000
0.004740 0.010044 0.838000
-0.013605 -0.032881 0.842000
-0.009289 0.012991 0.828000
-0.009357 -0.011630 0.834000
-0.021952 -0.020797 0.830000
-0.007121 -0.044597 0.854000
-0.029738 -0.020747 0.828000
0.012141 0.009127 0.849000
0.013619 -0.040028 0.854000
-0.016848 0.029797 0.831000
-0.001796 0.024295 0.830000
-0.011731 -0.010917 0.832000
-0.007576 0.019102 0.827000
-0.008981 -0.003379 0.831000
0.011875 -0.003829 0.855000
0.011536 -0.037303 0.856000
0.007910 0.001085 0.845000
-0.008916 0.024828 0.825000
0.015088 0.043844 0.838000
-0.030760 -0.025178 0.828000
0.002741 -0.041371 0.860000
0.031546 0.021132 0.854000
-0.009956 -0.048929 0.856000
-0.015120 0.031469 0.830000
-0.008764 -0.030838 0.843000
0.036210 0.010513 0.848000
0.018231 -0.012289 0.856000
0.003421 -0.018565 0.853000
0.020528 -0.036649 0.849000
0.013283 0.000746 0.855000
-0.006357 -0.023636 0.846000
0.008395 -0.026474 0.859000
0.021678 0.023916 0.853000
0.004118 -0.014686 0.852000
-0.002824 0.013038 0.831000
-0.003269 -0.043393 0.858000
-0.030224 -0.033518 0.832000
0.031435 -0.012567 0.851000
-0.019335 0.036814 0.835000
0.001618 0.043373 0.829000
0.006850 0.006634 0.843000
-0.008070 -0.029450 0.843000
0.015142 0.037079 0.841000
-0.006402 -0.037129 0.852000
-0.001488 -0.019526 0.849000
0.001280 0.046898 0.831000
0.016861 -0.000664 0.858000
0.024107 -0.012582 0.852000
-0.007796 -0.039187 0.851000
0.017753 -0.040890 0.850000
-0.028375 -0.021429 0.828000
-0.023143 0.032729 0.836000
0.029579 -0.011476 0.848000
0.024136 -0.006277 0.853000
0.004786 -0.007967 0.846000
0.021252 0.029429 0.850000
-0.020488 -0.037989 0.840000
-0.011033 -0.007483 0.831000
-0.004627 -0.027182 0.848000
-0.025989 -0.020066 0.828000
0.000971 -0.041725 0.860000
-0.008577 0.031280 0.825000
0.010832 -0.007004 0.856000
-0.018025 -0.032035 0.838000
-0.006937 -0.002014 0.832000
0.012976 -0.012317 0.858000
-0.012030 0.004477 0.829000
-0.016784 0.011866 0.845000
0.020721 0.003217 0.857000
-0.005527 0.037437 0.826000
0.025420 -0.019177 0.849000
0.001616 0.038209 0.828000
0.027231 -0.006613 0.851000
0.011145 -0.000309 0.853000
-0.024626 -0.012228 0.828000
-0.004871 0.011314 0.830000
0.002023 0.051480 0.856000
0.013220 0.008798 0.851000
0.037170 0.006309 0.846000
0.009961 0.022221 0.842000
0.012976 -0.031387 0.858000
-0.020561 -0.002689 0.829000
0.017567 -0.003842 0.858000
-0.017853 0.006873 0.830000
-0.026703 -0.029644 0.829000
0.010794 -0.001011 0.853000
0.013050 0.033923 0.840000
0.025277 0.021181 0.856000
0.012314 0.038969 0.837000
-0.011689 0.006183 0.829000
0.024051 -0.018850 0.850000
0.005085 0.013493 0.838000
0.022651 -0.026546 0.850000
-0.014454 -0.009878 0.831000
0.004348 0.045079 0.829000
-0.019679 -0.030202 0.835000
0.017649 0.033777 0.845000
0.014919 0.019936 0.848000
0.014707 0.001099 0.856000
0.008626 -0.001701 0.847000
-0.012387 0.037277 0.830000
0.027359 0.031010 0.855000
0.010467 -0.006292 0.855000
0.016605 0.025430 0.845000
-0.003147 0.035397 0.826000
0.010870 -0.019049 0.859000
0.006127 0.010746 0.839000
0.017774 -0.035684 0.851000
0.007334 -0.023645 0.859000
-0.014903 -0.029930 0.837000
-0.009559 -0.044493 0.852000
0.004017 0.028771 0.831000
0.010247 0.032424 0.837000
-0.015411 -0.042438 0.846000
-0.021741 0.033377 0.835000
0.015538 -0.048974 0.863000
-0.015765 0.003108 0.828000
0.007189 0.017023 0.842000
-0.013054 0.032796 0.829000
-0.014384 0.019783 0.827000
0.016098 0.006728 0.855000
0.032681 -0.005536 0.847000
-0.010573 -0.039095 0.849000
-0.017764 -0.038772 0.842000
-0.008764 -0.024246 0.843000
-0.019082 -0.035526 0.839000
0.007232 -0.004141 0.847000
-0.006887 0.036417 0.826000
-0.005520 0.029922 0.825000
-0.026457 -0.034202 0.832000
0.040097 0.028346 0.849000
0.031934 0.029250 0.855000
-0.009971 0.035824 0.828000
0.018231 0.009907 0.856000
0.010693 0.007345 0.845000
-0.011153 -0.019665 0.840000
0.012112 0.016775 0.847000
0.013555 0.013686 0.850000
0.019736 0.046993 0.845000
-0.014146 -0.012301 0.833000
0.026119 -0.016381 0.849000
-0.018514 0.002088 0.829000
0.030662 -0.002055 0.849000
0.006426 0.033983 0.833000
-0.008927 0.019759 0.826000
0.001314 -0.021725 0.853000
-0.017810 -0.000981 0.828000
-0.017701 -0.033109 0.839000
0.022485 0.006744 0.857000
-0.013463 -0.048168 0.855000
0.018453 -0.039490 0.850000
-0.023632 -0.024184 0.829000
-0.019287 -0.043586 0.848000
-0.007245 0.017421 0.828000
-0.002892 -0.026928 0.851000
0.020455 0.047049 0.846000
-0.016144 -0.009524 0.830000
0.007437 0.044162 0.831000
0.015525 0.033350 0.843000
-0.020390 0.037890 0.836000
-0.024002 -0.006108 0.830000
-0.028000 -0.024126 0.827000
0.033225 0.019679 0.852000
-0.013379 0.029349 0.828000
0.006076 0.037024 0.832000
0.009268 0.020488 0.842000
0.002320 0.018278 0.836000
0.013970 0.003206 0.854000
0.037695 0.024531 0.850000
0.010333 0.009421 0.844000
0.017094 -0.036778 0.852000
0.022651 -0.024797 0.850000
0.000598 0.010682 0.834000
-0.010704 -0.010232 0.832000
0.027744 0.025409 0.856000
-0.015045 -0.039258 0.845000
0.016373 0.016504 0.851000
-0.006342 -0.028096 0.844000
0.033030 -0.004490 0.847000
-0.029056 -0.028585 0.828000
-0.002135 0.041667 0.829000
-0.005860 0.026526 0.825000
0.022974 -0.029660 0.849000
0.016354 0.019283 0.850000
0.031287 -0.010068 0.847000
-0.012045 -0.005083 0.830000
-0.009947 0.017379 0.826000
0.037607 0.015748 0.848000
-0.008618 0.004477 0.829000
0.002994 0.047982 0.832000
0.013741 0.036343 0.840000
0.024601 0.014857 0.857000
-0.001846 -0.028395 0.853000
-0.027693 -0.021429 0.828000
-0.002140 0.022273 0.831000
-0.012292 -0.039700 0.847000
0.031546 0.017968 0.854000
-0.013259 -0.032534 0.842000
-0.006059 -0.038225 0.853000
0.006076 0.029833 0.832000
-0.006879 0.024489 0.825000
-0.007358 -0.016573 0.841000
0.026088 -0.021597 0.848000
0.014796 0.037079 0.841000
0.014656 -0.037874 0.853000
-0.010164 -0.032959 0.844000
0.012476 0.015748 0.848000
0.004842 -0.020744 0.856000
-0.023263 -0.013591 0.828000
0.017565 0.042271 0.841000
0.021427 0.007802 0.857000
0.006596 -0.015793 0.855000
0.019220 -0.023480 0.853000
0.005207 -0.024324 0.858000
-0.006002 -0.019434 0.845000
0.009444 -0.017614 0.858000
0.034506 0.010175 0.849000
0.013050 0.025625 0.840000
0.027711 0.032769 0.855000
0.017073 -0.041288 0.851000
0.027167 -0.016032 0.849000
-0.006342 -0.019759 0.844000
0.018803 -0.044738 0.850000
0.028700 0.009170 0.853000
-0.009570 -0.046651 0.853000
0.012227 -0.039371 0.855000
0.017134 0.011993 0.854000
0.038395 0.026630 0.850000
0.001679 -0.038539 0.860000
-0.024626 -0.012568 0.828000
0.008748 -0.028595 0.859000
-0.011321 0.031356 0.827000
0.020202 -0.032494 0.850000
0.020297 0.019374 0.854000
0.008504 0.032346 0.835000
0.007334 -0.027888 0.859000
-0.004319 -0.041883 0.856000
-0.023005 -0.027321 0.831000
0.021025 0.016934 0.855000
-0.001109 0.037823 0.827000
0.013741 0.036689 0.840000
0.028282 -0.000658 0.851000
-0.009435 -0.027650 0.841000
0.000942 0.011369 0.834000
0.017547 0.001806 0.857000
-0.011971 -0.043987 0.849000
0.013251 0.003904 0.853000
-0.013347 0.020439 0.826000
0.009070 -0.011232 0.856000
0.002998 0.026098 0.833000
-0.006895 0.037482 0.827000
-0.011007 0.006865 0.829000
-0.027660 -0.022424 0.827000
0.016507 0.043949 0.840000
0.020369 -0.003132 0.857000
0.017670 0.031728 0.846000
0.010139 -0.012656 0.857000
0.001669 -0.026350 0.855000
0.015077 -0.021474 0.857000
0.029505 0.026466 0.856000
0.012623 -0.033859 0.858000
0.022731 0.027426 0.853000
0.020345 0.012726 0.856000
0.031785 0.011600 0.851000
-0.009312 -0.002692 0.830000
0.042393 0.018148 0.846000
-0.023603 -0.009501 0.828000
0.012976 -0.023265 0.858000
0.000263 -0.037787 0.859000
0.021427 0.001101 0.857000
-0.012357 0.009242 0.828000
0.021252 0.029779 0.850000
0.005091 0.018343 0.839000
0.017214 -0.001723 0.858000
-0.017511 -0.011574 0.830000
-0.009100 -0.029762 0.842000
0.024838 -0.002415 0.853000
-0.028715 -0.025518 0.828000
0.000935 0.041958 0.828000
0.008504 0.035096 0.835000
0.024192 0.026083 0.855000
-0.006579 0.011314 0.830000
0.035512 0.009116 0.848000
0.039003 0.019587 0.848000
0.026334 0.025057 0.856000
0.012916 0.002151 0.854000
-0.007945 0.002091 0.830000
-0.012372 -0.000641 0.829000
0.005920 -0.042737 0.859000
0.020673 -0.007700 0.855000
0.008708 -0.010867 0.855000
-0.033013 -0.023524 0.842000
-0.021397 0.026160 0.835000
0.033458 0.006681 0.849000
-0.001796 0.023271 0.830000
0.010320 0.021206 0.843000
0.018146 -0.034323 0.852000
-0.017521 -0.043534 0.847000
0.020250 -0.022401 0.852000
0.023812 -0.005230 0.854000
0.022459 0.017658 0.856000
-0.014384 0.018421 0.827000
0.009007 -0.002757 0.850000
0.019502 -0.037042 0.850000
0.028349 0.005308 0.853000
-0.002140 0.021589 0.831000
-0.023944 -0.021770 0.828000
0.012213 0.001097 0.854000
-0.011594 -0.036562 0.847000
0.003333 0.030823 0.831000
0.001630 0.016194 0.835000
0.022705 0.028095 0.852000
-0.011816 -0.026861 0.838000
0.009070 -0.046111 0.856000
0.015060 -0.023563 0.856000
-0.009323 -0.005773 0.831000
-0.002145 0.007241 0.833000
0.013682 -0.007374 0.858000
0.025630 0.023295 0.856000
0.015801 -0.009139 0.858000
-0.006002 -0.027086 0.845000
-0.001820 -0.012766 0.841000
-0.021926 -0.003371 0.829000
0.003401 0.050650 0.848000
