-0.032024 0.007469 0.902000
-0.004068 0.036180 0.878000
-0.019378 0.018963 0.884000
-0.016158 0.006615 0.887000
-0.012019 0.028591 0.878000
0.009268 -0.003700 0.910000
0.012020 -0.026460 0.920000
0.002553 -0.038199 0.920000
-0.027355 0.003728 0.895000
-0.013551 -0.030226 0.908000
-0.018555 -0.017308 0.897000
0.013747 0.000419 0.909000
0.017700 -0.031383 0.920000
-0.033993 -0.006660 0.905000
0.021272 0.032460 0.895000
0.010730 0.003405 0.907000
-0.001980 -0.026693 0.915000
-0.022781 0.009923 0.889000
-0.016559 -0.038490 0.909000
-0.012251 -0.005481 0.895000
-0.012101 0.016053 0.884000
0.011300 -0.033765 0.923000
-0.019552 -0.040361 0.909000
-0.018535 -0.015813 0.896000
0.034785 0.010691 0.892000
0.001029 -0.022077 0.911000
-0.017156 0.021824 0.882000
-0.026987 0.007780 0.895000
-0.027355 0.005201 0.895000
0.002836 0.019825 0.890000
0.002484 0.014042 0.895000
0.008603 -0.028323 0.919000
0.009409 0.032572 0.888000
-0.036348 -0.009298 0.908000
-0.034815 -0.029820 0.907000
-0.029054 -0.035595 0.902000
0.035440 0.013597 0.890000
0.019865 0.024808 0.898000
-0.012169 0.005532 0.889000
-0.019729 -0.049963 0.900000
0.010426 -0.015362 0.913000
-0.005683 -0.010757 0.905000
-0.029665 0.021112 0.898000
-0.017117 0.038798 0.880000
-0.017059 -0.013969 0.896000
-0.034815 -0.031686 0.907000
-0.021878 -0.020999 0.897000
0.028735 0.026656 0.898000
-0.012859 -0.040119 0.912000
-0.014930 -0.021093 0.901000
-0.008071 0.025426 0.881000
-0.027198 -0.035595 0.902000
-0.002362 -0.036564 0.917000
0.011165 -0.005961 0.912000
-0.031282 -0.024086 0.902000
-0.031247 0.012653 0.901000
0.013966 0.016325 0.899000
0.018317 -0.012731 0.913000
-0.017817 -0.015831 0.897000
0.024834 0.016788 0.904000
-0.017117 0.037349 0.880000
-0.023905 0.043268 0.890000
0.003304 -0.030181 0.918000
0.021688 0.028103 0.897000
0.008922 -0.012731 0.913000
0.016564 -0.032140 0.920000
-0.015062 -0.036245 0.909000
0.009176 0.013024 0.901000
0.019169 0.043655 0.883000
-0.004829 0.020442 0.885000
0.007492 -0.035625 0.922000
0.002903 -0.011578 0.911000
-0.028524 0.013335 0.897000
-0.009106 -0.034864 0.912000
-0.033584 -0.005908 0.904000
0.005159 -0.019849 0.912000
-0.023147 0.008825 0.889000
-0.008966 -0.052439 0.898000
-0.004818 0.024757 0.883000
-0.037219 -0.007454 0.911000
0.012237 0.003408 0.908000
0.024462 0.015672 0.904000
-0.012901 0.004069 0.889000
0.028767 0.021135 0.899000
-0.025570 -0.020261 0.897000
-0.035188 -0.024593 0.907000
0.037229 0.012118 0.889000
-0.020840 -0.025144 0.900000
0.008612 -0.041985 0.920000
-0.040771 -0.023304 0.915000
0.018693 -0.014986 0.913000
-0.005514 0.034012 0.878000
-0.011476 0.000778 0.892000
-0.028893 0.020719 0.897000
-0.023513 0.037365 0.889000
0.009237 0.003031 0.907000
0.013853 -0.018051 0.916000
0.010095 0.040430 0.884000
0.022452 0.027395 0.898000
-0.011527 -0.054535 0.896000
-0.007157 -0.007760 0.903000
0.020392 0.011964 0.905000
-0.025627 -0.027336 0.899000
-0.009748 -0.012578 0.902000
-0.010188 0.034656 0.876000
-0.020583 -0.033851 0.905000
0.001004 0.020900 0.889000
-0.004096 0.023329 0.884000
-0.021210 -0.024774 0.900000
0.016384 -0.003700 0.910000
-0.032803 -0.001814 0.903000
0.023587 0.025945 0.899000
0.019473 0.026626 0.897000
-0.000470 -0.008924 0.908000
-0.018608 0.034530 0.882000
0.017549 0.030918 0.893000
-0.018266 0.018215 0.883000
0.020856 -0.007064 0.909000
-0.033993 0.003397 0.905000
-0.003035 0.012173 0.893000
-0.000095 0.012583 0.896000
-0.009481 -0.028858 0.912000
-0.017720 -0.044199 0.911000
-0.012238 -0.003635 0.894000
0.012667 -0.009714 0.912000
-0.017862 0.034128 0.881000
-0.004091 0.025120 0.883000
0.010083 -0.021821 0.916000
0.006319 -0.026374 0.917000
0.003681 -0.030937 0.918000
0.020764 0.003770 0.905000
-0.016926 0.000410 0.889000
0.014687 -0.030659 0.921000
-0.015811 0.003699 0.888000
-0.014219 0.024673 0.880000
0.011903 -0.003330 0.911000
-0.007078 0.007762 0.893000
0.007992 0.025772 0.893000
0.002151 -0.010442 0.910000
-0.033584 -0.008141 0.904000
0.005552 -0.024057 0.915000
0.002526 -0.010442 0.910000
-0.002739 -0.037697 0.917000
-0.034366 -0.001818 0.905000
0.006820 0.036064 0.884000
-0.023513 0.043220 0.889000
0.008932 -0.019140 0.914000
-0.010682 0.010996 0.887000
0.022999 0.010474 0.905000
0.009863 0.016639 0.896000
-0.010200 0.031808 0.877000
-0.026397 -0.029589 0.900000
0.007761 0.006405 0.909000
0.030686 0.010428 0.901000
0.015277 -0.004829 0.911000
0.006835 0.033228 0.886000
-0.023905 0.036308 0.890000
-0.007421 0.009202 0.890000
0.004033 -0.020225 0.912000
0.022181 0.018607 0.902000
0.020130 -0.009319 0.910000
-0.024326 -0.004362 0.892000
0.011432 0.043980 0.875000
0.020436 0.040738 0.875000
-0.003833 -0.021631 0.908000
0.012237 0.003035 0.908000
-0.004156 0.007059 0.897000
0.013959 -0.039083 0.923000
-0.023618 -0.010247 0.893000
-0.013446 -0.018868 0.901000
-0.008163 0.007745 0.891000
0.022279 -0.000701 0.906000
-0.012060 0.021075 0.881000
-0.024463 -0.021738 0.897000
0.008756 0.015533 0.896000
-0.022960 -0.019870 0.896000
0.007020 -0.006322 0.910000
-0.013920 0.013506 0.884000
0.002900 -0.010817 0.910000
-0.024408 -0.016164 0.895000
-0.003486 -0.027823 0.915000
0.013085 -0.015395 0.915000
-0.021999 0.018297 0.887000
-0.012451 0.017488 0.883000
0.016204 0.016343 0.900000
0.014261 -0.021113 0.918000
-0.010491 -0.017404 0.902000
0.001004 0.021266 0.889000
-0.006991 0.025455 0.882000
0.037439 0.009979 0.894000
0.007436 -0.022927 0.915000
-0.020197 0.003333 0.888000
-0.008749 -0.039078 0.914000
0.008162 -0.008588 0.912000
-0.011515 -0.053369 0.895000
0.008528 -0.005579 0.911000
0.001400 -0.010431 0.909000
-0.023905 0.020191 0.890000
-0.005199 0.019371 0.886000
0.018217 0.000792 0.908000
0.012458 0.017765 0.897000
0.008593 -0.026403 0.918000
-0.028123 0.026965 0.896000
0.002448 0.037071 0.882000
-0.019488 0.000044 0.889000
0.002903 -0.019452 0.911000
0.031622 0.013320 0.896000
-0.000853 -0.036604 0.918000
-0.020300 -0.044102 0.909000
-0.017837 -0.050960 0.898000
0.017883 -0.004450 0.910000
-0.023225 -0.008033 0.892000
0.008565 -0.021044 0.915000
0.009653 -0.004079 0.911000
-0.008730 -0.034864 0.912000
0.002903 -0.018703 0.911000
-0.030539 -0.032254 0.902000
0.008874 0.000419 0.908000
0.003944 0.018401 0.892000
0.031955 0.014779 0.895000
-0.008786 0.027208 0.880000
-0.011059 0.008450 0.888000
-0.024666 0.026081 0.891000
-0.017539 0.018942 0.883000
-0.035975 -0.004440 0.908000
-0.020106 0.036064 0.884000
0.013762 -0.004075 0.910000
-0.021281 -0.031918 0.903000
-0.009565 0.016071 0.885000
0.021785 0.020070 0.901000
-0.034031 -0.027549 0.906000
0.033060 0.009622 0.895000
-0.015739 0.013142 0.884000
-0.024299 0.000411 0.891000
-0.033993 0.004514 0.905000
0.009568 0.010451 0.903000
-0.013252 0.006623 0.888000
-0.023589 -0.049550 0.906000
0.032986 0.018421 0.893000
-0.003774 0.011451 0.894000
-0.038386 -0.026981 0.912000
0.017322 -0.032140 0.920000
0.017152 -0.004829 0.911000
0.034051 0.016565 0.892000
0.014886 -0.002202 0.910000
-0.003863 -0.035355 0.915000
-0.001969 -0.022802 0.910000
0.005165 -0.020998 0.913000
-0.019488 0.000776 0.889000
-0.010838 -0.008846 0.900000
-0.000826 0.018339 0.889000
-0.018409 -0.038074 0.908000
0.013550 -0.038240 0.921000
-0.000458 0.025935 0.886000
-0.021707 -0.002154 0.890000
-0.014397 -0.000323 0.891000
0.001003 0.024531 0.888000
-0.008826 0.018599 0.884000
0.006797 0.041743 0.881000
-0.006042 -0.002185 0.903000
-0.036348 -0.015651 0.908000
0.000653 -0.008569 0.910000
-0.013625 -0.041290 0.913000
0.010577 0.023961 0.894000
-0.028123 0.023646 0.896000
-0.034031 -0.030160 0.906000
-0.007362 0.022213 0.883000
0.012033 -0.029143 0.921000
0.019975 0.014911 0.903000
-0.010718 0.005539 0.890000
-0.014698 0.007345 0.887000
-0.015845 -0.040825 0.911000
0.025865 0.024520 0.901000
-0.026987 -0.005850 0.895000
-0.032432 -0.030803 0.903000
-0.027386 -0.010650 0.896000
0.005165 -0.020622 0.913000
-0.018608 0.031626 0.882000
0.016796 -0.008213 0.912000
-0.017499 0.036304 0.881000
0.016546 -0.031349 0.919000
-0.021258 -0.030026 0.902000
-0.016755 0.037349 0.880000
0.010969 0.018483 0.896000
-0.015619 -0.014740 0.898000
-0.019315 -0.051700 0.898000
-0.023936 -0.037948 0.905000
-0.037178 -0.023926 0.910000
-0.020655 -0.007666 0.892000
-0.014330 -0.046398 0.910000
-0.025882 -0.014690 0.895000
-0.026221 0.001516 0.894000
0.013944 -0.034487 0.922000
-0.007971 -0.026202 0.911000
-0.011333 -0.033289 0.910000
0.007573 0.031805 0.887000
0.016870 0.027334 0.896000
-0.009906 0.020032 0.883000
0.016150 0.026995 0.897000
0.004055 -0.027506 0.917000
-0.011084 0.004806 0.890000
-0.002287 0.019049 0.888000
-0.014330 -0.036285 0.910000
-0.022421 -0.035302 0.904000
0.012583 0.008248 0.906000
-0.023905 0.018359 0.890000
-0.018617 -0.022551 0.900000
0.017895 0.041411 0.874000
0.000280 -0.027506 0.917000
0.011224 0.035091 0.887000
0.008737 0.025801 0.894000
-0.004835 0.019371 0.886000
-0.011373 0.015689 0.884000
-0.012785 0.020349 0.881000
0.007624 0.027610 0.893000
-0.019926 -0.044850 0.909000
-0.007487 -0.053917 0.898000
-0.038010 -0.010465 0.912000
-0.005352 -0.041996 0.912000
-0.009491 -0.042042 0.913000
-0.013826 0.030398 0.878000
-0.003490 -0.037279 0.916000
0.033759 0.010347 0.894000
-0.033248 0.008612 0.905000
-0.000827 0.015795 0.890000
0.013056 -0.012355 0.913000
0.027287 0.025945 0.899000
-0.025428 0.025376 0.892000
-0.012785 0.021800 0.881000
0.018297 -0.010465 0.912000
0.005819 0.013350 0.898000
-0.024666 0.019480 0.891000
-0.020857 0.040840 0.885000
-0.019466 0.003333 0.888000
0.001792 -0.033204 0.918000
0.030884 0.019221 0.896000
-0.019742 0.022602 0.884000
-0.005539 0.026181 0.882000
-0.023513 0.041756 0.889000
-0.007253 -0.038744 0.915000
0.027778 0.034149 0.891000
-0.004520 0.007789 0.896000
-0.016504 -0.031278 0.906000
0.016667 0.008612 0.905000
0.019125 0.023699 0.898000
-0.013889 0.018194 0.882000
0.000278 -0.021304 0.910000
-0.028524 0.017396 0.897000
0.018632 -0.004824 0.910000
-0.010596 -0.027326 0.911000
-0.002712 -0.020510 0.908000
-0.021634 0.016837 0.887000
0.009105 0.019546 0.894000
-0.008135 0.011008 0.888000
-0.027847 -0.025486 0.899000
-0.013863 -0.024512 0.904000
-0.035188 -0.028700 0.907000
-0.032803 0.003761 0.903000
-0.004835 0.019735 0.886000
-0.029022 -0.032218 0.901000
-0.015063 0.005520 0.887000
0.032692 0.010358 0.895000
0.016776 0.034149 0.891000
-0.008756 0.032168 0.877000
-0.000096 -0.016399 0.908000
-0.022909 -0.012466 0.894000
0.004073 -0.037482 0.921000
0.003905 0.041111 0.883000
0.020903 0.030619 0.895000
-0.026084 -0.033739 0.902000
0.015244 0.000045 0.909000
-0.012858 0.009890 0.886000
-0.028123 0.025490 0.896000
0.024381 0.022665 0.901000
-0.008916 0.003720 0.893000
-0.009597 0.009546 0.888000
0.002856 0.013689 0.896000
-0.004862 0.011412 0.891000
-0.014219 -0.023742 0.903000
-0.028524 -0.008816 0.897000
-0.004244 -0.038410 0.916000
-0.038803 -0.014234 0.913000
0.010849 -0.021845 0.917000
0.005358 0.035659 0.883000
-0.016691 -0.012125 0.896000
-0.018105 -0.009512 0.893000
-0.011553 -0.008087 0.898000
0.012813 0.026596 0.896000
-0.030842 0.003378 0.900000
-0.010468 -0.006994 0.900000
0.030515 0.019589 0.896000
-0.018075 -0.044525 0.910000
-0.023883 -0.034148 0.903000
-0.020538 -0.031546 0.903000
0.008462 0.007858 0.904000
-0.017638 0.003699 0.888000
0.021391 0.023011 0.900000
-0.031247 -0.011081 0.901000
-0.019742 0.024785 0.884000
-0.013873 0.021075 0.881000
-0.035188 -0.003315 0.907000
-0.021610 0.038333 0.886000
-0.032024 -0.012949 0.902000
-0.030573 -0.034891 0.903000
-0.030911 -0.028913 0.902000
0.031622 0.015164 0.896000
0.009653 -0.005204 0.911000
0.003949 0.015848 0.893000
0.011262 0.030447 0.890000
-0.013541 0.016761 0.883000
0.019734 -0.003696 0.909000
0.022254 0.002652 0.905000
-0.004895 0.004844 0.897000
-0.003787 0.007428 0.897000
0.011955 -0.017278 0.915000
0.012819 -0.034144 0.923000
0.019754 0.033123 0.893000
-0.003825 -0.010023 0.906000
-0.029295 -0.007717 0.898000
-0.026987 0.003359 0.895000
0.011128 -0.000329 0.909000
-0.023355 -0.021738 0.897000
0.037229 0.012484 0.889000
-0.010221 -0.033326 0.911000
-0.011333 -0.027296 0.910000
0.026984 0.037365 0.889000
-0.005895 0.027964 0.881000
-0.001965 -0.014156 0.908000
-0.018245 0.027270 0.882000
-0.033248 -0.034224 0.905000
-0.013073 0.034656 0.876000
0.000280 -0.032035 0.917000
-0.008172 0.007020 0.892000
0.020787 0.002282 0.906000
0.006085 0.036750 0.883000
-0.013595 -0.038200 0.911000
-0.032467 -0.032697 0.904000
-0.020771 -0.019523 0.897000
-0.016840 -0.027861 0.904000
-0.013826 0.031121 0.878000
0.008547 -0.015737 0.913000
-0.019093 -0.031989 0.905000
-0.025456 -0.002896 0.893000
-0.029393 -0.031847 0.901000
0.018902 0.008239 0.905000
-0.035562 -0.005181 0.907000
0.003689 -0.036305 0.920000
0.002481 0.014762 0.894000
-0.009770 -0.049441 0.904000
0.002926 -0.040761 0.918000
-0.013955 -0.036660 0.910000
0.020581 0.027733 0.897000
0.025750 0.029949 0.897000
0.020764 0.007494 0.905000
0.000271 0.025599 0.887000
0.027007 0.017493 0.902000
-0.016393 0.027208 0.880000
0.010105 -0.024892 0.918000
-0.017040 -0.052632 0.895000
0.014919 -0.007462 0.912000
0.013475 0.031582 0.891000
-0.020166 -0.029316 0.903000
0.019712 -0.000703 0.908000
-0.023355 -0.020630 0.897000
-0.011843 0.000411 0.892000
0.015670 -0.008213 0.912000
-0.015419 -0.034337 0.908000
0.008162 -0.014219 0.912000
-0.015828 0.000776 0.889000
-0.000474 -0.029016 0.917000
-0.017345 -0.044199 0.911000
0.016492 -0.016920 0.916000
0.030583 0.012241 0.898000
0.029573 0.011170 0.901000
-0.033993 -0.006287 0.905000
-0.014252 0.019283 0.882000
-0.008625 -0.007001 0.901000
-0.013952 0.009160 0.886000
-0.026678 -0.019154 0.897000
-0.031618 0.002640 0.901000
0.008303 0.032170 0.887000
-0.006748 -0.053178 0.898000
-0.006435 -0.020091 0.906000
-0.010254 -0.041335 0.914000
0.022796 0.030318 0.897000
-0.009974 0.007728 0.889000
-0.004430 0.036542 0.878000
0.004658 0.029648 0.888000
0.010801 -0.013859 0.913000
0.000653 -0.012689 0.910000
0.016098 -0.013512 0.915000
-0.029328 -0.021786 0.899000
-0.016012 0.028986 0.879000
-0.028556 -0.017327 0.898000
0.001003 0.023800 0.888000
0.010719 0.006011 0.906000
-0.033212 -0.012606 0.904000
-0.008749 -0.038326 0.914000
0.009380 -0.032175 0.921000
0.016776 0.033782 0.891000
-0.021610 0.041980 0.886000
-0.015846 -0.001055 0.890000
-0.033212 -0.027116 0.904000
0.028831 0.013024 0.901000
0.010061 -0.016883 0.914000
-0.033621 -0.029009 0.905000
-0.005533 0.029052 0.881000
0.023894 0.036386 0.883000
-0.031688 -0.020397 0.903000
-0.015619 -0.015848 0.898000
0.016024 0.035209 0.890000
-0.009839 0.031808 0.877000
-0.021245 0.019006 0.886000
-0.015215 -0.011388 0.896000
0.006682 -0.022551 0.915000
-0.019943 -0.010615 0.893000
0.022745 0.032460 0.895000
-0.029665 0.015198 0.898000
-0.026279 -0.018395 0.896000
0.033759 0.009979 0.894000
0.034785 0.012159 0.892000
0.015781 0.020719 0.897000
-0.027077 -0.022501 0.898000
0.037595 0.019071 0.889000
0.017784 0.008984 0.905000
-0.004586 -0.023899 0.909000
-0.026221 0.006667 0.894000
-0.034777 -0.000701 0.906000
-0.028893 0.018135 0.897000
0.006271 -0.007446 0.910000
-0.030068 0.002634 0.899000
-0.020516 0.012078 0.886000
-0.027477 -0.026226 0.899000
-0.011463 0.003344 0.891000
0.008225 -0.041940 0.919000
-0.009284 0.003352 0.893000
-0.019530 -0.038822 0.908000
-0.019057 0.010619 0.886000
-0.013192 0.014961 0.884000
0.005068 0.014427 0.896000
-0.021634 0.010631 0.887000
-0.004203 -0.014141 0.907000
-0.011084 0.004073 0.890000
0.026459 0.030653 0.896000
0.013762 -0.002951 0.910000
-0.018756 0.000776 0.889000
-0.024299 0.006645 0.891000
-0.021829 -0.015427 0.895000
0.014121 -0.000703 0.909000
0.019734 -0.007812 0.909000
-0.017307 -0.046347 0.909000
-0.006293 0.017912 0.886000
-0.007046 0.011753 0.889000
0.009298 -0.013859 0.913000
-0.019742 0.034608 0.884000
-0.012676 -0.013646 0.899000
0.003905 0.035659 0.883000
-0.021022 -0.007299 0.892000
-0.006868 -0.036445 0.914000
0.024246 0.031390 0.896000
-0.024681 -0.047260 0.905000
0.019423 -0.015720 0.912000
-0.034404 -0.006667 0.906000
-0.035975 -0.029479 0.908000
-0.003456 -0.012648 0.907000
-0.014235 -0.025256 0.904000
-0.025713 -0.035224 0.902000
-0.022743 -0.030398 0.902000
-0.025824 0.018054 0.893000
0.013811 0.035536 0.889000
0.025011 0.030318 0.897000
0.014304 0.019242 0.897000
-0.008548 0.004455 0.893000
0.001414 -0.027536 0.918000
-0.007554 -0.021583 0.906000
-0.012394 0.027539 0.879000
-0.017519 0.023277 0.882000
0.022452 0.027764 0.898000
0.026090 0.031022 0.896000
0.003275 -0.009693 0.910000
-0.018783 -0.037700 0.908000
-0.036763 -0.012675 0.909000
-0.005882 0.031880 0.879000
-0.019136 -0.046618 0.907000
0.028145 0.035249 0.891000
-0.012306 -0.014386 0.899000
-0.007173 -0.013365 0.905000
0.011128 0.000793 0.909000
-0.031899 -0.018661 0.909000
0.004804 -0.025214 0.916000
0.022416 0.036840 0.868000
-0.018245 0.032715 0.882000
-0.007412 0.010289 0.889000
-0.014736 -0.041996 0.912000
-0.021756 -0.008033 0.892000
0.015922 0.007494 0.905000
0.020366 0.039881 0.872000
-0.029665 0.011502 0.898000
-0.032060 -0.030060 0.903000
-0.017983 0.005155 0.887000
-0.010131 -0.018910 0.903000
-0.022415 0.004069 0.889000
-0.034777 0.000418 0.906000
-0.009684 -0.053060 0.896000
-0.005690 -0.014498 0.906000
0.024489 0.011592 0.905000
0.007411 -0.015345 0.912000
-0.032432 -0.007017 0.903000
-0.030472 0.009305 0.900000
-0.023513 0.035536 0.889000
0.017765 0.010091 0.904000
0.000653 -0.013064 0.910000
0.003653 -0.008204 0.911000
0.011477 0.004524 0.907000
-0.021485 -0.018395 0.896000
-0.032024 -0.008865 0.902000
0.004673 0.023147 0.891000
-0.016220 -0.040825 0.911000
0.003203 0.025685 0.890000
-0.023147 0.021266 0.889000
-0.019466 -0.033851 0.905000
-0.008144 0.010655 0.889000
0.007176 0.037840 0.883000
-0.011720 -0.046074 0.911000
-0.030876 -0.020351 0.901000
-0.014714 0.003699 0.888000
-0.024749 -0.012098 0.894000
0.008135 -0.003322 0.909000
0.007787 -0.013843 0.912000
0.014153 -0.006329 0.911000
0.005689 0.045214 0.878000
-0.010995 -0.055945 0.913000
-0.035562 -0.002195 0.907000
-0.009377 -0.015919 0.902000
-0.011708 -0.032165 0.910000
0.024064 0.018628 0.903000
-0.035975 -0.020510 0.908000
-0.001551 0.024448 0.885000
0.014968 -0.013889 0.915000
0.003569 0.021656 0.890000
-0.027386 -0.007700 0.896000
-0.001605 -0.034640 0.916000
0.025951 0.011951 0.904000
-0.006400 -0.051502 0.901000
-0.001225 -0.042088 0.914000
0.016409 0.033782 0.891000
-0.028524 0.010382 0.897000
-0.016249 -0.005096 0.892000
0.030481 0.026567 0.895000
-0.030911 -0.032996 0.902000
0.013581 0.017046 0.898000
0.014320 0.017785 0.898000
-0.026397 -0.030330 0.900000
-0.021293 0.005526 0.888000
0.018965 -0.000703 0.908000
-0.028123 0.017377 0.896000
0.002451 0.032389 0.883000
-0.019943 -0.011350 0.893000
-0.025824 0.009233 0.893000
0.012932 0.044542 0.879000
-0.018597 -0.021046 0.899000
-0.024708 -0.046194 0.906000
0.008359 0.025037 0.893000
-0.020951 0.001507 0.889000
0.006660 -0.016096 0.912000
0.015601 0.001166 0.908000
-0.016374 0.038392 0.879000
-0.023147 0.014680 0.889000
-0.022415 0.005166 0.889000
0.019104 0.024780 0.897000
0.006514 0.026845 0.892000
-0.014930 -0.019981 0.901000
0.012319 0.036186 0.887000
-0.001965 -0.014530 0.908000
-0.012046 0.023586 0.880000
0.014968 -0.014265 0.915000
0.010160 -0.034904 0.923000
0.012033 -0.039757 0.921000
-0.004987 -0.029674 0.914000
0.007920 0.036469 0.885000
0.006668 -0.019495 0.913000
-0.033993 -0.003680 0.905000
0.024697 0.028165 0.899000
-0.037137 -0.010805 0.909000
0.008303 0.032535 0.887000
-0.021093 0.032460 0.895000
0.010920 -0.033385 0.923000
-0.012511 -0.042840 0.914000
0.002106 0.016913 0.891000
-0.006876 -0.039498 0.915000
-0.008217 -0.053857 0.897000
0.011629 -0.024540 0.919000
0.007387 -0.004445 0.909000
0.013399 0.039063 0.886000
-0.021245 0.018641 0.886000
-0.013133 0.022862 0.880000
-0.030472 -0.002178 0.900000
-0.021707 -0.002887 0.890000
-0.024299 0.005545 0.891000
-0.009377 -0.012578 0.902000
0.001775 -0.008934 0.909000
0.026984 0.037731 0.889000
0.010435 0.041790 0.882000
-0.036389 -0.020532 0.909000
0.023744 0.011964 0.905000
0.009288 -0.006711 0.912000
0.012224 0.005271 0.907000
-0.001192 0.017607 0.889000
-0.014125 -0.011401 0.897000
-0.034031 -0.032397 0.906000
0.022720 0.035368 0.894000
0.016330 0.003778 0.907000
0.000274 0.011489 0.897000
-0.014995 0.014581 0.883000
-0.000456 0.034853 0.881000
-0.023671 -0.015427 0.895000
-0.018993 0.034933 0.883000
0.025973 0.034921 0.892000
-0.002712 -0.020136 0.908000
0.017715 0.044018 0.883000
-0.027386 -0.013232 0.896000
-0.021281 -0.032290 0.903000
-0.019422 0.008431 0.886000
0.016741 -0.001826 0.909000
-0.021701 -0.035714 0.905000
-0.008364 -0.035653 0.913000
0.007403 -0.006704 0.911000
-0.018227 -0.019566 0.899000
-0.017214 0.010243 0.885000
-0.010537 0.037497 0.875000
-0.008272 -0.014078 0.903000
0.012412 -0.027626 0.921000
0.029745 0.028040 0.895000
-0.013625 -0.042042 0.913000
-0.012785 0.021075 0.881000
-0.003859 -0.032307 0.914000
-0.023225 -0.006931 0.892000
-0.019229 -0.010994 0.894000
0.003300 -0.041471 0.917000
-0.029764 -0.029622 0.901000
-0.011370 -0.039035 0.913000
0.017784 0.007494 0.905000
0.004316 0.016216 0.893000
0.001792 -0.033960 0.918000
0.020279 0.020047 0.900000
-0.033993 -0.025284 0.905000
0.008126 0.000045 0.908000
0.007838 -0.027536 0.918000
0.022898 0.022665 0.901000
-0.032803 -0.010733 0.903000
-0.037178 -0.026922 0.910000
-0.009398 -0.020791 0.904000
-0.018267 -0.024801 0.901000
0.020630 0.038626 0.868000
0.008922 -0.017616 0.913000
0.029778 0.026596 0.896000
0.006333 -0.030971 0.919000
0.013285 0.011566 0.903000
-0.030876 0.017474 0.901000
-0.032840 -0.030837 0.904000
0.026648 0.035942 0.890000
0.002548 -0.030937 0.918000
-0.025599 -0.023980 0.898000
-0.018267 -0.023689 0.901000
-0.030101 -0.012550 0.900000
-0.001605 -0.034263 0.916000
-0.012620 -0.053737 0.895000
-0.005558 0.020806 0.885000
-0.038386 -0.012717 0.912000
0.012885 0.013395 0.901000
-0.020585 0.001873 0.889000
-0.000471 -0.021678 0.910000
-0.026455 -0.034481 0.902000
0.004432 -0.027129 0.917000
-0.023986 -0.009880 0.893000
0.021137 0.000417 0.905000
0.030953 0.011502 0.898000
0.008603 -0.029079 0.919000
-0.027755 -0.009175 0.896000
-0.015828 0.001142 0.889000
-0.010221 -0.033701 0.911000
0.005942 -0.026374 0.917000
-0.024272 0.033378 0.890000
-0.015079 -0.046023 0.910000
0.013173 0.041986 0.871000
-0.006658 0.017183 0.886000
0.003661 -0.022877 0.913000
-0.021210 -0.050333 0.900000
0.007082 -0.027914 0.918000
-0.027724 0.021778 0.895000
0.002526 -0.015686 0.910000
-0.026661 -0.043728 0.909000
0.017527 -0.005954 0.911000
0.018263 0.034554 0.892000
0.013056 -0.011228 0.913000
0.016556 0.018915 0.899000
-0.000851 -0.033132 0.916000
-0.011963 -0.016643 0.901000
-0.030911 -0.031140 0.902000
0.015395 -0.020735 0.918000
-0.018286 0.013142 0.884000
-0.019356 0.039294 0.883000
-0.025026 -0.037534 0.904000
-0.005989 0.007780 0.895000
-0.026191 0.022464 0.893000
0.004447 -0.035548 0.920000
0.024010 0.022295 0.901000
0.005838 0.010428 0.901000
-0.024693 -0.005096 0.892000
0.010945 0.028745 0.894000
0.018797 0.020047 0.900000
-0.008089 0.021486 0.883000
0.009674 -0.016489 0.913000
-0.001228 -0.032001 0.916000
0.017412 0.008239 0.905000
-0.031282 -0.027799 0.902000
0.018800 0.037111 0.866000
0.008001 0.018074 0.894000
-0.006983 0.025788 0.881000
0.001753 0.010763 0.898000
-0.018307 0.012792 0.885000
-0.025827 -0.041346 0.906000
-0.015633 0.038348 0.878000
-0.007118 -0.053917 0.898000
-0.017817 -0.051642 0.897000
0.004059 -0.027914 0.918000
0.010470 0.038290 0.885000
0.008547 -0.012731 0.913000
0.007479 0.044030 0.876000
-0.007554 -0.021210 0.906000
0.009339 -0.024110 0.917000
0.026090 0.030653 0.896000
-0.035601 -0.022378 0.908000
0.017200 0.029480 0.894000
-0.022818 -0.037948 0.905000
0.013417 -0.008588 0.912000
0.016888 -0.022223 0.917000
-0.018861 -0.010994 0.894000
-0.028155 -0.011770 0.897000
0.006733 -0.036384 0.922000
0.015311 -0.009349 0.913000
-0.009106 -0.035614 0.912000
-0.014282 -0.029820 0.907000
-0.000097 -0.027506 0.917000
-0.027355 0.014042 0.895000
-0.004813 0.026181 0.882000
-0.010108 -0.014047 0.901000
-0.005683 -0.011130 0.905000
-0.029033 -0.037157 0.913000
-0.000844 -0.010419 0.908000
0.016456 -0.012369 0.914000
-0.011072 0.007362 0.889000
-0.025770 -0.037906 0.904000
-0.021999 0.017202 0.887000
0.005577 -0.030971 0.919000
-0.026221 0.002620 0.894000
-0.027724 0.025461 0.895000
-0.009873 0.024673 0.880000
0.009695 -0.018785 0.915000
0.019125 0.022590 0.898000
-0.025795 0.031617 0.892000
0.005722 0.037477 0.883000
0.027747 0.037041 0.890000
-0.024708 -0.040973 0.906000
0.017284 -0.027536 0.918000
-0.002269 0.031953 0.881000
0.005012 0.031040 0.886000
0.012667 -0.007838 0.912000
-0.000094 0.020146 0.888000
-0.001596 -0.024327 0.911000
0.013929 -0.029143 0.921000
0.012359 -0.021090 0.917000
-0.007596 -0.043824 0.911000
0.002109 0.016565 0.892000
0.003653 -0.014203 0.911000
-0.019742 0.043340 0.884000
-0.010549 0.035016 0.876000
-0.012859 -0.045749 0.912000
-0.024272 0.035576 0.890000
-0.001556 0.019780 0.888000
-0.026485 -0.036750 0.903000
0.000656 -0.042887 0.915000
-0.028651 -0.032218 0.901000
-0.004982 -0.025883 0.913000
-0.026191 0.014378 0.893000
-0.011978 0.036777 0.875000
0.030515 0.019958 0.896000
-0.027569 -0.034481 0.902000
0.037553 0.018318 0.888000
-0.025145 -0.014322 0.895000
-0.028925 0.003001 0.898000
-0.016468 -0.027489 0.904000
0.007020 -0.006697 0.910000
0.001753 0.010393 0.898000
0.025579 0.010091 0.904000
0.014673 0.025888 0.897000
-0.003728 0.026937 0.883000
-0.028619 -0.028478 0.900000
-0.018650 0.043340 0.884000
0.012444 0.027703 0.896000
0.017824 0.003405 0.907000
-0.019014 0.014597 0.884000
0.022774 0.037554 0.868000
-0.013133 0.024673 0.880000
-0.016951 -0.045649 0.910000
-0.026987 -0.008797 0.895000
0.001400 -0.011179 0.909000
0.005334 0.044181 0.879000
0.004684 0.016584 0.893000
0.008537 -0.008213 0.912000
-0.030101 -0.020699 0.900000
-0.010609 0.022525 0.881000
-0.011096 0.002978 0.891000
0.011602 0.034765 0.888000
-0.035975 -0.028358 0.908000
-0.002664 0.012894 0.892000
0.019125 0.024438 0.898000
0.024231 0.036882 0.869000
-0.012874 -0.042417 0.913000
-0.018608 0.042153 0.882000
0.015738 -0.016166 0.916000
-0.032432 -0.002185 0.903000
-0.016285 -0.009523 0.894000
-0.008644 -0.012220 0.903000
-0.018824 -0.041529 0.910000
0.024532 0.035696 0.893000
-0.026589 0.004460 0.894000
-0.011184 -0.052069 0.898000
0.001736 0.020168 0.889000
0.027750 0.010811 0.902000
0.020650 0.021159 0.900000
0.019582 0.015637 0.902000
0.003300 -0.041094 0.917000
0.010017 -0.002951 0.910000
0.000272 0.016180 0.891000
-0.027724 0.023620 0.895000
0.032582 0.022806 0.892000
-0.009565 0.015706 0.885000
-0.024408 -0.015796 0.895000
-0.001984 -0.035810 0.917000
-0.013267 0.005166 0.889000
-0.025940 -0.021369 0.897000
-0.013118 0.027900 0.879000
-0.011643 -0.024539 0.905000
0.021752 0.038715 0.870000
0.010328 0.042082 0.873000
-0.012817 -0.031756 0.909000
0.018881 0.010835 0.904000
0.007028 -0.007454 0.911000
-0.020975 -0.001055 0.890000
-0.017506 -0.049963 0.900000
-0.002274 0.028391 0.883000
-0.018245 0.025092 0.882000
-0.012366 0.031086 0.877000
-0.007387 0.016454 0.886000
0.022494 0.038760 0.871000
-0.009377 -0.014063 0.902000
0.022552 0.018978 0.902000
-0.007717 0.022914 0.882000
-0.023566 0.030115 0.891000
-0.015385 -0.030532 0.906000
-0.000845 -0.021678 0.910000
-0.021629 -0.030769 0.902000
0.024900 0.035696 0.893000
0.034746 0.015079 0.891000
-0.032432 -0.006274 0.903000
-0.035975 -0.020883 0.908000
-0.019114 -0.033889 0.906000
-0.019487 -0.035380 0.906000
0.017549 0.032020 0.893000
-0.009273 0.004450 0.892000
0.002101 0.027852 0.889000
-0.014910 0.033289 0.878000
-0.022960 -0.019501 0.896000
-0.029295 0.007436 0.898000
-0.020493 0.032462 0.885000
-0.022025 -0.032290 0.903000
-0.018450 -0.042653 0.910000
-0.022074 -0.000689 0.890000
0.008922 -0.010477 0.913000
0.029811 0.021088 0.897000
-0.006801 -0.014482 0.905000
-0.008654 -0.018559 0.904000
0.001382 0.012597 0.897000
-0.023566 0.029015 0.891000
0.008285 0.035740 0.885000
-0.020747 -0.016551 0.896000
-0.003015 0.020123 0.887000
-0.020106 0.037155 0.884000
-0.008254 -0.005889 0.901000
0.023718 0.017532 0.904000
0.013042 -0.009714 0.912000
0.018297 -0.010090 0.912000
0.016324 0.039652 0.867000
-0.012366 0.032890 0.877000
0.008500 -0.001076 0.908000
0.032619 0.018054 0.893000
0.006653 -0.007829 0.911000
-0.001984 -0.039584 0.917000
0.017142 0.033782 0.891000
-0.010108 -0.008114 0.901000
-0.035266 -0.018661 0.909000
0.004784 -0.019849 0.912000
-0.020585 0.000410 0.889000
0.002551 -0.040048 0.919000
-0.008364 -0.042417 0.913000
-0.013177 -0.029479 0.908000
0.017566 -0.011980 0.913000
0.023744 0.014944 0.905000
0.006333 -0.030592 0.919000
-0.014268 0.015671 0.883000
-0.023566 -0.002156 0.891000
-0.011963 -0.018126 0.901000
0.008216 -0.026781 0.918000
-0.014565 0.028624 0.879000
0.004773 -0.008944 0.910000
-0.021365 -0.006190 0.891000
-0.033993 -0.000328 0.905000
-0.016448 0.015308 0.883000
0.021043 0.018957 0.901000
-0.027909 -0.031476 0.901000
-0.007988 -0.042042 0.913000
-0.002736 -0.028984 0.916000
-0.011963 -0.017756 0.901000
-0.000824 0.021948 0.887000
0.004403 -0.010079 0.911000
-0.022073 -0.035714 0.905000
0.001038 -0.037401 0.919000
-0.011196 -0.009206 0.899000
0.005565 -0.026374 0.917000
0.016098 -0.015019 0.915000
-0.003825 -0.010769 0.906000
-0.024435 -0.018763 0.896000
-0.017078 -0.015092 0.897000
0.010506 -0.039713 0.920000
-0.015470 -0.040825 0.911000
-0.010584 -0.031791 0.910000
0.015412 -0.024162 0.919000
-0.015323 0.022888 0.881000
-0.001556 0.019049 0.888000
-0.031247 0.009315 0.901000
-0.036348 -0.005561 0.908000
-0.033584 -0.009257 0.904000
-0.014543 -0.050704 0.900000
0.024489 0.012337 0.905000
-0.031618 0.004865 0.901000
0.000633 0.030571 0.883000
-0.015029 -0.047365 0.907000
0.013079 0.033706 0.889000
0.009400 -0.035284 0.923000
0.022230 0.004137 0.904000
0.011772 0.013024 0.901000
-0.023173 0.004440 0.890000
-0.023513 0.043586 0.889000
-0.032432 -0.023742 0.903000
0.002170 -0.027536 0.918000
0.000281 -0.027914 0.918000
-0.012592 -0.001794 0.893000
0.009589 0.006377 0.905000
0.019017 0.041506 0.876000
-0.018245 0.035982 0.882000
-0.016793 0.018194 0.882000
0.019669 0.007130 0.906000
0.005974 -0.037902 0.922000
0.015043 0.024042 0.897000
0.023165 0.030318 0.897000
0.027075 0.032719 0.892000
0.019495 0.023699 0.898000
0.019132 -0.022952 0.916000
0.011994 -0.022625 0.918000
-0.021245 0.037239 0.886000
0.014288 0.023277 0.896000
0.005968 -0.038998 0.921000
-0.003863 -0.028576 0.915000
-0.011910 -0.006970 0.897000
-0.011221 -0.015160 0.901000
-0.039975 -0.028545 0.914000
-0.025482 -0.044005 0.907000
-0.006485 -0.034526 0.913000
0.017039 0.008239 0.905000
-0.027017 -0.015076 0.896000
-0.014780 -0.003627 0.892000
0.015693 0.031250 0.892000
0.000996 0.036708 0.882000
-0.030101 -0.014402 0.900000
0.021882 0.007494 0.905000
-0.014656 -0.031313 0.907000
0.005407 0.027915 0.891000
-0.005740 -0.035316 0.914000
0.011116 0.002287 0.908000
0.003275 -0.008944 0.910000
0.003677 -0.026374 0.917000
-0.017253 0.005520 0.887000
0.007795 -0.012355 0.913000
0.011850 0.005644 0.907000
0.017450 0.003031 0.907000
0.002919 -0.041426 0.916000
0.015378 -0.020335 0.917000
0.032692 0.012200 0.895000
-0.012265 -0.006225 0.896000
-0.023329 -0.018395 0.896000
-0.001229 -0.036187 0.917000
-0.016103 0.013142 0.884000
0.019953 0.017122 0.902000
-0.026856 -0.036750 0.903000
-0.018783 -0.038074 0.908000
0.017902 -0.005954 0.911000
-0.026987 -0.007691 0.895000
0.037188 0.016491 0.888000
-0.006272 0.023303 0.883000
0.031955 0.025830 0.895000
0.006333 -0.031349 0.919000
-0.024381 -0.011730 0.894000
0.019755 -0.010442 0.910000
0.005346 0.040292 0.881000
-0.000845 -0.021304 0.910000
-0.029698 0.001154 0.899000
0.004616 0.043869 0.880000
-0.006650 0.020077 0.885000
-0.005564 0.018277 0.886000
-0.031653 -0.023715 0.902000
-0.011764 0.012078 0.886000
0.016575 0.017084 0.900000
-0.003021 0.015412 0.889000
-0.007717 0.024729 0.882000
-0.017269 -0.034673 0.907000
0.001370 0.020900 0.889000
-0.014731 0.002605 0.889000
-0.013133 -0.025657 0.905000
0.002929 -0.040048 0.919000
-0.023932 0.030482 0.891000
-0.022755 0.035130 0.888000
-0.010247 0.023250 0.881000
0.019953 0.016379 0.902000
-0.030876 -0.011451 0.901000
-0.018659 -0.026314 0.902000
0.006514 0.019869 0.892000
-0.006876 -0.037991 0.915000
0.004316 0.016584 0.893000
0.003653 -0.012328 0.911000
0.001003 0.025993 0.888000
0.013329 0.006757 0.906000
-0.006831 -0.047095 0.909000
0.009951 0.009718 0.904000
0.015904 0.009346 0.904000
0.003944 0.018768 0.892000
-0.008282 -0.018187 0.904000
0.032655 0.023961 0.894000
0.010849 -0.021468 0.917000
-0.028524 -0.009185 0.897000
-0.008117 0.015360 0.886000
0.015395 0.028071 0.896000
-0.025229 -0.023610 0.898000
-0.009951 0.011361 0.887000
0.022627 0.003025 0.905000
0.014673 0.020350 0.897000
-0.010142 -0.020419 0.904000
-0.006056 -0.017834 0.905000
-0.030068 -0.002916 0.899000
-0.029328 -0.022526 0.899000
0.005903 -0.005954 0.911000
0.003188 0.029946 0.886000
-0.029665 0.008545 0.898000
-0.006816 -0.023473 0.907000
0.005774 0.023147 0.891000
0.000270 0.030935 0.883000
-0.019742 0.032789 0.884000
-0.031282 -0.023344 0.902000
-0.004475 0.018663 0.887000
-0.015393 0.010971 0.885000
0.010039 -0.005585 0.912000
-0.006793 -0.010373 0.904000
-0.001602 -0.041711 0.914000
-0.017040 -0.010638 0.895000
0.005534 -0.013843 0.912000
0.002172 -0.035131 0.919000
-0.026589 -0.001428 0.894000
0.015721 -0.013512 0.915000
-0.019100 0.002602 0.888000
-0.012887 0.006257 0.888000
0.027378 0.018978 0.902000
0.016098 -0.013889 0.915000
0.013491 -0.019958 0.917000
0.003289 -0.024407 0.914000
0.001026 -0.014920 0.909000
-0.038761 -0.029233 0.912000
-0.027355 0.014779 0.895000
-0.006999 0.023303 0.883000
0.022571 0.039613 0.874000
-0.025855 -0.045498 0.907000
-0.007962 -0.025424 0.910000
0.020582 0.037468 0.866000
-0.013556 0.014597 0.884000
0.014528 -0.005579 0.911000
-0.013595 -0.037825 0.911000
-0.007805 0.007387 0.892000
-0.004835 0.020100 0.886000
-0.003749 0.016125 0.888000
0.026294 0.009708 0.903000
-0.037552 -0.023176 0.910000
0.032692 0.011095 0.895000
-0.010596 -0.027701 0.911000
-0.039179 -0.019495 0.913000
0.022974 0.017160 0.904000
-0.000473 -0.043263 0.915000
-0.006991 0.024003 0.882000
-0.003486 -0.035355 0.915000
-0.025542 -0.017288 0.896000
-0.022909 -0.014674 0.894000
-0.015686 0.022888 0.881000
-0.006428 -0.015227 0.905000
-0.013249 -0.044296 0.913000
-0.029295 0.003371 0.898000
-0.003106 -0.041711 0.914000
0.009973 0.005638 0.906000
-0.025853 -0.010259 0.894000
-0.017678 -0.002887 0.890000
0.034418 0.022806 0.892000
-0.017545 -0.025571 0.902000
-0.010984 0.020372 0.882000
-0.027878 -0.028849 0.900000
-0.012648 -0.009185 0.897000
-0.025428 0.009222 0.892000
-0.015114 0.000777 0.890000
0.009237 0.001911 0.907000
0.012305 -0.013107 0.913000
-0.020606 -0.036872 0.906000
-0.017499 0.037754 0.881000
0.018237 -0.001452 0.909000
0.005774 0.022414 0.891000
-0.031618 0.003753 0.901000
-0.008443 0.022187 0.882000
0.020212 0.026257 0.897000
0.012430 0.022146 0.895000
-0.020701 -0.012098 0.894000
-0.008481 0.015724 0.886000
0.020764 0.010102 0.905000
-0.018925 -0.017677 0.897000
-0.029665 0.012241 0.898000
0.033646 0.020580 0.891000
0.010945 0.021385 0.894000
-0.009252 0.007736 0.890000
-0.033621 -0.023794 0.905000
-0.004884 0.009622 0.895000
0.035073 0.017627 0.890000
-0.027755 -0.009544 0.896000
0.010426 -0.008973 0.913000
-0.026426 -0.033331 0.901000
0.015640 0.036634 0.889000
-0.023037 -0.024746 0.899000
-0.011257 0.037137 0.875000
0.016546 -0.029458 0.919000
-0.021048 -0.045225 0.909000
-0.027878 -0.028108 0.900000
0.008639 0.039338 0.884000
0.001751 0.012228 0.897000
-0.037968 -0.020577 0.911000
0.013966 0.015585 0.899000
0.002170 -0.029048 0.918000
-0.017718 -0.006564 0.892000
-0.028893 0.013335 0.897000
-0.027755 0.001888 0.896000
-0.012620 -0.054474 0.895000
0.025951 0.015300 0.904000
0.016546 -0.030971 0.919000
-0.010479 -0.015160 0.901000
0.015790 -0.024919 0.919000
-0.010019 0.002249 0.893000
0.020086 -0.005935 0.908000
-0.026987 0.000044 0.895000
0.026917 0.027055 0.899000
-0.003001 0.027664 0.883000
0.022847 0.025945 0.899000
-0.003110 -0.041380 0.915000
-0.014361 -0.040119 0.912000
-0.029665 0.010763 0.898000
0.006660 -0.009714 0.912000
-0.018925 -0.018046 0.897000
0.000654 -0.022452 0.911000
0.025579 0.017160 0.904000
0.028831 0.011170 0.901000
0.021137 0.009729 0.905000
-0.037968 -0.017203 0.911000
-0.030472 -0.008475 0.900000
-0.033584 -0.010001 0.904000
0.007479 0.044751 0.876000
-0.029698 -0.020306 0.899000
0.025579 0.016416 0.904000
0.002852 0.014410 0.895000
-0.013148 -0.026431 0.906000
-0.004596 -0.025077 0.911000
-0.031247 -0.002551 0.901000
-0.019794 -0.028945 0.903000
0.001404 -0.020952 0.911000
0.026547 0.027795 0.899000
-0.011271 -0.024167 0.905000
-0.025033 0.037449 0.891000
0.008117 0.002658 0.907000
-0.028249 -0.028478 0.900000
-0.032803 -0.013335 0.903000
-0.011009 0.015689 0.884000
-0.017882 0.021098 0.882000
0.028059 0.021529 0.900000
-0.025428 0.036390 0.892000
-0.035188 0.000418 0.907000
-0.005317 -0.018973 0.906000
-0.016802 -0.024086 0.902000
-0.011271 -0.023422 0.905000
-0.026431 -0.038702 0.914000
-0.000094 0.024869 0.887000
-0.018700 -0.029721 0.904000
0.026695 0.012695 0.904000
-0.029698 -0.014386 0.899000
-0.016304 -0.052632 0.895000
0.017686 0.018566 0.900000
0.013566 0.026626 0.897000
-0.016896 -0.033926 0.907000
0.015736 0.042131 0.874000
0.023639 0.022295 0.901000
-0.022371 -0.049702 0.902000
-0.028556 -0.016957 0.898000
0.004810 -0.026374 0.917000
-0.031247 -0.000697 0.901000
-0.001180 0.035900 0.880000
0.006726 -0.038998 0.921000
0.025778 0.029612 0.898000
-0.001939 0.011108 0.896000
0.013535 -0.026839 0.920000
0.016546 -0.027566 0.919000
0.018386 0.021851 0.898000
-0.038386 -0.024729 0.912000
0.021020 0.022270 0.900000
0.001777 -0.016060 0.910000
-0.028925 -0.015109 0.898000
0.028461 0.015990 0.901000
-0.018245 0.030900 0.882000
0.004432 -0.041848 0.917000
-0.034892 -0.015668 0.909000
-0.030101 -0.011439 0.900000
-0.007197 -0.048165 0.908000
0.002151 -0.011191 0.910000
-0.001223 -0.024354 0.912000
-0.003732 0.024057 0.884000
-0.022049 0.001507 0.889000
0.020833 0.036390 0.892000
-0.011923 -0.009196 0.898000
-0.020447 -0.023636 0.899000
0.009298 -0.011980 0.913000
-0.015385 -0.047686 0.906000
0.018611 -0.000329 0.909000
-0.019573 -0.043776 0.910000
-0.006741 0.003736 0.897000
0.019381 -0.010442 0.910000
-0.013551 -0.047417 0.908000
0.015738 -0.017674 0.916000
0.002811 0.035256 0.882000
0.009665 0.042323 0.878000
0.020086 -0.002945 0.908000
0.015939 0.007130 0.906000
-0.027047 -0.019523 0.897000
0.009579 0.008974 0.904000
-0.016831 0.012414 0.884000
-0.017312 -0.001055 0.890000
-0.024299 0.008479 0.891000
-0.012380 0.030037 0.878000
-0.001547 0.028754 0.883000
0.025420 0.038489 0.873000
-0.006103 -0.042746 0.912000
-0.003410 0.010358 0.895000
-0.014361 -0.041245 0.912000
0.011300 -0.036424 0.923000
-0.005935 0.015742 0.887000
-0.010041 -0.001061 0.895000
0.014671 -0.027218 0.920000
-0.017499 0.031590 0.881000
-0.010142 -0.021535 0.904000
0.003573 0.026081 0.891000
0.011739 0.041269 0.871000
0.000659 -0.040383 0.918000
0.008313 0.030745 0.888000
0.013808 -0.011980 0.913000
0.003681 -0.031315 0.918000
-0.019926 -0.044476 0.909000
-0.028155 -0.008447 0.897000
0.012129 0.014121 0.900000
0.012583 0.007875 0.906000
0.010896 -0.029143 0.921000
0.012333 0.034399 0.888000
-0.007504 -0.003289 0.900000
-0.020265 -0.004723 0.891000
-0.020379 -0.016551 0.896000
-0.039975 -0.027416 0.914000
-0.010328 0.009912 0.888000
-0.005989 0.008148 0.895000
0.006514 0.028313 0.892000
-0.022883 -0.009512 0.893000
-0.019186 -0.008400 0.892000
0.010577 0.023593 0.894000
0.023325 0.036634 0.889000
-0.011059 0.009181 0.888000
-0.007612 -0.028514 0.913000
-0.005740 -0.034188 0.914000
-0.003011 0.022288 0.886000
0.015143 0.011194 0.903000
0.018020 -0.025619 0.917000
-0.001228 -0.033132 0.916000
-0.018671 0.012792 0.885000
-0.030168 -0.031140 0.902000
0.027409 0.011938 0.903000
0.016962 -0.033691 0.921000
0.011104 0.004151 0.907000
-0.023485 -0.032625 0.902000
-0.016078 -0.049014 0.903000
-0.015368 -0.027891 0.905000
-0.032060 -0.021883 0.903000
0.000633 0.032025 0.883000
-0.028312 -0.034481 0.902000
-0.031653 -0.005153 0.902000
-0.020493 0.023356 0.885000
0.007744 0.001538 0.907000
-0.012521 0.007719 0.888000
-0.023539 0.009568 0.890000
0.014919 -0.008588 0.912000
-0.033621 -0.031244 0.905000
0.001736 0.021632 0.889000
-0.031247 -0.020722 0.901000
0.019887 0.021505 0.899000
0.013914 -0.026460 0.920000
-0.021245 0.014995 0.886000
0.004059 -0.031315 0.918000
-0.020817 -0.022896 0.899000
-0.012082 -0.034787 0.910000
-0.028492 0.025859 0.896000
0.005419 0.016951 0.893000
0.015194 0.006757 0.906000
-0.011515 -0.004376 0.895000
0.026119 0.029579 0.897000
0.013491 -0.019581 0.917000
0.032619 0.019156 0.893000
-0.021352 -0.037617 0.906000
-0.026044 -0.049554 0.927000
-0.034892 -0.020158 0.909000
-0.007918 -0.049495 0.905000
0.013028 -0.005954 0.911000
0.025234 0.013454 0.905000
0.011995 0.030814 0.890000
-0.023905 0.017260 0.890000
0.008359 0.023567 0.893000
-0.001589 -0.010034 0.907000
0.015274 0.036268 0.889000
0.009742 0.036833 0.885000
0.002913 -0.024783 0.914000
0.017335 0.015620 0.901000
-0.010573 0.029676 0.878000
-0.004530 0.004110 0.898000
0.018407 0.020395 0.899000
0.012813 0.025859 0.896000
0.004307 0.026081 0.891000
-0.006598 0.033289 0.878000
-0.014814 -0.007315 0.894000
-0.015900 -0.006939 0.893000
0.008294 0.033593 0.886000
-0.028893 0.024780 0.897000
-0.011159 -0.053060 0.896000
-0.006967 0.029709 0.879000
-0.015289 0.030795 0.879000
0.015412 0.022196 0.897000
0.010129 0.034361 0.887000
-0.006756 -0.052497 0.899000
-0.018608 0.041064 0.882000
-0.018450 -0.044151 0.910000
0.011903 -0.002955 0.911000
0.020796 0.040738 0.875000
-0.016691 -0.012863 0.896000
0.015445 -0.031417 0.921000
0.020414 0.005265 0.906000
-0.007691 0.030433 0.879000
0.008688 0.030047 0.889000
0.030147 0.026227 0.896000
-0.011644 0.031447 0.877000
0.006292 -0.020247 0.913000
0.014017 0.044181 0.879000
0.018672 0.030584 0.894000
-0.030876 -0.013306 0.901000
-0.032840 -0.028233 0.904000
-0.036763 -0.019784 0.909000
-0.003113 -0.028984 0.916000
-0.002310 0.008536 0.897000
0.011427 0.011566 0.903000
0.028090 0.015249 0.901000
0.006175 0.014795 0.896000
-0.029295 0.016676 0.898000
-0.005895 0.027239 0.881000
-0.022617 -0.020999 0.897000
-0.013506 -0.048750 0.905000
0.014690 0.018894 0.898000
0.022427 0.028841 0.897000
0.022720 0.034632 0.894000
-0.010897 0.036417 0.875000
-0.015249 -0.015848 0.898000
0.011968 -0.019559 0.916000
0.020167 0.029513 0.895000
-0.026589 0.000044 0.894000
-0.016540 -0.035458 0.908000
-0.009629 0.004445 0.891000
0.026678 0.034882 0.891000
-0.035975 -0.003319 0.908000
-0.017896 -0.023318 0.901000
-0.020516 0.009890 0.886000
-0.014015 0.001143 0.890000
-0.015793 -0.046670 0.908000
0.019430 0.029513 0.895000
-0.002709 -0.017874 0.907000
-0.030068 0.014475 0.899000
-0.003025 0.014330 0.890000
-0.005949 0.012118 0.889000
0.018447 0.016361 0.901000
-0.010549 0.032853 0.876000
0.009319 -0.021044 0.915000
-0.015567 -0.053369 0.895000
0.009841 0.027641 0.894000
0.014886 -0.003700 0.910000
0.005968 -0.034450 0.921000
-0.022173 -0.012834 0.894000
-0.001544 0.032678 0.881000
-0.035562 -0.001822 0.907000
-0.032432 -0.007389 0.903000
0.017961 -0.017636 0.914000
-0.035562 -0.002942 0.907000
0.035440 0.015795 0.890000
0.036132 0.013948 0.889000
-0.005746 -0.037615 0.915000
-0.008245 -0.004030 0.900000
-0.025456 0.006292 0.893000
-0.014078 -0.005475 0.894000
-0.014893 0.038305 0.877000
-0.021773 -0.042559 0.908000
-0.030472 -0.019958 0.900000
0.011018 0.013380 0.900000
-0.035975 -0.024620 0.908000
-0.010221 -0.029951 0.911000
-0.007229 -0.031110 0.912000
0.000659 -0.040005 0.918000
-0.022935 -0.016532 0.895000
0.000270 0.030208 0.883000
-0.019742 0.033881 0.884000
-0.039975 -0.022526 0.914000
0.008256 0.041427 0.882000
-0.011923 -0.052069 0.898000
-0.024654 -0.037162 0.904000
-0.006975 0.029381 0.880000
-0.012859 -0.038617 0.912000
-0.012082 -0.030667 0.910000
0.011890 -0.002577 0.910000
0.016593 0.014878 0.901000
0.022131 0.022270 0.900000
-0.030101 -0.009587 0.900000
-0.014284 0.012414 0.884000
-0.004226 -0.025480 0.912000
-0.025428 0.009957 0.892000
0.000280 -0.030148 0.917000
-0.017117 0.036625 0.880000
-0.026589 -0.001796 0.894000
-0.002736 -0.029361 0.916000
-0.001558 0.016509 0.889000
0.014512 -0.002202 0.910000
-0.021683 0.003337 0.889000
0.010094 -0.023355 0.917000
-0.023539 0.031546 0.890000
-0.039598 -0.017259 0.914000
-0.000470 -0.015651 0.908000
-0.002655 0.016509 0.889000
0.000271 0.024139 0.887000
0.011941 0.037604 0.886000
-0.013297 0.000411 0.891000
-0.029698 -0.013276 0.899000
0.016080 -0.011993 0.914000
0.002109 0.016198 0.892000
-0.016149 -0.032806 0.907000
-0.026618 -0.012112 0.895000
0.016063 -0.010101 0.913000
-0.007918 -0.020069 0.905000
-0.036348 -0.012662 0.908000
-0.005733 -0.031144 0.913000
-0.026221 0.036472 0.894000
-0.024326 -0.002526 0.892000
-0.001605 -0.030492 0.916000
-0.011746 -0.045048 0.913000
0.022700 0.041286 0.879000
-0.026221 -0.009155 0.894000
0.028027 0.026685 0.899000
0.009918 0.012653 0.901000
-0.000818 0.034128 0.881000
-0.020128 0.022991 0.885000
-0.001982 -0.030115 0.916000
-0.003376 0.021559 0.886000
-0.021634 0.022678 0.887000
0.000278 -0.012675 0.909000
-0.001967 -0.022029 0.909000
0.025692 0.032092 0.895000
0.019690 0.003405 0.907000
0.023957 0.026315 0.899000
0.013929 -0.027626 0.921000
-0.026618 -0.005850 0.895000
-0.007312 0.034334 0.877000
-0.016812 0.017488 0.883000
-0.022465 -0.004357 0.891000
-0.009856 -0.035239 0.912000
0.018444 0.038181 0.866000
0.010050 -0.015362 0.913000
0.001035 -0.032790 0.917000
-0.001965 -0.011914 0.908000
-0.023724 -0.020630 0.897000
0.009764 0.034726 0.887000
-0.036763 -0.025022 0.909000
-0.024299 0.027915 0.891000
0.013203 0.039927 0.873000
-0.019831 0.002602 0.888000
-0.025454 -0.045075 0.906000
-0.004813 0.026544 0.882000
0.005046 0.025743 0.892000
-0.014532 0.033973 0.877000
0.010449 -0.019538 0.915000
-0.012814 0.015671 0.883000
0.009716 -0.024110 0.917000
0.017643 -0.025997 0.917000
-0.023566 0.028281 0.891000
-0.009846 -0.033701 0.911000
-0.013618 0.006257 0.888000
0.021137 0.006004 0.905000
0.013747 -0.000329 0.909000
-0.001941 0.008905 0.897000
-0.026397 -0.028478 0.900000
0.024408 0.022319 0.902000
-0.006393 -0.001437 0.900000
0.003174 0.036708 0.882000
-0.001913 0.026240 0.884000
-0.007604 -0.034113 0.912000
-0.012747 -0.023024 0.904000
0.012046 -0.040559 0.922000
-0.007708 0.025788 0.881000
0.013432 -0.010101 0.913000
-0.015686 0.021437 0.881000
0.031955 0.016252 0.895000
-0.018328 0.008066 0.886000
-0.013756 -0.011401 0.897000
-0.011978 0.038217 0.875000
0.008962 -0.025242 0.917000
-0.018035 -0.037700 0.908000
-0.007554 -0.022329 0.906000
-0.017326 -0.055012 0.910000
-0.028958 -0.021416 0.899000
0.000633 0.031662 0.883000
0.007872 -0.035246 0.922000
-0.001186 0.025541 0.885000
-0.007537 -0.012234 0.904000
0.013717 0.004898 0.907000
-0.009985 0.005905 0.890000
-0.001984 -0.039961 0.917000
0.010050 -0.014234 0.913000
-0.009839 0.032529 0.877000
0.000279 -0.022452 0.911000
0.015001 -0.018826 0.917000
-0.016595 -0.044199 0.911000
0.018157 0.008612 0.905000
0.006704 -0.041138 0.918000
-0.027355 0.022883 0.895000
0.026294 0.016769 0.903000
-0.020106 0.032789 0.884000
-0.024693 -0.004362 0.892000
-0.021461 -0.016532 0.895000
-0.033212 -0.028605 0.904000
-0.033621 0.006749 0.905000
0.010138 -0.030659 0.921000
0.019865 0.024438 0.898000
0.030214 0.014459 0.898000
-0.007396 0.015012 0.887000
0.028059 0.022270 0.900000
-0.023539 0.003707 0.890000
-0.030135 -0.028881 0.901000
0.003174 0.036345 0.882000
0.010220 0.026567 0.895000
-0.032467 -0.034186 0.904000
0.007419 -0.017616 0.913000
0.005468 0.010428 0.901000
-0.018411 -0.003619 0.890000
0.035766 0.019071 0.889000
-0.031653 -0.014063 0.902000
0.032655 0.013658 0.894000
-0.020516 0.013536 0.886000
-0.017720 -0.043449 0.911000
-0.007980 -0.029984 0.912000
0.017784 0.008612 0.905000
-0.035975 -0.031347 0.908000
0.031991 0.011845 0.896000
0.008500 -0.000329 0.908000
-0.012402 -0.026058 0.906000
-0.008816 0.021486 0.883000
0.028090 0.015620 0.901000
-0.022844 -0.050296 0.906000
0.001365 0.028852 0.886000
-0.008956 -0.052750 0.897000
-0.008966 -0.000695 0.898000
-0.027386 -0.004012 0.896000
-0.025824 0.007762 0.893000
0.019189 0.017845 0.901000
0.007821 -0.024460 0.916000
0.036539 0.010301 0.890000
