-0.023301 0.011647 0.881000
0.011707 -0.005856 0.896000
0.022377 -0.009902 0.895000
0.013263 0.015204 0.877000
-0.018671 0.006236 0.885000
0.021374 0.035336 0.884000
0.033344 0.005495 0.883000
-0.010398 -0.001060 0.894000
-0.011976 -0.023344 0.902000
0.028703 -0.016569 0.897000
-0.015289 0.013068 0.879000
-0.033817 0.014910 0.881000
-0.010316 0.006980 0.887000
0.012153 0.024892 0.875000
0.021467 0.019805 0.873000
-0.038429 0.003695 0.887000
0.025898 0.030725 0.877000
0.022983 0.015907 0.876000
0.018547 -0.000322 0.888000
-0.035873 0.021218 0.887000
-0.045672 0.013643 0.893000
0.028943 -0.006939 0.893000
-0.022781 0.000410 0.889000
0.009896 -0.015126 0.899000
-0.043785 0.023540 0.892000
0.016133 0.027084 0.876000
0.029047 0.028821 0.874000
0.003980 -0.015513 0.900000
-0.052975 -0.006432 0.874000
0.033762 0.016609 0.875000
0.011110 0.012691 0.878000
-0.038175 -0.025340 0.907000
0.019169 0.034569 0.883000
0.014673 -0.017677 0.897000
0.025352 -0.011388 0.896000
0.031925 0.018029 0.874000
0.017332 0.007304 0.882000
-0.019920 -0.003627 0.892000
0.033287 0.020500 0.872000
-0.050420 0.005149 0.886000
0.022984 -0.002520 0.890000
0.024395 -0.029926 0.888000
-0.008491 0.006980 0.887000
-0.048232 0.006972 0.886000
-0.004073 0.012706 0.879000
0.020796 0.016609 0.875000
-0.023771 0.006236 0.885000
0.029412 0.007693 0.885000
-0.040345 0.001142 0.889000
0.002127 -0.013661 0.900000
-0.016523 0.026694 0.887000
-0.022909 -0.005475 0.894000
0.009033 0.034361 0.887000
0.017411 0.003326 0.886000
0.021326 0.006941 0.882000
-0.034895 0.023854 0.890000
-0.012733 -0.022627 0.903000
-0.014747 0.003341 0.890000
-0.002315 -0.009206 0.899000
-0.023986 0.030183 0.893000
-0.017156 0.009482 0.882000
0.022027 0.009471 0.881000
-0.017499 0.021437 0.881000
-0.028603 0.002602 0.888000
-0.024555 0.002964 0.887000
0.023867 0.032715 0.882000
0.017836 -0.001420 0.889000
-0.027653 0.012735 0.881000
0.036781 -0.000321 0.887000
0.028982 0.037113 0.883000
-0.030335 -0.025713 0.907000
-0.000455 0.025006 0.879000
0.043499 -0.004718 0.890000
-0.026514 -0.019303 0.904000
0.026222 0.001506 0.888000
0.016813 -0.005101 0.893000
-0.017040 -0.007323 0.895000
-0.014093 -0.002534 0.895000
-0.010328 0.006257 0.888000
0.009515 -0.009565 0.898000
0.016168 -0.014000 0.898000
0.036978 0.005858 0.883000
-0.028079 0.009493 0.883000
-0.037593 -0.017404 0.902000
-0.011830 0.031582 0.891000
0.020374 0.000044 0.888000
0.010254 -0.008456 0.898000
-0.031302 0.025376 0.892000
0.027576 0.019446 0.873000
-0.014548 0.017389 0.878000
-0.012620 -0.002166 0.895000
-0.016793 0.009119 0.882000
0.013167 -0.004376 0.895000
0.007849 0.014482 0.877000
0.002445 0.010559 0.881000
0.027766 0.011620 0.879000
-0.005882 0.012706 0.879000
0.009156 -0.015866 0.899000
-0.019675 0.010559 0.881000
0.012472 -0.016588 0.898000
0.029412 -0.029461 0.885000
-0.038794 0.004790 0.887000
0.027596 -0.012139 0.897000
0.034200 0.033251 0.877000
-0.007735 0.008048 0.884000
0.032215 -0.005830 0.892000
0.002833 0.034438 0.889000
-0.040209 0.018641 0.886000
0.025204 0.031844 0.878000
-0.031811 -0.004012 0.896000
0.002125 -0.019566 0.899000
0.018934 -0.001420 0.889000
-0.039301 0.011297 0.882000
0.027166 -0.019111 0.895000
0.013520 -0.002899 0.894000
0.021422 0.037604 0.886000
-0.018024 0.001142 0.889000
0.042670 -0.001053 0.888000
0.047088 0.010847 0.875000
0.037071 -0.008787 0.894000
-0.001209 -0.022973 0.902000
-0.032989 0.002237 0.888000
0.025061 0.020165 0.873000
0.027653 -0.026607 0.887000
-0.000454 0.015204 0.877000
0.025032 0.023372 0.872000
-0.020354 0.016685 0.879000
-0.017526 -0.015901 0.901000
0.034629 0.000044 0.888000
-0.014896 -0.012536 0.899000
0.041761 -0.010236 0.892000
-0.026410 0.024897 0.888000
-0.028429 -0.001796 0.894000
0.006390 0.018770 0.875000
0.007667 -0.018066 0.898000
0.031565 0.018029 0.874000
-0.018907 0.015238 0.879000
0.047626 0.000772 0.885000
-0.027202 0.026418 0.890000
-0.021725 -0.021956 0.906000
-0.021464 0.018515 0.880000
0.024002 0.001504 0.887000
0.023983 0.025554 0.873000
-0.018287 -0.016662 0.902000
-0.014978 0.009845 0.882000
0.007479 0.016628 0.876000
0.017874 0.023758 0.873000
-0.051149 0.004420 0.886000
-0.006407 -0.018518 0.902000
-0.011949 -0.009957 0.900000
-0.020121 -0.015160 0.901000
-0.016024 -0.014772 0.900000
-0.007362 0.008402 0.883000
0.020397 -0.002151 0.889000
0.024093 0.014121 0.877000
-0.044736 0.001507 0.889000
-0.030739 -0.005124 0.897000
-0.028990 -0.008475 0.900000
0.033608 0.022269 0.871000
0.027871 -0.008419 0.894000
-0.020951 0.027486 0.889000
0.026259 0.014482 0.877000
-0.034138 -0.011426 0.899000
0.035685 0.011969 0.878000
0.032509 -0.020836 0.890000
0.027809 -0.005096 0.892000
-0.034366 -0.019324 0.905000
-0.023121 0.025993 0.888000
0.017431 0.037281 0.887000
0.024760 -0.026271 0.888000
0.043635 0.012691 0.878000
0.034842 0.016609 0.875000
0.024816 -0.003253 0.890000
0.023786 0.011982 0.879000
-0.044152 -0.001792 0.892000
0.027591 0.008421 0.885000
0.021827 0.024836 0.873000
-0.036603 0.020853 0.887000
-0.029425 -0.011464 0.902000
0.012888 0.026363 0.876000
0.003170 0.027239 0.881000
0.015640 0.000776 0.889000
-0.043707 0.010946 0.883000
-0.037222 -0.024458 0.902000
-0.002629 0.011634 0.880000
-0.012733 -0.025600 0.903000
-0.008846 0.007337 0.886000
-0.048906 -0.011248 0.885000
0.036210 0.006941 0.882000
-0.004835 0.007702 0.886000
-0.013786 -0.011056 0.899000
0.032532 0.021194 0.871000
-0.002652 0.032206 0.888000
0.034495 -0.008787 0.894000
-0.051351 -0.008981 0.877000
0.029406 0.018029 0.874000
-0.008996 -0.015901 0.901000
0.027404 0.032965 0.879000
-0.009716 -0.008096 0.899000
-0.033530 0.009129 0.883000
0.018505 0.036510 0.886000
0.005017 0.006250 0.887000
0.032543 0.036304 0.881000
0.008766 -0.019523 0.897000
-0.036116 0.026140 0.893000
0.016796 0.021242 0.873000
-0.025086 0.014893 0.880000
-0.045305 0.022832 0.893000
-0.011296 0.018473 0.878000
0.022077 0.006222 0.883000
-0.031372 0.028377 0.894000
-0.027111 0.002964 0.887000
0.020237 0.007667 0.882000
0.022907 0.000774 0.887000
0.032323 -0.009902 0.895000
0.005735 0.009150 0.885000
-0.041077 -0.011031 0.897000
-0.039318 -0.020676 0.899000
0.030881 0.030655 0.875000
-0.037460 0.000044 0.890000
-0.032729 0.013460 0.881000
0.013233 0.024892 0.875000
0.000276 -0.018126 0.901000
0.042551 0.011607 0.878000
-0.043077 0.006964 0.885000
-0.016579 0.001875 0.890000
0.020627 -0.016976 0.899000
-0.004064 0.021701 0.877000
-0.036397 0.013112 0.882000
0.034083 0.030260 0.874000
-0.010444 -0.007348 0.898000
-0.001575 -0.022156 0.899000
-0.025314 0.001506 0.888000
0.048084 -0.007451 0.867000
-0.014365 0.004069 0.889000
-0.052315 -0.006079 0.875000
-0.017956 -0.019303 0.904000
0.009156 -0.009946 0.899000
-0.036397 0.010571 0.882000
-0.009748 -0.024458 0.902000
0.001716 0.011982 0.879000
0.018317 0.028198 0.877000
0.012513 0.024892 0.875000
0.010060 0.029777 0.881000
0.007676 -0.016606 0.899000
-0.027288 -0.020442 0.905000
0.014256 -0.003267 0.894000
-0.025089 -0.003999 0.893000
-0.022601 0.021098 0.882000
0.025886 -0.025203 0.889000
0.041440 -0.013923 0.893000
0.021877 0.016249 0.875000
0.031962 0.005143 0.885000
0.015916 0.005137 0.884000
-0.013416 -0.012536 0.899000
-0.027294 0.029447 0.893000
0.007676 -0.017346 0.899000
-0.019057 0.025570 0.886000
0.026498 0.006964 0.885000
-0.001579 -0.012564 0.901000
0.028018 0.005155 0.887000
0.018233 0.019446 0.873000
-0.022844 -0.024193 0.906000
0.009013 0.008421 0.885000
-0.051878 0.002232 0.886000
0.039602 -0.012085 0.893000
-0.034762 -0.008069 0.896000
-0.031723 -0.018931 0.904000
-0.003736 0.008421 0.885000
0.021129 0.033340 0.889000
0.016873 0.027837 0.877000
0.018785 0.008030 0.882000
0.020389 0.025195 0.873000
-0.046091 -0.006211 0.894000
0.009687 0.028657 0.880000
-0.036809 -0.002893 0.892000
0.012827 -0.008447 0.897000
-0.018903 -0.008438 0.896000
0.026797 -0.019479 0.895000
-0.042253 0.010583 0.883000
-0.022935 -0.007323 0.895000
-0.006620 0.010559 0.881000
-0.042091 0.026567 0.895000
-0.044484 0.008048 0.884000
-0.017564 -0.018538 0.903000
0.034083 0.030979 0.874000
0.003239 -0.015513 0.900000
0.008972 0.029052 0.881000
-0.022025 -0.017423 0.903000
-0.029934 -0.001798 0.895000
-0.020354 0.014153 0.879000
-0.017350 -0.002526 0.892000
-0.038407 0.027303 0.895000
0.006390 0.022732 0.875000
0.013211 -0.014740 0.898000
0.014774 0.009471 0.881000
-0.029632 -0.004017 0.897000
-0.010609 0.010922 0.881000
0.046429 -0.005084 0.890000
-0.041163 0.012400 0.883000
-0.029334 0.002968 0.888000
-0.011221 -0.015531 0.901000
0.029440 0.029934 0.875000
-0.017155 -0.015531 0.901000
0.029766 0.029540 0.874000
0.036374 0.001138 0.886000
0.026797 -0.010270 0.895000
-0.046044 0.007702 0.886000
-0.010778 -0.002903 0.895000
0.011733 -0.008826 0.898000
-0.048596 0.006608 0.886000
-0.042954 0.021290 0.890000
-0.024147 -0.011796 0.899000
-0.015029 0.005872 0.885000
-0.002981 0.017369 0.877000
-0.031178 -0.008096 0.899000
0.006044 0.014843 0.877000
0.026711 0.033727 0.880000
-0.042980 0.010220 0.883000
0.026771 0.035619 0.882000
0.013795 0.003699 0.888000
0.014065 0.008393 0.882000
-0.006407 -0.021117 0.902000
0.027186 0.025525 0.872000
-0.036358 -0.011426 0.899000
0.025211 -0.004357 0.891000
0.004589 0.019851 0.875000
0.025290 0.034491 0.881000
-0.019653 0.018877 0.880000
-0.022743 -0.017033 0.902000
0.027702 0.013760 0.877000
-0.008776 0.021750 0.879000
0.035964 0.014465 0.876000
0.010266 -0.014016 0.899000
-0.040384 -0.011783 0.898000
0.012713 0.003703 0.889000
0.029745 -0.018374 0.895000
-0.024920 0.024869 0.887000
-0.012704 -0.014789 0.901000
0.017956 0.014482 0.877000
0.023141 0.008393 0.882000
0.027565 -0.018026 0.896000
-0.039668 -0.023473 0.907000
-0.030268 -0.020069 0.905000
-0.015323 0.011284 0.881000
0.007676 -0.014016 0.899000
-0.051034 -0.003231 0.884000
0.034785 -0.006564 0.892000
0.024928 0.033766 0.881000
-0.018044 0.000410 0.890000
0.001353 0.013775 0.878000
0.023010 -0.025260 0.891000
0.018284 -0.006204 0.893000
-0.010433 -0.005494 0.897000
-0.002638 0.028027 0.883000
0.022033 -0.020976 0.896000
-0.044004 0.020168 0.889000
0.000628 0.020955 0.876000
0.029409 -0.011019 0.896000
-0.049803 0.001871 0.888000
-0.002981 0.015925 0.877000
-0.016907 0.003333 0.888000
-0.000818 0.011271 0.880000
-0.005311 -0.024167 0.905000
-0.025564 0.021510 0.884000
0.039558 -0.006197 0.892000
-0.035248 -0.011796 0.899000
-0.015686 0.011284 0.881000
0.049474 -0.009363 0.879000
0.034842 0.015529 0.875000
0.015447 0.013775 0.878000
-0.016542 0.027455 0.888000
0.003980 -0.018106 0.900000
0.028654 0.019446 0.873000
-0.037263 -0.019653 0.903000
0.007159 0.010559 0.881000
0.046011 -0.008372 0.889000
0.008388 -0.005119 0.896000
-0.027352 0.020032 0.883000
-0.040757 0.000044 0.890000
-0.048341 -0.010555 0.888000
-0.029103 0.011284 0.881000
0.003163 0.013068 0.879000
-0.044534 0.010971 0.885000
0.020773 0.018749 0.874000
0.006030 0.021651 0.875000
0.041027 -0.008767 0.892000
-0.002287 0.032572 0.888000
-0.054063 -0.000319 0.880000
0.033554 0.035136 0.879000
0.030005 0.035579 0.881000
-0.041400 0.027703 0.896000
-0.035994 0.024220 0.890000
-0.047717 -0.010213 0.890000
0.023264 0.020524 0.873000
0.036703 -0.015042 0.894000
-0.018183 0.018132 0.879000
0.029440 0.015889 0.875000
-0.019014 0.007684 0.884000
-0.053096 0.002222 0.882000
0.002821 0.008786 0.885000
-0.043344 0.012037 0.883000
0.018609 -0.003623 0.891000
0.004715 -0.018826 0.899000
0.019511 0.007667 0.882000
-0.041855 0.000044 0.890000
-0.033092 0.015273 0.881000
-0.020933 -0.019675 0.904000
-0.021950 0.005872 0.885000
0.001351 0.015925 0.877000
-0.011817 0.004073 0.890000
0.030333 0.034452 0.880000
-0.008227 -0.007348 0.898000
0.033721 -0.007307 0.893000
0.024257 0.007312 0.883000
-0.001895 0.017349 0.876000
-0.028806 0.008402 0.883000
0.025520 -0.001786 0.889000
-0.031039 -0.002534 0.895000
-0.043785 0.023173 0.892000
-0.006620 0.024701 0.881000
-0.006400 -0.022206 0.901000
0.000996 0.027996 0.882000
-0.023354 0.009129 0.883000
-0.002282 0.029946 0.886000
-0.041890 0.009493 0.883000
0.034902 -0.010638 0.895000
0.009023 0.033957 0.886000
0.008942 0.013053 0.878000
-0.054116 -0.005359 0.875000
0.016556 -0.015866 0.899000
0.019517 -0.016606 0.899000
-0.037010 0.003333 0.888000
0.026459 -0.018763 0.896000
-0.014559 -0.015531 0.901000
0.039433 0.007658 0.881000
-0.012592 -0.000323 0.893000
-0.009128 0.020280 0.878000
0.034473 0.004774 0.884000
-0.005164 0.023948 0.880000
0.008921 0.016268 0.876000
0.013218 0.022706 0.874000
-0.023932 0.028281 0.891000
0.027622 -0.026941 0.886000
0.005376 0.032499 0.886000
0.018714 -0.011019 0.896000
-0.003800 -0.010327 0.900000
0.047422 -0.003246 0.888000
0.027734 0.012330 0.878000
-0.034945 0.015653 0.882000
-0.049326 0.006972 0.886000
0.029970 0.034452 0.880000
0.001710 0.019873 0.876000
-0.022314 0.006600 0.885000
-0.018204 0.019240 0.880000
0.024312 0.004415 0.885000
0.026199 0.015889 0.875000
-0.008080 0.009482 0.882000
0.010106 0.008057 0.885000
-0.016060 -0.016662 0.902000
-0.016374 0.018856 0.879000
-0.024693 0.028680 0.892000
0.025750 0.022654 0.872000
-0.025314 0.024897 0.888000
0.032358 0.031771 0.876000
0.028113 0.001143 0.890000
0.032728 -0.012125 0.896000
0.006099 0.031733 0.885000
-0.054288 -0.014156 0.908000
-0.015283 -0.013661 0.900000
0.022623 0.028887 0.876000
-0.007039 0.030379 0.888000
-0.035508 0.021583 0.887000
-0.033455 0.013822 0.881000
-0.013401 -0.007717 0.898000
-0.053456 -0.003923 0.876000
-0.002264 0.024283 0.879000
0.032831 0.034774 0.879000
-0.036843 0.017872 0.884000
0.014543 0.002239 0.889000
0.003178 0.009493 0.883000
0.003980 -0.010698 0.900000
0.025126 0.000044 0.888000
-0.048232 0.005514 0.886000
0.027217 0.019446 0.873000
0.000269 0.026514 0.881000
-0.013386 -0.006232 0.897000
0.021836 -0.000322 0.888000
0.003242 -0.021835 0.901000
-0.024780 0.009482 0.882000
0.024340 0.038333 0.886000
0.047974 -0.002805 0.865000
-0.026171 -0.019697 0.905000
0.027955 0.008786 0.885000
-0.034404 -0.023820 0.906000
-0.023909 -0.018931 0.904000
0.029379 0.009140 0.884000
0.025868 0.015547 0.876000
0.047753 0.010115 0.874000
0.034679 0.009460 0.880000
-0.013103 0.014498 0.878000
0.001354 0.011982 0.879000
0.034341 -0.020103 0.890000
0.030413 -0.007674 0.893000
-0.020904 0.002964 0.887000
-0.002256 0.017710 0.876000
0.030079 -0.009155 0.894000
0.034482 0.016609 0.875000
0.015189 0.005865 0.884000
-0.021878 -0.009924 0.897000
0.036172 -0.003619 0.890000
-0.019787 0.004055 0.886000
-0.015198 -0.004008 0.895000
-0.009850 0.015582 0.878000
-0.034945 0.012386 0.882000
0.015429 -0.016218 0.898000
0.001016 -0.018847 0.900000
0.031218 -0.029793 0.895000
0.035685 0.000774 0.887000
-0.053334 -0.008950 0.874000
-0.039291 0.000044 0.890000
0.035888 0.005132 0.883000
-0.020037 0.010559 0.881000
0.025233 0.011259 0.879000
-0.007329 0.013429 0.879000
0.034719 0.008383 0.881000
0.026857 -0.017677 0.897000
0.000628 0.017710 0.876000
0.025664 -0.008419 0.894000
-0.012320 -0.010698 0.900000
0.022675 0.012691 0.878000
0.040751 0.000773 0.886000
0.030974 -0.023713 0.888000
-0.009367 -0.013306 0.901000
-0.027507 0.001871 0.888000
0.012139 0.021267 0.874000
0.030781 -0.003264 0.893000
-0.005205 0.029980 0.887000
0.043834 0.006215 0.882000
0.047003 -0.001051 0.887000
-0.035150 -0.021956 0.906000
0.042081 -0.005090 0.891000
0.047261 -0.000669 0.865000
0.030379 -0.000690 0.892000
-0.011347 0.009845 0.882000
-0.008644 -0.020397 0.903000
-0.040799 0.011310 0.883000
0.008256 0.009845 0.882000
-0.016983 -0.001792 0.892000
0.000633 0.009845 0.882000
-0.022148 -0.003999 0.893000
-0.023999 0.013807 0.880000
-0.033843 -0.014047 0.901000
-0.041400 -0.008438 0.896000
0.030416 0.027319 0.872000
-0.033956 -0.018187 0.904000
0.020122 0.014121 0.877000
-0.035103 0.005514 0.886000
0.028947 0.022986 0.871000
0.015736 0.024145 0.874000
-0.039747 -0.002893 0.892000
0.035846 -0.020859 0.891000
0.045178 -0.000686 0.887000
-0.027349 -0.025713 0.907000
-0.012422 0.023250 0.881000
0.037481 -0.011375 0.895000
0.034005 0.019424 0.872000
0.020214 0.009109 0.881000
0.036005 0.012677 0.877000
0.004350 -0.015143 0.900000
0.046781 0.010499 0.876000
0.029776 -0.029096 0.885000
0.024621 0.008402 0.883000
0.035283 0.013760 0.877000
-0.031386 -0.020069 0.905000
0.006099 0.008786 0.885000
0.030379 -0.001424 0.892000
0.029745 -0.018006 0.895000
-0.028378 0.013822 0.881000
0.017956 0.028559 0.877000
-0.023303 -0.007323 0.895000
0.013578 0.022706 0.874000
0.032582 -0.006197 0.892000
0.023651 0.027742 0.874000
-0.045254 0.022439 0.892000
0.022427 -0.019892 0.897000
0.029412 0.039018 0.885000
-0.033472 -0.014789 0.901000
-0.013495 0.012358 0.880000
0.031657 -0.015462 0.897000
-0.015480 0.002242 0.890000
-0.027383 0.007684 0.884000
-0.033317 0.003695 0.887000
0.010254 -0.013261 0.898000
0.030113 -0.009902 0.895000
0.010612 -0.007339 0.897000
-0.021903 -0.011783 0.898000
-0.017976 -0.021187 0.905000
-0.034393 -0.007331 0.896000
0.033193 0.034413 0.879000
-0.042954 0.022022 0.890000
-0.032844 -0.001796 0.894000
-0.047867 0.005878 0.886000
-0.040753 -0.018805 0.898000
-0.003383 0.006257 0.888000
-0.016358 -0.011783 0.898000
-0.024281 -0.018559 0.904000
0.022058 -0.012877 0.897000
-0.051091 -0.001778 0.885000
-0.009169 0.024366 0.882000
-0.004845 0.031110 0.888000
-0.025426 -0.020069 0.905000
-0.007778 0.004435 0.889000
0.004950 0.019851 0.875000
0.045442 0.010884 0.878000
0.016815 0.024864 0.874000
0.018952 0.024117 0.873000
0.001014 -0.008087 0.898000
-0.011296 0.017750 0.878000
0.014320 -0.015109 0.898000
0.024670 -0.014370 0.898000
-0.049159 -0.011586 0.883000
-0.014462 -0.004376 0.895000
0.032582 -0.019047 0.892000
0.037313 -0.005457 0.891000
-0.014268 0.024030 0.883000
0.009885 -0.016588 0.898000
-0.044887 -0.010603 0.892000
0.020413 0.025943 0.874000
-0.046670 -0.000323 0.891000
0.014657 -0.007700 0.896000
0.047231 0.000760 0.871000
0.017352 0.032389 0.883000
-0.008062 0.023224 0.880000
-0.004110 0.007345 0.887000
0.012613 0.031263 0.882000
0.004600 0.023866 0.877000
-0.009521 0.010922 0.881000
-0.031317 -0.017795 0.903000
0.043133 -0.003985 0.890000
0.009742 0.033190 0.885000
-0.031513 -0.006608 0.898000
0.034534 -0.010270 0.895000
-0.048651 -0.009448 0.887000
0.029612 -0.000323 0.891000
0.001353 0.014498 0.878000
0.006565 -0.011796 0.899000
0.030987 0.032928 0.878000
-0.011817 0.031180 0.890000
0.008972 0.009834 0.881000
-0.020265 -0.002156 0.891000
-0.040938 0.005878 0.886000
-0.044619 -0.008419 0.894000
0.049740 -0.007485 0.871000
-0.048137 -0.007657 0.891000
0.003152 0.016628 0.876000
-0.035671 0.013112 0.882000
0.023690 -0.001786 0.889000
-0.033817 0.013822 0.881000
-0.043883 0.024697 0.894000
0.022102 0.033517 0.884000
0.029936 0.010897 0.879000
-0.033468 0.000411 0.891000
-0.005176 0.009845 0.882000
0.006106 0.033228 0.886000
-0.020840 -0.014402 0.900000
0.042793 0.004768 0.883000
-0.038881 0.022364 0.889000
-0.034839 -0.009935 0.898000
0.024203 0.034128 0.881000
-0.017231 -0.021932 0.905000
-0.035792 0.006600 0.885000
-0.046773 0.006243 0.886000
0.021082 0.000774 0.887000
0.006750 0.018410 0.875000
0.030381 0.025854 0.871000
0.047753 0.009756 0.874000
-0.018308 -0.017423 0.903000
-0.011184 -0.006239 0.898000
-0.010790 -0.004381 0.896000
-0.020377 0.018515 0.880000
-0.028732 -0.000323 0.892000
0.034083 0.017670 0.874000
-0.030876 -0.012193 0.901000
-0.032587 0.003695 0.887000
-0.023165 -0.019303 0.904000
-0.019072 -0.025256 0.904000
0.047644 0.007939 0.872000
0.021108 0.019805 0.873000
-0.034031 -0.022702 0.906000
-0.038992 -0.013661 0.900000
-0.011221 -0.014418 0.901000
-0.015351 -0.026372 0.904000
-0.034684 -0.004371 0.894000
0.027350 0.001507 0.889000
0.031673 0.013038 0.877000
-0.027998 0.028313 0.892000
0.032247 0.019087 0.873000
0.008911 0.023092 0.875000
0.003239 -0.014032 0.900000
-0.002629 0.010909 0.880000
0.016873 0.028559 0.877000
-0.011949 -0.012920 0.900000
0.027778 -0.023059 0.891000
-0.001906 0.026151 0.881000
0.013197 -0.017308 0.897000
0.047109 -0.005445 0.889000
-0.005182 0.026937 0.883000
-0.049964 -0.013689 0.878000
0.033707 0.005858 0.883000
-0.040436 0.009129 0.883000
0.012642 0.007320 0.884000
0.025434 0.002961 0.886000
0.021519 -0.002520 0.890000
0.015790 0.014121 0.877000
-0.023017 0.007320 0.884000
-0.042617 0.013854 0.883000
-0.014172 -0.014772 0.900000
0.036213 -0.005457 0.891000
-0.042253 0.010946 0.883000
0.029844 -0.014370 0.898000
-0.034366 -0.027519 0.905000
0.038576 0.011607 0.878000
-0.003724 0.026544 0.882000
0.007831 0.017690 0.875000
0.031741 0.001507 0.889000
0.019126 0.008383 0.881000
-0.040799 0.014217 0.883000
0.027892 0.036386 0.883000
0.011941 0.006608 0.886000
-0.008776 0.022112 0.879000
0.004715 -0.013646 0.899000
-0.049660 -0.015875 0.879000
-0.028174 0.005514 0.886000
-0.008254 -0.010710 0.901000
-0.011502 -0.001796 0.894000
-0.008144 0.004435 0.889000
0.011485 0.012344 0.879000
0.045960 -0.009459 0.888000
0.019334 0.018029 0.874000
0.015068 0.027476 0.877000
0.008668 0.006615 0.887000
0.044509 0.007658 0.881000
0.001387 -0.011068 0.900000
0.013795 0.004064 0.888000
0.012902 0.014482 0.877000
0.027797 0.033727 0.880000
-0.051527 -0.005389 0.880000
0.007565 0.008431 0.886000
0.010209 -0.000692 0.894000
0.012102 -0.012892 0.898000
0.005310 0.020931 0.875000
-0.013357 -0.003271 0.895000
-0.049159 -0.011949 0.883000
-0.014268 0.008039 0.883000
-0.031350 0.018942 0.883000
-0.027447 -0.006608 0.898000
0.047101 0.004037 0.882000
0.039558 -0.006564 0.892000
-0.027971 -0.014078 0.903000
-0.011171 -0.005863 0.897000
-0.020817 -0.012906 0.899000
-0.045937 -0.011324 0.891000
-0.027349 -0.022353 0.907000
-0.028280 -0.010339 0.901000
-0.035150 -0.023075 0.906000
0.013937 0.019828 0.874000
0.040930 0.006941 0.882000
-0.042827 -0.009533 0.895000
0.019365 -0.005830 0.892000
-0.025477 0.012372 0.881000
-0.029633 0.004784 0.886000
-0.015706 -0.018538 0.903000
0.003549 0.031369 0.885000
-0.024572 -0.014418 0.901000
-0.024599 -0.016662 0.902000
-0.038472 0.020876 0.888000
-0.015741 -0.021187 0.905000
0.045697 -0.004718 0.890000
0.008037 -0.020284 0.898000
-0.012747 -0.021907 0.904000
0.017874 0.023039 0.873000
0.004955 0.022037 0.876000
0.014113 0.005507 0.885000
-0.025713 -0.015177 0.902000
-0.047142 -0.008409 0.893000
0.045337 0.005132 0.883000
-0.013648 0.003707 0.890000
-0.012019 0.014859 0.878000
-0.046461 0.004060 0.887000
0.038258 0.012344 0.879000
0.045645 -0.010567 0.889000
-0.003707 0.022448 0.878000
0.046950 0.000408 0.886000
0.009547 -0.020351 0.901000
-0.016869 0.025935 0.886000
-0.043418 0.023173 0.892000
-0.012046 0.012358 0.880000
0.010037 0.012344 0.879000
0.020076 -0.004723 0.891000
0.028575 -0.007307 0.893000
0.022352 -0.022033 0.894000
-0.013103 0.014859 0.878000
0.002434 0.023145 0.877000
-0.038818 0.028440 0.896000
0.018317 0.028559 0.877000
0.038198 0.001867 0.886000
0.024395 0.000409 0.888000
-0.005146 0.019896 0.877000
-0.045314 0.005878 0.886000
0.011793 0.018410 0.875000
0.008551 0.017330 0.875000
-0.052735 -0.004283 0.876000
0.038693 -0.003249 0.889000
-0.053755 -0.008240 0.875000
0.001350 0.017349 0.876000
0.026468 0.024089 0.872000
-0.027383 0.020782 0.884000
-0.005217 0.005166 0.889000
-0.017479 0.020326 0.880000
-0.027228 -0.015937 0.903000
-0.016821 -0.025228 0.903000
-0.031212 -0.009957 0.900000
0.010737 0.014482 0.877000
0.004258 0.027601 0.881000
0.019577 0.033190 0.885000
0.027778 -0.022326 0.891000
-0.022415 0.000410 0.889000
-0.032295 0.001507 0.889000
-0.028715 -0.014078 0.903000
-0.010212 0.018835 0.878000
-0.030554 0.012009 0.881000
0.043206 0.004046 0.884000
0.015017 0.022346 0.874000
0.015034 0.016609 0.875000
0.029676 0.036345 0.882000
-0.007512 -0.023318 0.901000
0.008219 0.013775 0.878000
-0.035697 -0.014418 0.901000
-0.002649 0.006980 0.887000
0.030746 -0.004729 0.892000
0.024872 -0.005830 0.892000
-0.021293 0.001506 0.888000
-0.001558 0.033340 0.889000
0.020796 0.016970 0.875000
0.014690 -0.016218 0.898000
0.023596 0.023013 0.872000
-0.034974 0.026110 0.892000
-0.020054 -0.010674 0.898000
-0.008529 0.033049 0.891000
0.008590 0.027177 0.879000
-0.044004 0.020534 0.889000
-0.025882 -0.005850 0.895000
-0.022653 0.022602 0.884000
0.034902 -0.009902 0.895000
0.043372 0.009098 0.880000
-0.008986 -0.010327 0.900000
0.029105 -0.013631 0.898000
0.036698 0.002593 0.885000
0.033428 -0.010638 0.895000
-0.004485 0.004801 0.889000
-0.018085 -0.002526 0.892000
-0.038619 0.009129 0.883000
-0.044937 0.023567 0.893000
-0.025766 -0.001423 0.891000
0.046691 -0.010190 0.888000
0.006398 0.016268 0.876000
-0.042091 -0.015059 0.895000
-0.009489 0.015944 0.878000
-0.040572 0.025801 0.894000
-0.024752 0.018536 0.881000
0.043884 0.004768 0.883000
-0.012535 0.005166 0.889000
0.043668 0.001502 0.886000
-0.010874 -0.021883 0.903000
-0.014995 0.023666 0.883000
-0.040384 -0.015479 0.898000
-0.020608 0.028616 0.890000
0.010482 0.034322 0.886000
-0.024217 0.025262 0.888000
-0.016176 0.028186 0.888000
0.018463 0.034972 0.884000
0.005819 -0.020284 0.898000
0.030379 -0.020148 0.892000
0.047141 0.011941 0.876000
-0.018535 -0.009175 0.896000
-0.006771 -0.014418 0.901000
0.029676 0.009482 0.882000
-0.045723 -0.004739 0.894000
-0.026927 -0.003264 0.893000
0.043499 -0.011678 0.890000
-0.011592 -0.024060 0.901000
0.007658 -0.005863 0.897000
-0.037016 -0.008816 0.897000
0.032582 -0.003994 0.892000
0.014673 -0.019154 0.897000
0.049740 -0.008561 0.871000
-0.042761 0.005514 0.886000
-0.011463 0.001878 0.891000
-0.038706 0.007329 0.885000
0.004229 0.019130 0.875000
0.038911 -0.016882 0.894000
0.045132 0.010173 0.879000
-0.033971 0.020077 0.885000
0.013309 0.029381 0.880000
-0.022049 -0.018931 0.904000
0.021827 0.020883 0.873000
0.032395 0.013760 0.877000
-0.000455 0.013068 0.879000
-0.038299 0.017872 0.884000
0.023141 0.033804 0.882000
-0.021101 0.017791 0.880000
0.026887 -0.014740 0.898000
0.005812 -0.019892 0.897000
0.047948 0.006854 0.871000
0.011537 0.032025 0.883000
0.021248 -0.008419 0.894000
0.031455 0.008746 0.881000
-0.017479 0.012358 0.880000
0.006936 -0.010686 0.899000
-0.024272 0.027517 0.890000
-0.048029 -0.010567 0.889000
-0.048191 -0.003627 0.892000
0.007513 0.027932 0.880000
0.014674 0.017330 0.875000
-0.019444 0.003695 0.887000
0.033898 -0.000322 0.888000
-0.036801 0.009493 0.883000
-0.010984 0.024366 0.882000
-0.013710 -0.001428 0.894000
-0.031641 0.016361 0.881000
-0.018608 0.010208 0.882000
-0.005287 -0.021093 0.901000
-0.037880 -0.012550 0.900000
-0.000837 -0.015531 0.901000
-0.009543 0.008766 0.883000
-0.015989 -0.011044 0.898000
0.023403 -0.006197 0.892000
0.024327 -0.016606 0.899000
-0.008034 0.016647 0.877000
-0.006658 0.028852 0.886000
-0.017273 0.027455 0.888000
0.016188 0.029348 0.879000
-0.035737 -0.016290 0.902000
-0.011233 -0.025200 0.902000
0.001004 0.034072 0.889000
0.044182 -0.011299 0.889000
-0.016285 -0.004739 0.894000
-0.019290 0.012720 0.880000
0.028735 -0.014740 0.898000
-0.012974 -0.001796 0.894000
-0.035671 0.014564 0.882000
-0.009963 0.029648 0.888000
0.010834 0.033190 0.885000
0.032107 0.034774 0.879000
0.003609 -0.016995 0.900000
-0.046775 -0.003631 0.893000
-0.022390 0.026359 0.888000
-0.037385 -0.008816 0.897000
0.024395 -0.000687 0.888000
0.002434 0.015564 0.877000
0.024956 0.008756 0.882000
-0.010491 -0.016662 0.902000
-0.054066 0.005184 0.892000
0.031456 0.021552 0.871000
-0.011335 0.010922 0.881000
-0.011109 0.001513 0.892000
-0.014235 -0.019303 0.904000
-0.044635 0.018663 0.887000
-0.041256 0.006964 0.885000
0.018651 -0.005837 0.893000
-0.016340 -0.009924 0.897000
-0.027141 0.002602 0.888000
-0.004922 -0.016290 0.902000
-0.006244 0.012706 0.879000
-0.023999 0.015618 0.880000
0.011173 0.008402 0.883000
-0.026957 0.029848 0.894000
0.006182 -0.019523 0.897000
0.040204 0.005852 0.882000
0.035644 0.013760 0.877000
-0.006407 -0.016662 0.902000
0.048417 0.009385 0.873000
-0.033509 -0.015919 0.902000
-0.000465 -0.006986 0.899000
0.007216 0.035130 0.888000
0.015154 0.007667 0.882000
0.013873 -0.001426 0.893000
0.028621 0.025884 0.872000
-0.042174 0.001873 0.889000
-0.046199 0.001873 0.889000
-0.037135 0.024247 0.891000
-0.018907 0.013791 0.879000
-0.018861 -0.006579 0.894000
0.025409 -0.014000 0.898000
0.002467 0.034438 0.889000
0.024065 0.015186 0.876000
-0.047663 0.001873 0.889000
-0.028764 0.028345 0.893000
-0.042459 -0.009165 0.895000
0.035766 -0.024471 0.889000
0.021495 -0.001786 0.889000
0.028457 0.032567 0.878000
0.032210 0.027319 0.872000
0.004345 -0.013276 0.899000
-0.003703 0.015564 0.877000
0.010003 0.024921 0.876000
-0.048740 -0.014477 0.882000
0.029709 0.009129 0.883000
0.010340 0.021267 0.874000
-0.030259 0.008766 0.883000
0.026193 0.002964 0.887000
0.027227 -0.018046 0.897000
0.018742 0.010185 0.880000
0.036091 -0.000687 0.888000
0.032359 -0.012125 0.896000
0.013888 -0.003635 0.894000
0.034379 -0.003256 0.891000
0.016969 0.008393 0.882000
-0.049072 0.002602 0.888000
0.019517 -0.015496 0.899000
-0.028442 0.009129 0.883000
0.022008 -0.021689 0.895000
-0.027325 -0.003635 0.894000
0.015043 -0.010662 0.897000
0.039235 -0.015393 0.893000
0.010712 0.023452 0.875000
-0.024723 0.015618 0.880000
-0.025564 0.007684 0.884000
0.047315 0.000408 0.886000
-0.018798 -0.001423 0.891000
0.015781 -0.012508 0.897000
-0.014559 -0.015160 0.901000
0.015085 0.028953 0.878000
-0.010597 0.022862 0.880000
0.002094 0.008431 0.886000
-0.039247 0.001873 0.889000
0.029612 -0.021959 0.891000
-0.024721 0.029815 0.893000
-0.013904 0.008766 0.883000
0.008191 0.020211 0.875000
-0.003357 0.010196 0.881000
0.023036 -0.005096 0.892000
0.037071 -0.015042 0.894000
-0.006763 -0.009587 0.900000
-0.000095 -0.011451 0.901000
-0.033843 -0.014418 0.901000
-0.024666 0.027915 0.891000
0.013566 -0.017308 0.897000
0.034824 -0.007307 0.893000
-0.049326 0.006243 0.886000
0.015916 0.005865 0.884000
-0.035262 0.000777 0.890000
0.010186 0.000044 0.892000
0.007471 0.017690 0.875000
0.041608 0.008021 0.881000
-0.038881 0.001142 0.889000
-0.026655 0.021146 0.884000
0.031092 0.009109 0.881000
-0.012375 -0.020791 0.904000
-0.029466 0.014910 0.881000
-0.018950 0.021075 0.881000
-0.023664 0.018536 0.881000
0.002092 0.008786 0.885000
0.025986 0.033727 0.880000
0.025750 0.024807 0.872000
0.025434 0.004055 0.886000
0.037271 -0.003253 0.890000
-0.029466 0.017086 0.881000
-0.026367 -0.008836 0.899000
-0.025824 -0.003264 0.893000
-0.013664 0.002611 0.891000
0.010387 0.013775 0.878000
0.021108 0.025554 0.873000
-0.025228 0.005507 0.885000
-0.025399 -0.001056 0.891000
-0.029328 -0.006616 0.899000
0.036172 -0.004352 0.890000
0.045649 0.006215 0.882000
-0.026886 -0.019303 0.904000
-0.036483 0.026507 0.893000
0.031852 0.019783 0.872000
0.020099 0.015907 0.876000
-0.044484 0.008776 0.884000
0.030919 -0.014354 0.897000
-0.025171 0.008766 0.883000
0.002442 0.010909 0.880000
-0.033129 0.015653 0.882000
0.002097 0.032900 0.887000
-0.021101 0.011996 0.880000
0.046064 0.004768 0.883000
-0.003800 -0.007734 0.900000
0.005006 0.031733 0.885000
-0.026045 0.001871 0.888000
-0.023069 0.024476 0.886000
-0.040209 0.005514 0.886000
0.032580 0.007667 0.882000
-0.040384 -0.018436 0.898000
0.016531 0.012691 0.878000
-0.022717 -0.014418 0.901000
-0.051339 -0.002500 0.883000
0.005085 -0.021046 0.899000
-0.019707 -0.012166 0.899000
-0.028810 -0.028668 0.906000
-0.020516 0.005149 0.886000
0.020436 0.016249 0.875000
-0.025506 0.019646 0.882000
0.024642 -0.019154 0.897000
0.043471 0.005852 0.882000
0.024038 0.016609 0.875000
0.029645 -0.003627 0.892000
0.027257 -0.014740 0.898000
-0.028174 0.021923 0.886000
0.003235 -0.009206 0.899000
-0.035428 0.006964 0.885000
0.033381 -0.026880 0.884000
-0.044434 0.012037 0.883000
-0.014172 -0.013291 0.900000
0.042128 -0.006564 0.892000
-0.042713 0.017528 0.885000
0.045330 -0.011678 0.890000
0.025779 0.019087 0.873000
-0.035832 0.005514 0.886000
0.033723 0.017670 0.874000
-0.038251 -0.021811 0.900000
-0.014046 0.031984 0.892000
-0.030065 0.002602 0.888000
0.024148 0.011259 0.879000
0.008191 0.016970 0.875000
0.026134 -0.028732 0.885000
-0.000093 0.022062 0.877000
0.001003 0.032937 0.888000
-0.030916 0.015998 0.881000
0.025624 0.033003 0.880000
-0.016374 0.019580 0.879000
0.025204 0.012691 0.878000
-0.038575 0.013838 0.882000
0.048385 -0.005660 0.866000
-0.052375 -0.005725 0.876000
-0.049578 -0.009052 0.884000
-0.016413 -0.015531 0.901000
0.006405 0.024588 0.877000
-0.034585 -0.014789 0.901000
0.017996 -0.011770 0.897000
-0.027747 0.006957 0.884000
0.037299 0.006941 0.882000
-0.008846 0.028123 0.886000
-0.005888 0.011271 0.880000
-0.025114 0.011647 0.881000
-0.037965 -0.021117 0.902000
0.047368 -0.001051 0.887000
0.011098 0.026754 0.877000
-0.001577 -0.009587 0.900000
0.012389 -0.000323 0.892000
-0.043442 0.016799 0.885000
-0.012887 0.028917 0.888000
0.032143 -0.021202 0.890000
-0.004835 0.029946 0.886000
0.027544 0.025166 0.872000
0.005819 -0.007717 0.898000
0.027279 0.015889 0.875000
0.012089 -0.006232 0.897000
-0.021854 -0.009175 0.896000
0.015257 0.001871 0.888000
-0.014446 -0.001796 0.894000
0.030515 -0.016919 0.896000
0.000271 0.031405 0.886000
-0.047350 -0.010945 0.890000
0.029279 0.010196 0.881000
0.006797 0.028689 0.881000
-0.029086 -0.014822 0.903000
-0.032095 -0.018187 0.904000
0.016835 0.026333 0.875000
0.020787 -0.003619 0.890000
0.010773 0.010547 0.880000
-0.020197 0.026724 0.888000
0.038971 -0.000321 0.887000
0.037104 0.000773 0.886000
-0.034062 -0.008816 0.897000
0.006078 0.009845 0.882000
-0.019186 -0.002893 0.892000
0.028980 0.026961 0.872000
-0.023354 0.021486 0.883000
0.033860 0.001139 0.887000
-0.034009 0.021194 0.886000
0.006106 0.008066 0.886000
0.002094 0.031405 0.886000
-0.010959 0.011634 0.880000
-0.021101 0.019240 0.880000
-0.005520 0.013429 0.879000
0.009665 0.013053 0.878000
-0.051339 -0.002137 0.883000
0.028479 0.000410 0.890000
-0.036603 0.003695 0.887000
-0.037849 0.012023 0.882000
0.009156 -0.014386 0.899000
-0.013357 -0.002903 0.895000
0.018140 0.036510 0.886000
-0.033768 -0.012166 0.899000
0.027935 0.027351 0.873000
0.042495 -0.009134 0.892000
-0.032024 -0.015177 0.902000
-0.001579 -0.010710 0.901000
-0.042684 -0.002159 0.892000
-0.035301 -0.000323 0.891000
-0.010468 -0.010327 0.900000
0.040614 -0.012791 0.891000
-0.028683 -0.011835 0.902000
-0.052856 -0.002125 0.878000
0.018974 0.025583 0.874000
-0.008043 0.019919 0.878000
-0.055659 -0.003635 0.894000
-0.007752 0.028487 0.886000
0.024002 -0.027702 0.887000
-0.018597 -0.012166 0.899000
-0.000093 0.020594 0.876000
0.020436 0.016609 0.875000
0.016520 -0.019523 0.897000
0.030660 0.011620 0.879000
-0.021683 0.000410 0.889000
0.000995 0.010196 0.881000
-0.010997 0.025120 0.883000
0.041480 0.000773 0.886000
0.017277 -0.013631 0.898000
-0.005942 0.030745 0.888000
0.030677 -0.029627 0.890000
-0.017539 0.007676 0.883000
0.030660 0.011259 0.879000
-0.038385 0.005149 0.886000
-0.021732 -0.002156 0.891000
0.017529 -0.003994 0.892000
0.007289 -0.005494 0.897000
0.024900 -0.007674 0.893000
-0.034124 0.001873 0.889000
0.024029 -0.026637 0.888000
0.030746 -0.005096 0.892000
-0.033872 0.023540 0.892000
0.029945 -0.022301 0.890000
0.018721 0.011982 0.879000
0.004249 0.025730 0.879000
-0.041722 -0.012480 0.895000
-0.041890 0.013127 0.883000
0.031854 0.007667 0.882000
0.019104 0.010909 0.880000
0.046217 0.009450 0.879000
-0.001208 -0.017385 0.901000
-0.000454 0.013414 0.878000
-0.024040 -0.007323 0.895000
0.024111 -0.024526 0.891000
-0.032503 -0.028264 0.905000
0.043668 0.000773 0.886000
0.041027 -0.006931 0.892000
-0.031385 0.007320 0.884000
-0.011630 -0.019675 0.904000
-0.038938 0.014201 0.882000
0.028703 -0.017308 0.897000
-0.000466 -0.012564 0.901000
0.016151 0.028198 0.877000
0.030765 0.009119 0.882000
0.031234 -0.026911 0.885000
-0.028378 0.017811 0.881000
-0.046618 0.000044 0.890000
0.001367 0.007345 0.887000
0.007505 0.027177 0.879000
-0.015650 0.018856 0.879000
0.024230 0.008756 0.882000
0.012444 -0.018026 0.896000
-0.033932 0.007684 0.884000
0.032399 -0.024051 0.887000
-0.023355 -0.009924 0.897000
-0.028374 -0.018187 0.904000
-0.020585 0.000776 0.889000
-0.025741 -0.017052 0.903000
-0.030362 0.005149 0.886000
0.024312 0.037561 0.885000
0.028360 0.016249 0.875000
-0.019854 0.027486 0.889000
0.027534 -0.009533 0.895000
-0.011373 0.026240 0.884000
-0.035103 0.004784 0.886000
-0.050306 -0.005778 0.884000
-0.030979 -0.018559 0.904000
-0.029566 0.008048 0.884000
-0.006673 0.005526 0.888000
-0.017234 0.025935 0.886000
-0.026470 0.000044 0.890000
-0.000823 0.030675 0.886000
0.031312 0.032529 0.877000
-0.040572 -0.005107 0.894000
0.032801 -0.022616 0.888000
0.008921 0.015907 0.876000
-0.037333 0.020488 0.887000
-0.006293 0.029581 0.886000
-0.022912 0.013807 0.880000
0.036254 -0.019781 0.892000
0.027473 -0.006572 0.893000
0.003185 0.031005 0.885000
-0.008796 0.010922 0.881000
0.030012 -0.001057 0.892000
0.025262 0.010185 0.880000
0.016078 0.022320 0.873000
-0.047609 0.003333 0.888000
0.023850 -0.021321 0.895000
0.007849 0.014843 0.877000
0.042400 -0.012411 0.890000
0.029545 -0.023739 0.889000
-0.044887 -0.010236 0.892000
-0.043515 -0.005107 0.894000
0.009013 0.032462 0.885000
0.040158 0.012372 0.881000
-0.034700 -0.018559 0.904000
-0.026291 0.021146 0.884000
0.031456 0.022269 0.871000
0.000646 -0.014772 0.900000
0.025032 0.025166 0.872000
-0.006635 0.026210 0.883000
0.037071 -0.009155 0.894000
0.014690 -0.014370 0.898000
-0.051948 -0.014461 0.881000
0.018593 0.021602 0.873000
-0.030268 -0.027519 0.905000
-0.043369 -0.000323 0.891000
0.022879 0.022654 0.872000
0.007505 0.012344 0.879000
0.033554 0.011259 0.879000
0.028980 0.027319 0.872000
-0.010585 0.012706 0.879000
-0.030168 -0.014063 0.902000
0.022881 0.037969 0.886000
-0.033287 -0.006594 0.896000
-0.014698 0.027789 0.887000
0.036662 -0.019436 0.893000
-0.023645 -0.006211 0.894000
-0.032585 -0.008078 0.897000
-0.039070 0.006600 0.885000
0.022804 0.006585 0.883000
0.035152 -0.005830 0.892000
-0.006036 -0.018518 0.902000
0.049325 -0.002464 0.870000
0.014314 0.024892 0.875000
0.034285 0.022960 0.870000
0.037662 0.006578 0.882000
-0.026232 0.019283 0.882000
-0.002652 0.005892 0.888000
-0.034278 -0.002896 0.893000
-0.014413 0.001145 0.892000
-0.005949 0.004801 0.889000
0.025740 0.036791 0.884000
-0.014963 -0.024485 0.903000
-0.037528 0.009493 0.883000
-0.005211 0.005526 0.888000
0.016719 0.000775 0.888000
-0.039600 -0.009185 0.897000
-0.032694 -0.012180 0.900000
0.003181 0.030242 0.884000
0.028753 0.014826 0.876000
0.003529 0.026846 0.880000
-0.006308 0.006257 0.888000
-0.041354 0.026935 0.895000
-0.017837 -0.011044 0.898000
-0.007778 0.004801 0.889000
0.003975 -0.018826 0.899000
0.007119 0.015907 0.876000
0.030746 -0.004362 0.892000
-0.022000 -0.017033 0.902000
-0.027019 0.021510 0.884000
-0.049548 -0.001421 0.890000
-0.023539 -0.001055 0.890000
0.018593 0.023039 0.873000
-0.027077 -0.006978 0.898000
-0.041256 0.017892 0.885000
-0.020492 -0.015160 0.901000
0.021902 0.015907 0.876000
-0.021537 0.008402 0.883000
0.014081 0.032752 0.883000
0.046585 0.000773 0.886000
-0.030658 0.008048 0.884000
0.047838 0.005050 0.869000
-0.003062 -0.016643 0.901000
-0.014235 -0.023396 0.904000
-0.020561 -0.027489 0.904000
0.040614 -0.013525 0.891000
-0.016468 -0.020047 0.904000
-0.010585 0.021388 0.879000
-0.031758 -0.019697 0.905000
-0.043196 -0.009165 0.895000
-0.038063 0.003695 0.887000
-0.019030 -0.016290 0.902000
-0.024708 -0.025312 0.906000
-0.023251 -0.004734 0.893000
-0.015689 -0.017404 0.902000
-0.019809 0.003695 0.887000
0.026408 0.009845 0.882000
-0.028715 -0.014450 0.903000
-0.014961 0.011284 0.881000
0.024871 0.010897 0.879000
-0.041890 0.013490 0.883000
0.027227 0.007329 0.885000
-0.000466 -0.010698 0.900000
0.027627 -0.015848 0.898000
-0.015882 0.000411 0.892000
0.047665 -0.001404 0.879000
0.017595 0.028198 0.877000
-0.011592 -0.015901 0.901000
0.030141 -0.027275 0.885000
-0.005955 0.033012 0.890000
-0.049908 -0.014756 0.877000
0.036573 0.007304 0.882000
-0.054425 -0.007563 0.880000
-0.043589 0.002968 0.888000
0.008921 0.016628 0.876000
-0.002256 0.020234 0.876000
-0.005526 0.024310 0.880000
0.036294 -0.008042 0.893000
0.019386 -0.007307 0.893000
-0.003062 -0.012193 0.901000
0.027892 0.036750 0.883000
0.028947 0.023345 0.871000
-0.017658 0.028218 0.889000
-0.036892 -0.025228 0.903000
-0.003749 0.031476 0.888000
0.009515 -0.017327 0.898000
-0.041573 0.008048 0.884000
0.030625 0.012691 0.878000
-0.015689 -0.016290 0.902000
0.013671 0.010185 0.880000
-0.029589 -0.029073 0.907000
-0.038038 -0.006586 0.895000
0.009377 0.008057 0.885000
-0.000095 -0.019958 0.900000
0.012599 0.030140 0.881000
0.040567 0.006215 0.882000
0.017756 0.003322 0.885000
-0.004911 -0.009957 0.900000
-0.024860 -0.009935 0.898000
0.024983 -0.019501 0.896000
-0.045203 -0.001056 0.891000
0.017142 -0.002523 0.891000
0.039279 -0.010627 0.894000
-0.039524 0.004790 0.887000
-0.029599 0.006964 0.885000
-0.023539 0.027883 0.890000
-0.023825 0.003695 0.887000
0.003553 0.031769 0.886000
-0.039468 -0.005107 0.894000
-0.025448 0.016704 0.880000
0.037764 -0.016128 0.893000
-0.022858 0.029415 0.892000
0.023921 0.005865 0.884000
-0.017389 -0.004739 0.894000
0.019964 0.001867 0.886000
-0.038794 0.020123 0.887000
-0.012451 0.008766 0.883000
-0.015351 -0.022652 0.904000
0.026711 0.034089 0.880000
0.047673 -0.004947 0.866000
-0.045203 -0.000689 0.891000
0.024038 0.028854 0.875000
-0.003349 0.013068 0.879000
-0.031641 0.011647 0.881000
0.009841 0.000412 0.894000
0.029379 0.038247 0.884000
0.016114 -0.008060 0.895000
0.000272 0.032937 0.888000
-0.026171 -0.028264 0.905000
0.027892 0.009856 0.883000
-0.000824 0.006615 0.887000
-0.001952 -0.018518 0.902000
-0.010398 -0.001428 0.894000
0.007658 -0.019154 0.897000
-0.008635 -0.016290 0.902000
0.023651 0.027382 0.874000
-0.012648 -0.005124 0.897000
0.029664 0.025496 0.871000
0.022327 -0.027889 0.893000
0.042862 -0.008767 0.892000
0.022796 -0.012139 0.897000
-0.048816 0.000044 0.890000
-0.018166 -0.008069 0.896000
0.027136 -0.019825 0.894000
-0.007512 -0.014789 0.901000
-0.037093 0.023854 0.890000
0.028621 0.021577 0.872000
0.029743 -0.027608 0.884000
0.038883 0.002958 0.885000
0.002868 -0.012180 0.900000
0.046897 0.001136 0.885000
-0.035380 0.026507 0.893000
0.031445 -0.020492 0.891000
0.010482 0.007337 0.886000
0.027196 -0.011388 0.896000
0.037764 -0.015025 0.893000
-0.007396 0.029615 0.887000
0.027639 0.015889 0.875000
0.016437 0.021961 0.873000
-0.004445 0.010559 0.881000
-0.001579 -0.015160 0.901000
-0.044619 -0.004739 0.894000
-0.035816 -0.024140 0.904000
-0.001579 -0.017756 0.901000
0.041761 -0.009868 0.892000
-0.035024 0.007684 0.884000
0.033797 -0.016164 0.895000
0.033354 -0.018333 0.893000
-0.025737 -0.000322 0.890000
0.045701 0.005132 0.883000
0.023975 -0.028764 0.886000
-0.016653 -0.005107 0.894000
0.000644 -0.006978 0.898000
0.007676 -0.014756 0.899000
-0.016964 0.000044 0.891000
0.009303 0.013775 0.878000
-0.003437 -0.019632 0.902000
0.033759 -0.008787 0.894000
-0.026975 -0.025340 0.907000
0.028303 -0.011388 0.896000
-0.012507 0.028154 0.887000
-0.037333 0.020853 0.887000
0.012139 0.021627 0.874000
0.024788 -0.001054 0.889000
0.012222 0.029743 0.880000
-0.035308 0.015653 0.882000
0.047371 -0.002812 0.867000
0.035270 -0.015796 0.895000
0.031955 -0.009902 0.895000
0.010387 0.013053 0.878000
-0.020786 0.021461 0.882000
0.047673 0.001825 0.866000
-0.006605 0.012344 0.879000
0.023637 -0.028067 0.887000
-0.024723 0.016704 0.880000
-0.005287 -0.012193 0.901000
-0.028838 0.008048 0.884000
-0.010514 -0.020047 0.904000
0.009515 -0.009196 0.898000
0.041876 0.011982 0.879000
-0.034645 0.026875 0.893000
0.029412 -0.029096 0.885000
-0.018328 -0.019303 0.904000
-0.025371 0.027151 0.890000
-0.029301 0.004060 0.887000
-0.028111 0.007684 0.884000
0.027186 0.022654 0.872000
-0.026103 0.027151 0.890000
-0.028764 -0.000691 0.893000
0.037112 -0.013585 0.895000
-0.031013 -0.019697 0.905000
0.041892 0.000044 0.887000
0.000269 0.013414 0.878000
-0.014300 0.006600 0.885000
0.014288 -0.006594 0.896000
0.002459 0.031769 0.886000
-0.007504 -0.009957 0.900000
-0.047770 -0.013158 0.891000
-0.020060 0.021824 0.882000
0.025682 0.009482 0.882000
0.005683 0.024949 0.877000
0.002434 0.023506 0.877000
-0.007429 0.033049 0.891000
0.005443 -0.005863 0.897000
0.021471 0.000044 0.888000
-0.045314 0.015360 0.886000
0.025013 0.036427 0.884000
-0.039556 0.027703 0.896000
0.006044 0.015204 0.877000
0.042238 0.009811 0.879000
0.015395 -0.010650 0.896000
0.030175 -0.026212 0.886000
0.015059 -0.014740 0.898000
0.044231 -0.003619 0.890000
-0.030588 0.017468 0.882000
-0.029425 -0.012949 0.902000
0.031854 0.008030 0.882000
0.013811 0.002971 0.889000
-0.024970 -0.014063 0.902000
-0.047717 0.000044 0.890000
-0.027786 -0.005124 0.897000
0.026738 -0.020906 0.893000
-0.050168 0.001140 0.888000
-0.033455 0.014185 0.881000
-0.043707 0.012400 0.883000
0.037833 0.001502 0.886000
-0.003728 0.027664 0.883000
0.039469 -0.003985 0.890000
0.016700 0.002234 0.887000
0.048251 0.006130 0.870000
-0.020701 -0.006579 0.894000
0.029678 -0.006204 0.893000
-0.022576 0.010922 0.881000
0.008046 -0.016606 0.899000
0.036490 0.009460 0.880000
0.031134 0.027319 0.872000
0.027716 0.002239 0.889000
0.018275 0.026693 0.875000
-0.032024 -0.015919 0.902000
-0.024638 0.000044 0.890000
0.046579 0.008364 0.879000
-0.034546 -0.013291 0.900000
-0.021900 0.009129 0.883000
0.039602 -0.008409 0.893000
-0.009716 -0.008836 0.899000
0.025098 0.002234 0.887000
0.040976 0.005132 0.883000
0.017595 0.014843 0.877000
0.024314 0.020859 0.872000
-0.028524 -0.005124 0.897000
-0.040339 -0.017677 0.897000
-0.042412 -0.010994 0.894000
0.018243 -0.003623 0.891000
-0.028778 -0.020069 0.905000
0.026589 0.015547 0.876000
-0.017896 -0.015531 0.901000
0.009135 -0.019154 0.897000
-0.035628 0.023854 0.890000
0.030781 -0.008042 0.893000
0.000636 0.007345 0.887000
-0.008254 -0.010339 0.901000
-0.042174 0.002239 0.889000
-0.038621 -0.020699 0.900000
0.034683 0.022986 0.871000
0.010945 -0.003267 0.894000
-0.007770 0.006623 0.888000
-0.035719 -0.027701 0.911000
-0.052735 -0.011855 0.876000
-0.006688 0.032279 0.890000
0.022881 0.037604 0.886000
-0.015864 0.000777 0.891000
-0.044053 0.000044 0.890000
0.032395 -0.012877 0.897000
-0.040014 -0.016218 0.898000
0.019887 -0.015126 0.899000
-0.008434 0.023975 0.881000
0.010871 0.035861 0.888000
-0.016430 0.009119 0.882000
-0.010293 0.007329 0.885000
-0.002691 -0.015531 0.901000
-0.027288 -0.019697 0.905000
-0.016691 -0.008438 0.896000
-0.014397 0.002244 0.891000
0.035280 0.001867 0.886000
0.016926 -0.015866 0.899000
0.029305 0.024420 0.871000
0.018275 0.016249 0.875000
-0.019653 0.013082 0.880000
0.031493 0.019783 0.872000
0.006565 -0.014016 0.899000
-0.032503 -0.019324 0.905000
-0.038212 0.012386 0.882000
-0.015636 -0.011796 0.899000
0.023237 0.023730 0.872000
-0.000819 0.027270 0.882000
-0.000827 0.005172 0.890000
-0.016374 0.014153 0.879000
0.005696 0.012344 0.879000
-0.045570 -0.000689 0.891000
-0.008089 0.025847 0.883000
0.021910 -0.003990 0.891000
-0.007883 -0.014418 0.901000
0.016464 -0.005475 0.894000
0.009621 0.019468 0.874000
-0.017817 -0.009924 0.897000
0.009980 0.020188 0.874000
0.021082 0.001504 0.887000
0.028334 -0.016569 0.897000
-0.032324 -0.012180 0.900000
0.049305 0.003649 0.876000
0.038258 0.010173 0.879000
-0.011146 -0.002534 0.895000
0.001357 0.026876 0.881000
0.031925 0.016950 0.874000
0.010994 -0.016588 0.898000
0.020053 0.018389 0.874000
0.017296 -0.016236 0.899000
-0.019051 -0.018538 0.903000
-0.007149 -0.021117 0.902000
-0.027630 -0.019303 0.904000
0.007479 0.023839 0.876000
0.017175 0.019468 0.874000
0.039970 -0.011717 0.893000
-0.032841 0.019691 0.884000
0.041527 0.000409 0.887000
-0.047609 -0.012748 0.888000
-0.009619 0.003707 0.890000
0.011954 0.005885 0.887000
0.012139 0.020188 0.874000
-0.041030 0.020511 0.888000
-0.005158 0.013068 0.879000
-0.017936 -0.025600 0.903000
-0.035748 -0.003264 0.893000
0.019693 0.018389 0.874000
0.009146 -0.008087 0.898000
0.030739 0.025854 0.871000
-0.017098 0.015600 0.879000
-0.022576 0.019624 0.881000
0.030730 0.009834 0.881000
0.013655 0.028624 0.879000
0.013005 0.033153 0.884000
-0.012959 -0.000691 0.893000
-0.034470 -0.011044 0.898000
-0.004551 -0.023715 0.902000
-0.028249 -0.008105 0.900000
0.017666 -0.016236 0.899000
-0.008062 0.011634 0.880000
-0.026958 0.010571 0.882000
-0.009759 -0.021512 0.903000
-0.032077 0.009493 0.883000
0.034785 -0.006931 0.892000
0.015862 0.031227 0.881000
-0.008956 -0.005863 0.897000
0.033018 -0.027244 0.884000
-0.006590 0.019535 0.877000
-0.047090 -0.002893 0.892000
-0.003349 0.012344 0.879000
0.009271 0.018410 0.875000
0.044923 0.005852 0.882000
0.028846 0.000410 0.890000
-0.042827 -0.006218 0.895000
0.038284 -0.000687 0.888000
