0.024203 0.005044 0.868000
-0.015148 -0.010970 0.892000
0.028133 0.003973 0.868000
-0.010453 0.024693 0.868000
-0.033392 0.003337 0.889000
0.015880 -0.011210 0.882000
-0.016249 -0.013540 0.892000
-0.009489 0.010162 0.878000
0.017057 0.007545 0.868000
0.045490 0.014758 0.872000
-0.038225 0.022706 0.874000
-0.000094 -0.014608 0.890000
-0.026918 0.026868 0.869000
-0.014203 0.038030 0.879000
0.028554 -0.010109 0.881000
0.023246 -0.019283 0.886000
-0.015063 0.000774 0.887000
-0.029099 -0.005830 0.892000
0.019577 -0.032739 0.885000
0.008871 0.007930 0.871000
0.022313 -0.008268 0.878000
0.041656 -0.023189 0.882000
-0.034316 -0.010627 0.894000
0.009555 0.011832 0.868000
0.032144 -0.014806 0.880000
-0.036727 -0.000322 0.890000
0.041209 0.007519 0.865000
0.023975 -0.018554 0.886000
-0.013572 0.002958 0.885000
-0.028806 0.012400 0.883000
0.023948 -0.015619 0.885000
-0.011084 -0.018638 0.890000
0.012484 0.025195 0.873000
0.026680 0.026453 0.879000
-0.017370 -0.012085 0.893000
-0.022345 0.019424 0.872000
-0.022123 -0.013907 0.892000
0.011328 0.011819 0.867000
-0.000092 0.024722 0.869000
-0.033395 0.026899 0.870000
0.014573 0.007196 0.869000
0.044619 0.012204 0.869000
0.035359 0.015082 0.870000
-0.028474 0.009867 0.884000
-0.011882 0.020764 0.868000
-0.031232 0.001143 0.890000
-0.020716 0.039839 0.879000
0.030057 -0.002828 0.872000
0.022752 -0.011197 0.881000
-0.029198 0.020524 0.873000
0.039389 -0.007135 0.872000
-0.027991 0.026868 0.869000
-0.041261 -0.002896 0.893000
0.024083 -0.028162 0.890000
0.037278 0.018009 0.873000
-0.025428 -0.013907 0.892000
0.019577 -0.033467 0.885000
-0.000816 0.033651 0.878000
-0.020446 0.003678 0.883000
0.044773 0.014758 0.872000
0.004547 0.018955 0.867000
0.014559 -0.021568 0.890000
-0.002238 0.025437 0.869000
0.025573 0.008241 0.866000
0.024093 -0.006454 0.877000
0.003878 0.006901 0.877000
0.003199 -0.021178 0.889000
0.015826 -0.037944 0.879000
-0.024084 0.032628 0.870000
-0.008766 0.036180 0.878000
0.038937 0.022087 0.878000
-0.009684 -0.020238 0.896000
0.021253 -0.009363 0.879000
0.002763 0.020740 0.867000
0.014081 -0.010496 0.883000
0.017997 -0.038305 0.879000
0.006133 -0.018271 0.890000
-0.005123 0.011541 0.873000
0.037508 0.014724 0.870000
0.022959 -0.029594 0.889000
-0.000459 -0.020789 0.888000
-0.011937 0.015117 0.872000
0.009731 -0.032702 0.884000
0.010920 -0.024554 0.892000
0.023637 -0.021495 0.887000
0.011927 -0.010520 0.885000
0.041161 -0.031251 0.864000
0.026704 0.016476 0.868000
0.027716 -0.025569 0.889000
-0.028047 0.013475 0.882000
-0.001880 0.014349 0.869000
0.036210 -0.019559 0.882000
-0.026776 -0.001418 0.888000
-0.025650 0.000044 0.887000
-0.014774 0.018305 0.870000
-0.001876 0.017528 0.867000
-0.031926 0.029729 0.869000
0.019851 -0.011922 0.881000
-0.020400 0.005845 0.881000
0.004558 0.012204 0.869000
0.014573 0.008269 0.869000
0.007759 0.018955 0.867000
-0.015271 0.037987 0.878000
0.003509 0.029574 0.875000
0.006133 -0.023400 0.890000
-0.045152 -0.005451 0.890000
0.003834 0.014673 0.867000
0.011941 -0.015272 0.886000
-0.035185 0.027257 0.870000
-0.022243 0.027909 0.868000
0.014209 -0.022693 0.891000
-0.023959 -0.007299 0.892000
-0.031232 -0.001788 0.890000
-0.014780 -0.013173 0.892000
0.002763 0.021810 0.867000
-0.046606 0.012662 0.876000
0.025886 -0.032887 0.889000
-0.041997 -0.010247 0.893000
-0.042086 0.027319 0.872000
-0.029265 0.018410 0.875000
0.033723 -0.007511 0.874000
-0.039528 0.028364 0.871000
0.022721 0.013231 0.866000
-0.014397 -0.006924 0.891000
0.029816 0.008943 0.865000
0.010129 -0.014924 0.887000
0.037193 0.016175 0.871000
0.025661 0.002904 0.869000
0.025245 0.015030 0.867000
0.004916 0.023291 0.869000
0.028947 0.018684 0.871000
0.001737 -0.016074 0.890000
-0.027693 -0.009891 0.894000
0.034797 -0.020308 0.883000
0.017038 0.018242 0.867000
-0.008386 0.011220 0.876000
-0.002596 0.014707 0.869000
0.013842 -0.027093 0.891000
-0.037911 -0.002526 0.892000
-0.037401 0.015256 0.880000
0.037492 -0.014050 0.878000
-0.005489 0.011195 0.874000
0.001336 0.020383 0.867000
0.008993 -0.004681 0.883000
-0.011059 -0.002149 0.888000
-0.028938 0.039343 0.876000
-0.020310 -0.011350 0.893000
-0.008062 0.008012 0.880000
-0.006222 0.010860 0.876000
0.018444 0.014300 0.866000
0.017756 -0.033103 0.885000
-0.032771 -0.004729 0.892000
-0.002246 0.028037 0.872000
-0.037952 0.020594 0.876000
0.025799 -0.020013 0.886000
-0.025448 0.012720 0.880000
-0.018334 0.028656 0.869000
-0.036385 0.023758 0.873000
0.024340 -0.018189 0.886000
0.002770 0.012561 0.869000
0.041136 0.014741 0.871000
0.012541 0.001848 0.877000
-0.004856 -0.008015 0.890000
0.037292 0.004315 0.865000
-0.011882 0.023264 0.868000
-0.039791 -0.002529 0.893000
0.029919 0.002544 0.868000
0.011135 -0.001043 0.880000
0.020343 0.002194 0.871000
-0.015115 0.027941 0.869000
0.002434 0.007262 0.877000
0.029440 -0.004278 0.875000
-0.013679 -0.011704 0.892000
-0.044544 0.017750 0.878000
0.009409 0.000044 0.888000
-0.029198 0.021242 0.873000
0.038005 0.006807 0.865000
0.034364 -0.004623 0.872000
0.019488 -0.036942 0.881000
-0.026083 0.039749 0.877000
-0.018629 0.002951 0.883000
-0.010947 0.036945 0.879000
-0.023341 0.024006 0.869000
-0.027872 -0.000322 0.888000
-0.004128 -0.011691 0.891000
-0.046732 0.018912 0.865000
0.007607 -0.024526 0.891000
0.023078 0.012161 0.866000
0.028556 0.017589 0.870000
0.014575 -0.027093 0.891000
0.043175 -0.013657 0.876000
0.027123 0.018305 0.870000
-0.021936 0.022244 0.870000
0.041656 -0.025367 0.882000
0.013733 -0.012691 0.884000
0.026618 -0.025935 0.889000
0.007488 0.005458 0.877000
-0.025303 0.015889 0.875000
0.030955 0.003254 0.867000
0.002429 0.029934 0.875000
-0.042520 0.011284 0.881000
-0.048101 0.013911 0.864000
0.040790 -0.018046 0.879000
-0.026414 0.016268 0.876000
0.030057 -0.003187 0.872000
0.038361 0.005027 0.865000
-0.043196 0.011271 0.880000
-0.011335 0.039205 0.881000
0.030160 0.022011 0.875000
-0.013668 0.027194 0.868000
0.039522 -0.022852 0.883000
-0.026622 0.034458 0.871000
-0.036279 0.003333 0.888000
-0.037207 0.008412 0.884000
-0.043558 0.014893 0.880000
-0.043000 0.022037 0.876000
-0.043418 -0.005463 0.892000
0.028068 0.007171 0.866000
0.044006 -0.021649 0.864000
0.046007 0.016970 0.875000
0.038893 0.020979 0.877000
-0.024555 0.016950 0.874000
-0.012625 0.029047 0.870000
0.043027 -0.009299 0.873000
-0.025000 0.039388 0.877000
-0.030207 0.035175 0.871000
-0.050514 0.007966 0.875000
-0.020998 -0.008024 0.891000
0.030346 -0.001031 0.870000
-0.028507 0.009514 0.885000
0.035882 -0.008590 0.874000
0.011275 -0.021226 0.891000
0.027350 -0.027764 0.889000
-0.037911 -0.001792 0.892000
-0.042684 -0.006197 0.892000
-0.048491 0.009722 0.871000
0.012441 0.007563 0.870000
0.037130 0.022810 0.878000
0.037724 -0.011121 0.875000
-0.000092 0.015405 0.868000
0.020987 0.005759 0.868000
0.038405 0.001468 0.866000
-0.012954 0.021121 0.868000
0.045230 0.010034 0.867000
0.015120 0.030468 0.880000
0.009764 -0.014924 0.887000
-0.014740 0.027194 0.868000
-0.030600 0.036292 0.872000
0.029902 -0.006461 0.878000
0.041183 -0.027951 0.872000
-0.020015 0.007649 0.880000
-0.029132 -0.007674 0.893000
0.014248 0.005062 0.871000
-0.017300 0.031590 0.871000
0.019665 -0.029960 0.889000
0.028781 0.005389 0.866000
0.009588 0.024062 0.871000
0.017018 0.016082 0.866000
-0.013936 0.003322 0.885000
-0.035091 -0.007691 0.895000
0.006044 0.005458 0.877000
0.002805 0.034814 0.880000
0.048362 -0.011801 0.872000
-0.044053 -0.000689 0.890000
0.009676 0.001852 0.879000
0.032345 0.004676 0.866000
-0.002233 0.021096 0.867000
0.043796 0.016590 0.874000
0.011211 -0.011990 0.886000
-0.022037 0.015871 0.874000
0.001698 0.012218 0.870000
-0.011296 0.010162 0.878000
-0.039256 0.014548 0.881000
0.019157 0.014300 0.866000
-0.016194 -0.002517 0.889000
0.017450 -0.029926 0.888000
-0.006329 -0.014991 0.891000
-0.017821 0.036945 0.879000
-0.024972 0.014826 0.876000
-0.039379 -0.001792 0.892000
-0.023986 -0.009880 0.893000
-0.016085 0.003678 0.883000
0.034317 -0.015893 0.880000
-0.005815 0.016853 0.869000
0.006500 -0.027063 0.890000
-0.031705 -0.006572 0.893000
-0.037613 0.007329 0.885000
0.019400 -0.005371 0.877000
-0.045679 0.004055 0.886000
0.017813 0.020095 0.870000
-0.015463 -0.003615 0.889000
0.001371 -0.018271 0.890000
0.044307 -0.016561 0.877000
-0.035348 0.010220 0.883000
-0.040615 0.017771 0.879000
0.014232 0.021169 0.870000
-0.022264 0.004405 0.883000
0.035964 -0.010773 0.876000
-0.032283 0.030802 0.869000
0.004563 0.024392 0.870000
-0.027761 0.020165 0.873000
-0.023095 -0.001051 0.887000
0.028035 0.008587 0.865000
-0.027050 0.005872 0.885000
0.019082 0.028624 0.879000
-0.033505 -0.012806 0.892000
-0.050707 0.008241 0.866000
0.011550 -0.006142 0.884000
0.043138 -0.023536 0.868000
-0.039709 0.022372 0.875000
0.018079 -0.034845 0.883000
-0.002974 0.031015 0.875000
-0.012032 0.037307 0.879000
0.022391 0.006823 0.867000
0.023078 0.010023 0.866000
-0.012954 0.023979 0.868000
-0.033113 0.024448 0.872000
0.018222 -0.023400 0.890000
-0.013312 -0.013907 0.892000
0.024148 0.027539 0.879000
0.035565 -0.022514 0.884000
0.036961 -0.008950 0.874000
0.042066 0.011475 0.868000
0.009293 0.030003 0.877000
0.032308 0.010723 0.865000
0.016022 0.006130 0.870000
-0.040070 0.022732 0.875000
-0.006681 -0.005079 0.889000
0.018058 -0.011936 0.882000
0.024732 -0.022226 0.887000
-0.031372 -0.008787 0.894000
0.040930 -0.022463 0.882000
-0.046484 0.018955 0.867000
-0.044594 0.013791 0.879000
0.037020 -0.028700 0.884000
-0.016641 0.013713 0.874000
0.016042 -0.024893 0.891000
-0.037460 0.000044 0.890000
-0.041150 0.023452 0.875000
0.004668 -0.024865 0.890000
0.017066 -0.018575 0.887000
0.047034 0.015871 0.874000
-0.043821 0.018835 0.878000
-0.035548 0.003333 0.888000
0.018505 -0.032046 0.886000
0.014523 0.014656 0.866000
0.023504 -0.011936 0.882000
0.039477 -0.021374 0.882000
0.033376 0.006095 0.865000
0.008707 -0.020492 0.891000
-0.027507 0.000044 0.888000
0.022008 0.013944 0.866000
0.032654 -0.029791 0.884000
0.042334 -0.024614 0.881000
-0.029422 0.029371 0.869000
0.023705 -0.005725 0.876000
-0.033357 0.027941 0.869000
-0.037039 0.014531 0.880000
-0.045263 0.007693 0.885000
0.020443 -0.027093 0.891000
0.009187 0.018599 0.867000
0.040930 -0.021737 0.882000
0.042357 -0.010749 0.874000
0.008972 -0.035129 0.881000
0.039026 -0.018428 0.880000
-0.041261 -0.008042 0.893000
-0.027856 0.039343 0.876000
-0.017234 0.000408 0.886000
-0.024943 0.037857 0.875000
0.011628 -0.020836 0.890000
0.028687 -0.003554 0.874000
0.004910 0.022193 0.868000
0.012627 -0.034482 0.883000
-0.020192 0.019065 0.872000
0.023407 0.010723 0.865000
0.004668 -0.018638 0.890000
-0.011167 0.024693 0.868000
0.036224 0.003959 0.865000
-0.024471 0.021552 0.871000
0.033810 0.012889 0.867000
0.038224 0.014366 0.870000
-0.020265 -0.015358 0.891000
0.014657 0.001842 0.874000
0.043138 0.011118 0.868000
-0.042520 0.013460 0.881000
0.015482 -0.006476 0.880000
0.035243 0.021315 0.876000
-0.012930 -0.007290 0.891000
0.016912 -0.006469 0.879000
-0.005099 0.025795 0.869000
-0.029767 -0.002520 0.890000
-0.011525 0.024693 0.868000
0.001350 0.030690 0.876000
0.035512 0.009655 0.865000
-0.007796 -0.009491 0.891000
-0.004807 0.037392 0.881000
-0.021925 0.002227 0.884000
0.000272 0.005161 0.888000
0.007590 -0.015690 0.889000
0.045490 0.014399 0.872000
-0.022396 0.036015 0.874000
-0.031634 -0.002523 0.891000
-0.035301 -0.001790 0.891000
-0.016281 0.013353 0.874000
0.012670 -0.030952 0.886000
-0.011909 0.029047 0.870000
0.012028 0.015369 0.866000
-0.025390 0.040517 0.878000
-0.011551 0.016873 0.870000
0.004253 0.033727 0.880000
0.024454 0.025310 0.877000
-0.005094 0.018620 0.868000
-0.035668 -0.001056 0.891000
-0.021801 0.009088 0.879000
0.005637 0.024034 0.870000
0.010883 -0.028496 0.889000
-0.018692 -0.000686 0.886000
-0.031926 0.028656 0.869000
-0.014449 0.015835 0.872000
0.024175 0.015387 0.867000
-0.024499 0.034856 0.872000
-0.018692 -0.001050 0.886000
0.010529 -0.020103 0.890000
-0.030201 -0.005096 0.892000
-0.000449 0.015762 0.868000
0.010920 -0.024187 0.892000
-0.023671 -0.016532 0.895000
-0.016281 0.014432 0.874000
0.000272 -0.016074 0.890000
0.020844 -0.006815 0.877000
-0.010258 0.005852 0.882000
-0.017312 -0.016806 0.890000
0.018444 0.011805 0.866000
0.000272 -0.021885 0.888000
-0.031302 -0.005463 0.892000
0.038405 0.011092 0.866000
-0.007796 -0.014258 0.891000
0.028523 0.001116 0.869000
0.041059 -0.027750 0.877000
0.040187 0.000756 0.866000
-0.023142 0.037497 0.875000
0.039748 -0.006776 0.872000
-0.038364 -0.004371 0.894000
-0.013043 0.012993 0.874000
-0.001544 0.036304 0.881000
-0.027370 0.021218 0.872000
-0.019898 -0.016825 0.891000
0.028018 -0.023686 0.887000
-0.040204 -0.006947 0.894000
-0.043721 0.020955 0.876000
-0.025089 -0.008409 0.893000
-0.019385 0.027551 0.868000
0.011914 -0.033429 0.884000
-0.026980 0.022628 0.871000
0.040605 0.018410 0.875000
0.003860 0.027710 0.873000
0.027323 0.011435 0.865000
-0.043113 0.027288 0.871000
0.000980 0.015047 0.868000
0.032173 -0.003183 0.871000
-0.023835 0.036735 0.874000
-0.024527 0.035974 0.873000
-0.012281 0.030156 0.871000
-0.022148 -0.010247 0.893000
0.023596 0.000043 0.872000
-0.024334 0.041286 0.879000
-0.039791 -0.009512 0.893000
0.013094 -0.028162 0.890000
0.014199 0.019335 0.868000
0.016096 0.025224 0.874000
0.027319 -0.023713 0.888000
0.009764 -0.010543 0.887000
0.017490 -0.028162 0.890000
0.013079 -0.028496 0.889000
-0.010872 0.012978 0.873000
0.034837 -0.021787 0.884000
0.009314 0.001491 0.879000
-0.039056 -0.011350 0.893000
-0.020310 -0.010615 0.893000
0.007241 -0.020492 0.891000
-0.002590 0.021453 0.867000
-0.010525 0.032778 0.874000
-0.005088 0.023238 0.867000
0.040613 -0.022852 0.883000
-0.027904 -0.001420 0.889000
0.027544 -0.002469 0.872000
-0.021415 0.039433 0.878000
-0.001164 0.023264 0.868000
0.013469 0.010748 0.867000
0.017833 0.003269 0.871000
-0.017720 0.014792 0.874000
-0.013857 0.039160 0.880000
0.001695 0.015047 0.868000
0.000624 0.011859 0.870000
0.016892 -0.006100 0.878000
-0.041056 0.025913 0.873000
-0.036565 -0.007323 0.895000
-0.033606 0.007693 0.885000
0.030881 0.021651 0.875000
-0.039891 0.016685 0.879000
0.019017 -0.003562 0.876000
0.034524 0.001470 0.867000
-0.029767 0.001509 0.890000
0.011860 -0.036538 0.880000
-0.039056 -0.010247 0.893000
0.039388 -0.018066 0.880000
0.001737 -0.018638 0.890000
-0.022834 0.038666 0.877000
0.008639 -0.005778 0.884000
0.017254 -0.006461 0.878000
-0.008776 0.008726 0.879000
0.034800 0.007163 0.865000
-0.025722 0.040110 0.877000
-0.042591 0.023452 0.875000
-0.042317 -0.007299 0.892000
0.038717 0.003603 0.865000
0.042045 -0.012922 0.875000
0.040475 -0.028570 0.880000
0.018800 0.011449 0.866000
0.027591 -0.017805 0.885000
0.003505 0.028461 0.874000
-0.007796 -0.013525 0.891000
-0.003028 -0.015358 0.891000
-0.030866 0.001143 0.890000
0.016493 -0.001759 0.876000
-0.016616 -0.013540 0.892000
0.031962 -0.029096 0.885000
-0.036401 -0.001056 0.891000
0.028586 -0.011936 0.882000
-0.017002 -0.012452 0.893000
0.040930 -0.026457 0.882000
0.022520 -0.000316 0.872000
-0.031456 0.007702 0.886000
0.039611 0.013277 0.869000
-0.001904 0.035900 0.880000
0.010411 -0.001043 0.880000
-0.026221 -0.010259 0.894000
0.025333 0.017947 0.870000
0.011367 0.022244 0.870000
0.009764 -0.010908 0.887000
0.010529 -0.027795 0.890000
-0.007952 0.020049 0.868000
0.014965 0.004345 0.871000
0.009935 0.008279 0.870000
-0.027935 -0.003985 0.890000
0.014540 0.010034 0.867000
-0.005595 -0.008757 0.891000
0.014379 -0.003213 0.879000
0.020693 -0.032411 0.886000
0.016059 0.022654 0.872000
-0.007246 0.017211 0.869000
0.012741 0.015726 0.866000
0.015610 0.010748 0.867000
-0.008876 -0.018617 0.889000
0.017655 -0.037262 0.880000
-0.035828 -0.008060 0.895000
-0.032036 0.023372 0.872000
0.019851 -0.038392 0.881000
0.018120 -0.016348 0.885000
0.002836 -0.018638 0.890000
0.028982 -0.015584 0.883000
0.036601 -0.008590 0.874000
0.014959 -0.041442 0.892000
-0.003319 0.028005 0.871000
-0.030065 0.005526 0.888000
-0.018691 0.022933 0.869000
0.008921 0.005451 0.876000
-0.032283 0.028656 0.869000
0.019321 -0.023400 0.890000
-0.011270 0.034656 0.876000
-0.029625 0.038938 0.875000
-0.002947 0.018955 0.867000
-0.040204 -0.007683 0.894000
0.020054 -0.023400 0.890000
0.015306 0.006130 0.870000
-0.019876 -0.006183 0.890000
-0.008309 0.018977 0.868000
0.028651 -0.017057 0.884000
0.026734 0.002189 0.869000
0.005767 -0.021568 0.890000
0.035868 0.008231 0.865000
0.004239 0.030725 0.877000
0.044307 -0.017283 0.877000
-0.010200 0.035417 0.877000
0.018484 -0.032739 0.885000
-0.021413 -0.013555 0.893000
0.046657 -0.016729 0.867000
0.032664 0.010011 0.865000
0.026255 0.009299 0.865000
0.015952 -0.016366 0.886000
-0.028349 0.031517 0.869000
0.040698 -0.014756 0.877000
-0.006236 0.009800 0.878000
0.016663 -0.015255 0.885000
0.042668 -0.009658 0.873000
-0.019137 0.016571 0.873000
-0.021911 0.029371 0.869000
0.016004 0.020072 0.869000
0.044875 -0.012187 0.874000
0.044057 0.006807 0.865000
-0.026561 0.030802 0.869000
0.006758 0.006173 0.876000
-0.030065 0.005161 0.888000
-0.027693 -0.011362 0.894000
0.044978 -0.018345 0.876000
0.035161 -0.021035 0.883000
0.014477 -0.015255 0.885000
-0.018162 0.038348 0.878000
0.026255 0.011079 0.865000
0.031669 0.013246 0.867000
0.017018 0.014300 0.866000
0.019870 0.011449 0.866000
0.033888 0.000043 0.869000
0.030765 -0.017381 0.882000
-0.019400 0.000044 0.885000
-0.019765 0.029729 0.869000
0.029676 -0.015203 0.882000
-0.016926 -0.004347 0.889000
-0.024772 0.030802 0.869000
-0.008676 0.017211 0.869000
0.006051 0.031844 0.878000
0.026075 -0.011949 0.883000
0.037748 -0.022878 0.884000
0.033344 -0.020308 0.883000
-0.013073 0.010860 0.876000
-0.023010 0.032628 0.870000
-0.038400 0.018112 0.878000
-0.020446 0.002951 0.883000
0.013531 0.022986 0.871000
0.036324 0.021315 0.876000
0.013890 0.022269 0.871000
0.012375 -0.027093 0.891000
0.012742 -0.026360 0.891000
-0.014332 0.000774 0.887000
-0.031172 0.015944 0.878000
-0.022626 0.024364 0.869000
0.006127 -0.025203 0.889000
0.003882 0.031844 0.878000
-0.016983 -0.013907 0.892000
-0.033664 0.017369 0.877000
0.019334 -0.001755 0.874000
-0.022390 -0.002515 0.888000
0.037278 -0.008221 0.873000
0.004663 -0.023008 0.889000
-0.015472 0.020072 0.869000
-0.009794 0.012619 0.873000
-0.003349 0.035136 0.879000
-0.038429 0.005885 0.887000
0.012194 -0.038984 0.878000
0.010700 0.005079 0.874000
-0.025101 0.026480 0.868000
0.018614 0.024504 0.874000
0.040521 -0.019537 0.881000
0.028619 -0.014493 0.883000
-0.028088 0.035215 0.872000
-0.022516 -0.010982 0.893000
0.025661 0.003262 0.869000
0.041152 -0.017322 0.879000
-0.028732 -0.005463 0.892000
0.014183 0.010034 0.867000
0.044562 -0.024409 0.861000
0.016835 -0.001037 0.875000
0.041161 0.003954 0.864000
0.010920 -0.024921 0.892000
0.008707 -0.024526 0.891000
-0.021195 0.023649 0.869000
-0.011193 0.016873 0.870000
-0.013763 0.012633 0.874000
0.040431 -0.032448 0.887000
0.009388 -0.008708 0.886000
0.029114 -0.029162 0.887000
0.030939 -0.026972 0.887000
-0.018777 -0.007649 0.890000
0.009044 -0.011652 0.888000
0.008688 0.001507 0.889000
0.011498 -0.001043 0.880000
0.048251 -0.013564 0.870000
0.006332 0.020383 0.867000
-0.018864 0.037583 0.877000
0.028095 -0.005739 0.878000
-0.008328 0.016514 0.870000
0.013485 0.020049 0.868000
-0.011322 0.008374 0.880000
0.020273 0.017548 0.868000
-0.020934 0.034896 0.873000
0.014892 -0.018596 0.888000
-0.001519 0.020026 0.867000
0.016343 0.018620 0.868000
-0.004119 -0.019714 0.889000
-0.027496 0.039703 0.876000
0.035162 -0.007871 0.874000
0.022466 -0.015238 0.884000
0.000979 0.021453 0.867000
-0.012563 -0.006924 0.891000
0.024286 0.019760 0.871000
-0.035388 0.008776 0.884000
-0.013648 -0.005084 0.890000
-0.047801 0.014995 0.865000
-0.025086 0.011271 0.880000
-0.030530 0.034060 0.870000
0.012947 -0.001767 0.880000
-0.015184 0.014416 0.873000
-0.004040 0.012246 0.872000
0.007759 0.014316 0.867000
-0.022627 0.003678 0.883000
0.029305 -0.001749 0.871000
-0.024695 0.012706 0.879000
-0.005158 0.035860 0.879000
0.010037 -0.039029 0.879000
0.045177 0.009310 0.866000
-0.015149 0.031231 0.871000
0.034186 -0.027306 0.886000
0.018955 -0.023766 0.890000
0.043445 0.010391 0.867000
0.000989 0.030690 0.876000
-0.029399 0.015238 0.879000
-0.010645 0.002954 0.884000
0.042375 -0.030289 0.867000
0.007607 -0.024159 0.891000
-0.001162 0.020740 0.867000
0.025333 0.018305 0.870000
0.013430 -0.029560 0.888000
0.042584 0.003599 0.864000
-0.003315 0.013292 0.870000
0.016006 -0.029228 0.889000
0.039611 -0.003176 0.869000
-0.017195 0.002591 0.884000
-0.008034 0.010872 0.877000
0.030704 -0.000315 0.870000
-0.011895 0.018641 0.869000
0.004297 -0.014226 0.889000
0.033495 -0.025511 0.887000
0.019603 0.020095 0.870000
0.026588 -0.023347 0.888000
0.015967 0.010748 0.867000
0.025959 0.005039 0.867000
0.018017 -0.009011 0.880000
-0.001521 0.016476 0.868000
-0.016736 0.008364 0.879000
-0.023248 0.009450 0.879000
-0.020456 0.028266 0.868000
-0.022314 0.000772 0.885000
0.005029 -0.022642 0.889000
-0.000449 0.020026 0.867000
-0.006696 -0.014991 0.891000
-0.006258 0.038117 0.881000
-0.040883 0.020979 0.877000
0.021295 0.014656 0.866000
0.035243 -0.010413 0.876000
0.039931 -0.026517 0.884000
-0.037177 -0.002159 0.892000
0.045287 -0.014722 0.875000
0.037736 0.012175 0.867000
0.030987 -0.010436 0.878000
-0.034667 0.020211 0.875000
0.042599 -0.018769 0.879000
0.019599 -0.032046 0.886000
-0.017598 0.024693 0.868000
0.005395 -0.016056 0.889000
0.012028 0.016795 0.866000
0.037465 -0.002461 0.869000
-0.048379 0.010773 0.869000
-0.034072 0.028656 0.869000
0.007965 -0.026696 0.890000
-0.017300 0.031948 0.871000
0.038112 -0.023970 0.884000
0.006843 -0.008353 0.887000
0.027955 -0.016348 0.885000
0.019444 -0.008278 0.879000
-0.009996 -0.009491 0.891000
0.008200 0.005812 0.876000
0.015916 -0.014510 0.884000
0.040544 0.000756 0.866000
-0.015376 0.003682 0.884000
0.019648 0.001838 0.872000
0.039831 0.010023 0.866000
0.009229 0.007571 0.871000
0.039886 -0.026850 0.883000
0.021320 0.007180 0.867000
-0.019027 0.027909 0.868000
0.040291 0.019513 0.876000
-0.004758 0.011887 0.872000
0.005761 -0.016787 0.889000
0.043746 -0.010018 0.873000
0.035319 -0.001388 0.869000
0.028287 -0.015601 0.884000
-0.038645 -0.001792 0.892000
-0.004409 0.030620 0.874000
-0.044320 -0.000322 0.888000
-0.023142 0.015169 0.875000
0.043853 0.011475 0.868000
0.009218 0.023318 0.870000
-0.021195 0.029729 0.869000
0.029988 -0.000315 0.870000
-0.024829 0.033741 0.871000
0.014177 -0.020446 0.889000
-0.036156 0.006600 0.885000
0.013953 0.026693 0.875000
0.039884 -0.011481 0.875000
0.025929 0.012518 0.866000
0.027186 0.019783 0.872000
0.026673 0.004682 0.867000
-0.001924 -0.019714 0.889000
0.042599 -0.018407 0.879000
-0.029165 0.035574 0.872000
0.016644 -0.013782 0.884000
0.018192 0.021552 0.871000
-0.037586 -0.012452 0.893000
-0.014598 0.040292 0.881000
0.007479 0.005812 0.876000
-0.031965 0.002608 0.890000
-0.045056 0.024308 0.867000
0.035718 -0.002464 0.870000
0.043323 -0.019131 0.879000
-0.028764 -0.012452 0.893000
-0.048982 0.008964 0.867000
-0.024354 -0.009144 0.893000
0.034600 0.023532 0.878000
-0.021365 -0.015725 0.891000
0.027711 0.006459 0.866000
0.021517 -0.003558 0.875000
-0.025332 0.038982 0.876000
0.043387 0.015853 0.873000
0.013294 -0.001042 0.879000
0.038488 -0.012576 0.876000
-0.006538 0.014724 0.870000
-0.043261 0.023425 0.874000
-0.004862 -0.012791 0.891000
0.019334 -0.000676 0.874000
-0.015097 0.027551 0.868000
0.007119 0.006173 0.876000
0.018171 0.020095 0.870000
0.010971 0.018955 0.867000
-0.027370 0.021936 0.872000
0.019671 0.000402 0.873000
0.028457 0.025339 0.878000
-0.040344 0.013822 0.881000
-0.031246 0.026183 0.870000
0.046261 -0.012533 0.873000
0.001712 0.032168 0.877000
0.020053 0.023425 0.874000
-0.020998 -0.007290 0.891000
0.043175 -0.014018 0.876000
0.000980 0.023264 0.868000
-0.017000 0.013713 0.874000
0.003851 0.025854 0.871000
0.001737 -0.010213 0.890000
0.031637 0.022037 0.876000
-0.034974 -0.003627 0.892000
0.022052 -0.013388 0.882000
-0.040291 0.026602 0.872000
-0.045885 0.005539 0.890000
0.005279 0.023676 0.870000
0.025779 0.021242 0.873000
0.038538 0.013634 0.869000
-0.025057 0.012344 0.879000
0.034109 -0.030519 0.884000
-0.043657 0.006215 0.882000
0.034837 -0.029791 0.884000
-0.040482 0.009867 0.884000
0.031745 -0.012619 0.879000
0.021320 0.007893 0.867000
0.011712 0.008985 0.869000
0.015359 0.024476 0.873000
0.009013 -0.031646 0.885000
0.015862 -0.009384 0.881000
-0.013572 0.002229 0.885000
0.031044 -0.031458 0.890000
0.012167 0.027805 0.876000
0.011779 0.004360 0.874000
-0.025089 -0.012452 0.893000
0.013874 0.021528 0.870000
0.047699 -0.010736 0.873000
-0.014235 0.036304 0.881000
0.033018 -0.030155 0.884000
-0.012239 0.020049 0.868000
-0.027998 -0.006564 0.892000
-0.041489 0.001875 0.890000
-0.025342 -0.003615 0.889000
0.026650 0.025339 0.878000
0.009282 0.004730 0.876000
-0.031337 -0.011717 0.893000
0.032026 0.002898 0.867000
-0.008520 -0.019737 0.890000
-0.032791 0.023039 0.873000
0.033849 0.001115 0.868000
-0.015544 0.015493 0.873000
0.042912 0.021003 0.878000
0.028457 0.005039 0.867000
0.002409 0.014690 0.868000
-0.015497 -0.008391 0.891000
0.033042 -0.008240 0.875000
-0.038982 0.011673 0.883000
0.009452 -0.022718 0.892000
-0.028249 0.015925 0.877000
-0.004851 -0.020446 0.889000
0.002470 -0.019004 0.890000
-0.031004 -0.008787 0.894000
0.026139 -0.002113 0.873000
0.009544 0.012889 0.867000
-0.026202 0.012735 0.881000
0.028748 0.008231 0.865000
-0.027414 0.007693 0.885000
-0.005955 -0.008015 0.890000
0.002470 -0.014608 0.890000
-0.017175 0.003314 0.883000
0.036324 -0.011855 0.876000
-0.042858 0.003333 0.888000
-0.043621 0.023785 0.874000
-0.030499 -0.001788 0.890000
0.042228 0.004666 0.864000
-0.026591 0.023676 0.870000
0.015253 0.017171 0.867000
0.014858 -0.016731 0.886000
0.041183 0.015476 0.872000
0.038494 0.012189 0.868000
-0.022601 0.043242 0.882000
0.009187 0.013246 0.867000
0.033042 0.021291 0.875000
-0.023637 0.008374 0.880000
0.035841 -0.006784 0.873000
0.010482 -0.040069 0.886000
0.040544 0.001468 0.866000
0.036707 0.013618 0.868000
-0.007237 0.025408 0.868000
-0.028206 0.003329 0.887000
0.006405 0.005458 0.877000
-0.043509 0.017409 0.879000
0.019400 -0.006093 0.877000
0.030346 -0.000673 0.870000
0.028035 0.009299 0.865000
-0.046087 0.017649 0.873000
-0.042317 -0.001424 0.892000
0.032180 -0.016636 0.881000
0.006874 -0.021959 0.891000
0.014523 0.015013 0.866000
-0.021659 -0.003246 0.888000
-0.011882 0.020049 0.868000
-0.040619 0.005520 0.887000
-0.049111 0.011054 0.863000
0.013906 0.023730 0.872000
0.035243 0.019873 0.876000
-0.001542 0.035538 0.880000
0.003887 0.033327 0.879000
0.024860 0.012518 0.866000
-0.005949 -0.018983 0.889000
0.000625 0.026571 0.871000
-0.036933 -0.006586 0.895000
0.004663 -0.010933 0.889000
-0.025845 0.025079 0.869000
0.004904 0.015744 0.867000
-0.003383 -0.020423 0.888000
-0.024167 0.018727 0.873000
0.028068 0.005746 0.866000
0.049080 -0.012160 0.872000
-0.039664 0.024145 0.874000
0.005401 -0.018638 0.890000
-0.044957 0.021936 0.872000
-0.030495 0.031517 0.869000
0.017772 0.007545 0.868000
-0.015323 0.006208 0.881000
-0.012197 -0.016458 0.891000
-0.026045 -0.001418 0.888000
-0.034296 0.008776 0.884000
-0.040118 0.009503 0.884000
0.043651 0.005377 0.864000
0.013733 -0.012327 0.884000
0.006743 0.027742 0.874000
-0.036851 -0.003999 0.893000
-0.039291 0.000777 0.890000
0.020099 0.025642 0.876000
0.005340 0.033727 0.880000
-0.017976 0.021145 0.869000
0.023637 -0.031718 0.887000
0.034916 -0.024753 0.886000
-0.020934 0.018009 0.873000
0.032345 0.003963 0.866000
-0.032841 0.009140 0.884000
-0.035828 -0.009165 0.895000
-0.019452 0.032307 0.871000
-0.008696 0.029081 0.871000
-0.017698 -0.015725 0.891000
-0.034699 0.006964 0.885000
-0.036426 0.028461 0.874000
-0.019898 -0.007657 0.891000
0.026618 -0.027398 0.889000
-0.028643 0.041601 0.878000
-0.039664 0.023785 0.874000
-0.052597 0.008121 0.892000
-0.019159 0.014792 0.874000
0.014065 -0.008669 0.882000
-0.044534 0.001501 0.885000
-0.025898 0.006585 0.883000
-0.015958 0.011220 0.876000
-0.017340 0.015134 0.873000
0.018550 0.020835 0.871000
0.025635 -0.033402 0.893000
-0.046233 0.018641 0.869000
0.037853 -0.015495 0.878000
0.043010 -0.020239 0.880000
-0.010597 0.008736 0.880000
-0.019246 0.010162 0.878000
0.018087 0.011449 0.866000
0.048553 -0.014264 0.869000
-0.006329 -0.013158 0.891000
-0.041747 0.015618 0.880000
-0.050176 0.008922 0.863000
-0.022396 0.016950 0.874000
0.040567 -0.021737 0.882000
-0.035707 0.022706 0.874000
-0.017312 -0.008015 0.890000
0.007402 0.019669 0.867000
-0.012577 -0.013540 0.892000
-0.036361 -0.000322 0.890000
0.010435 -0.034443 0.882000
0.014858 -0.031317 0.886000
-0.043471 0.026930 0.871000
-0.033395 0.027615 0.870000
0.030367 -0.015186 0.881000
0.004668 -0.016806 0.890000
-0.027634 0.026510 0.869000
0.020054 -0.028528 0.890000
0.001700 0.025854 0.871000
-0.038732 -0.004739 0.894000
-0.041761 0.004430 0.888000
0.021802 0.001120 0.872000
0.016399 0.004703 0.871000
-0.041629 -0.007307 0.893000
0.003127 0.013277 0.869000
0.031419 -0.013720 0.880000
-0.048883 0.017720 0.859000
-0.031965 0.002974 0.890000
0.007929 -0.008343 0.886000
0.020226 0.014300 0.866000
-0.012210 -0.015008 0.892000
-0.011777 -0.001416 0.887000
0.014461 -0.012327 0.884000
-0.023503 0.036777 0.875000
-0.032367 0.012009 0.881000
0.032383 0.003611 0.867000
0.006492 -0.012031 0.889000
-0.002605 0.028037 0.872000
0.019603 0.004698 0.870000
0.018140 -0.032046 0.886000
-0.041629 -0.003631 0.893000
0.014909 -0.019714 0.889000
0.019343 -0.024893 0.891000
-0.046752 0.015476 0.872000
0.018870 -0.018554 0.886000
-0.019969 0.038710 0.878000
0.033306 -0.018833 0.882000
0.020099 -0.004644 0.876000
-0.010742 -0.015375 0.892000
-0.013480 0.038030 0.879000
-0.014015 -0.017539 0.890000
-0.026410 -0.001053 0.888000
-0.018411 -0.016440 0.890000
0.024732 -0.032448 0.887000
0.048609 -0.013922 0.870000
0.019716 0.024532 0.875000
0.020773 0.023425 0.874000
0.003953 -0.024977 0.894000
-0.031669 -0.013173 0.892000
-0.029917 0.020883 0.873000
-0.006530 0.026152 0.869000
-0.014349 -0.001053 0.888000
0.033415 0.011092 0.866000
0.037997 0.017649 0.873000
-0.014030 -0.008024 0.891000
-0.009738 0.020049 0.868000
-0.006322 -0.007649 0.890000
-0.019496 0.016931 0.873000
0.003927 -0.008362 0.888000
0.001704 0.027710 0.873000
0.002406 0.018599 0.867000
0.024450 -0.025231 0.890000
0.023596 0.020859 0.872000
0.022110 0.019379 0.870000
0.018087 0.016082 0.866000
0.032326 -0.021811 0.885000
-0.002292 -0.010213 0.890000
0.017876 -0.027827 0.891000
0.007241 -0.022326 0.891000
0.039795 -0.028965 0.881000
-0.007246 0.026868 0.869000
0.027544 -0.001751 0.872000
0.016324 0.010748 0.867000
-0.043759 -0.009576 0.899000
-0.020857 0.000044 0.885000
0.042668 -0.009299 0.873000
0.009753 -0.031317 0.886000
-0.042853 0.025195 0.873000
-0.001926 -0.009846 0.890000
0.017977 -0.006461 0.878000
-0.040159 -0.001794 0.893000
0.008668 -0.029892 0.887000
0.027042 0.026453 0.879000
0.013127 0.010046 0.868000
0.039615 -0.013673 0.877000
-0.043196 0.014169 0.880000
0.018822 0.009321 0.867000
-0.031162 0.005161 0.888000
0.019870 0.015013 0.866000
0.039785 0.002535 0.865000
0.015309 -0.024159 0.891000
-0.014030 -0.015725 0.891000
0.027257 -0.016001 0.886000
0.013203 0.024476 0.873000
-0.027019 0.006593 0.884000
0.031276 0.012518 0.866000
-0.029099 -0.013907 0.892000
-0.018355 0.020453 0.870000
0.030881 0.020211 0.875000
-0.019407 0.022933 0.869000
-0.045623 0.020118 0.871000
0.010163 -0.019370 0.890000
0.010269 0.011118 0.868000
0.009430 -0.020103 0.890000
0.023569 0.001118 0.871000
-0.007586 0.022881 0.867000
-0.024029 0.029338 0.868000
0.010553 -0.025655 0.892000
-0.005595 -0.016092 0.891000
-0.008716 0.012978 0.873000
0.043027 0.016571 0.873000
0.036087 0.023559 0.879000
0.038717 0.005027 0.865000
0.014199 0.020049 0.868000
0.035512 0.009299 0.865000
-0.010212 0.010162 0.878000
0.038155 -0.026182 0.885000
-0.008395 0.034695 0.877000
0.014363 -0.000679 0.878000
-0.031604 0.026183 0.870000
-0.019385 0.023622 0.868000
-0.019488 -0.005079 0.889000
-0.038269 0.022011 0.875000
-0.028773 0.013112 0.882000
-0.033151 0.031662 0.873000
-0.027809 0.004055 0.886000
0.007813 0.026273 0.873000
-0.007665 0.033213 0.876000
0.018785 -0.039888 0.882000
-0.033455 0.012735 0.881000
0.030520 0.020211 0.875000
0.017874 0.023398 0.873000
0.021295 0.010736 0.866000
0.035512 0.008231 0.865000
0.011887 -0.034806 0.882000
0.037130 0.022448 0.878000
-0.047823 0.018073 0.859000
0.002798 0.032567 0.878000
0.017195 -0.002118 0.875000
-0.020284 0.013023 0.876000
0.036128 -0.017342 0.880000
-0.035348 0.009129 0.883000
-0.020763 0.042468 0.881000
-0.011830 -0.016458 0.891000
0.012111 0.024448 0.872000
0.022520 0.000402 0.872000
-0.010465 0.027941 0.869000
0.022252 -0.028528 0.890000
-0.039203 0.004795 0.888000
-0.013679 -0.013907 0.892000
-0.028839 0.020165 0.873000
-0.006920 0.030585 0.873000
0.037193 -0.004259 0.871000
-0.039755 0.020955 0.876000
-0.011830 -0.010224 0.891000
-0.044394 0.026837 0.868000
0.029406 0.020907 0.874000
0.019761 -0.005010 0.877000
0.014363 0.029314 0.878000
0.016096 0.001122 0.874000
-0.001193 -0.009846 0.890000
0.007119 0.029247 0.876000
-0.026958 0.012023 0.882000
0.007947 -0.012017 0.888000
0.035156 0.006095 0.865000
-0.020574 0.034537 0.873000
0.026468 -0.002110 0.872000
0.023237 0.020500 0.872000
-0.001194 -0.017192 0.891000
0.015592 0.013587 0.866000
0.012829 0.024089 0.872000
0.033042 -0.008600 0.875000
0.029081 -0.029858 0.886000
0.045955 0.016590 0.874000
0.033306 -0.018470 0.882000
0.002068 0.008326 0.875000
-0.017976 0.029014 0.869000
0.018547 -0.029926 0.888000
0.007956 -0.017885 0.889000
-0.034867 0.025496 0.871000
0.007974 -0.020126 0.891000
0.011287 -0.024921 0.892000
-0.004026 0.015065 0.869000
-0.013480 0.009088 0.879000
-0.001524 0.013650 0.870000
-0.034355 -0.007323 0.895000
0.046549 -0.019894 0.865000
-0.013342 0.018305 0.870000
0.019223 0.019357 0.869000
0.009023 -0.008343 0.886000
0.016409 -0.027460 0.891000
-0.016393 0.036987 0.880000
0.021295 0.012161 0.866000
0.042815 -0.013657 0.876000
-0.003660 0.019669 0.867000
0.027310 0.023839 0.876000
-0.008529 -0.020126 0.891000
0.013354 -0.009042 0.883000
0.031637 -0.007889 0.876000
-0.005088 0.020026 0.867000
0.033287 -0.004623 0.872000
0.038048 0.010379 0.866000
0.013811 -0.020080 0.889000
0.043546 0.012561 0.869000
-0.007429 -0.009124 0.891000
0.024314 0.020500 0.872000
0.019311 0.023039 0.873000
-0.042906 0.002605 0.889000
0.012375 -0.021592 0.891000
0.018444 0.016082 0.866000
0.009324 -0.036538 0.880000
0.019343 -0.025260 0.891000
0.015240 -0.017115 0.887000
-0.010489 0.015458 0.871000
-0.015148 -0.011704 0.892000
-0.034490 0.003337 0.889000
-0.005094 0.024336 0.868000
-0.020668 0.011594 0.877000
0.011641 -0.026360 0.891000
-0.028152 0.037454 0.874000
0.040245 0.018770 0.875000
0.041969 0.009666 0.866000
0.013339 -0.034806 0.882000
-0.051000 0.015458 0.871000
0.043095 -0.025089 0.860000
0.031312 -0.007176 0.877000
-0.043785 -0.008033 0.892000
0.013857 -0.024554 0.892000
-0.018411 -0.006183 0.890000
0.040419 -0.030070 0.871000
-0.028015 0.013822 0.881000
0.002440 0.033689 0.879000
-0.015846 -0.005451 0.890000
0.012584 -0.002130 0.880000
-0.001906 0.036666 0.881000
0.019915 0.006831 0.868000
-0.016564 0.019737 0.870000
0.039164 -0.011841 0.875000
0.047014 -0.016729 0.867000
-0.013118 0.038030 0.879000
-0.022371 0.035256 0.873000
0.045390 0.018813 0.877000
0.009731 -0.033066 0.884000
0.008850 0.022576 0.869000
0.033732 0.010367 0.865000
0.037748 -0.028700 0.884000
-0.014944 0.039885 0.880000
-0.026530 0.028266 0.868000
0.030987 -0.010075 0.878000
-0.020238 0.034936 0.874000
0.040544 0.010023 0.866000
-0.016923 0.030121 0.870000
-0.030916 0.013460 0.881000
-0.027697 0.022628 0.871000
-0.033064 0.000044 0.890000
0.005261 0.016458 0.867000
0.031491 -0.018107 0.882000
-0.026595 0.012023 0.882000
-0.003757 -0.013509 0.890000
0.014232 0.006488 0.870000
-0.009273 -0.015375 0.892000
0.019783 -0.007184 0.878000
0.006858 -0.014226 0.889000
0.040466 -0.003187 0.872000
0.027373 0.025701 0.878000
-0.011476 -0.012806 0.892000
-0.021390 0.012316 0.877000
0.000628 0.031411 0.876000
0.046567 -0.011083 0.872000
-0.000810 0.010810 0.872000
0.033457 -0.028035 0.886000
0.016114 -0.001037 0.875000
-0.034645 -0.012085 0.893000
-0.026949 0.024392 0.870000
0.007876 -0.036538 0.880000
0.032469 0.019941 0.879000
-0.019014 0.001499 0.884000
0.031854 -0.017744 0.882000
0.014896 0.017171 0.867000
0.031709 -0.010436 0.878000
-0.036660 0.027647 0.871000
-0.020857 0.001136 0.885000
-0.023726 0.022244 0.870000
-0.021197 0.001863 0.884000
-0.036744 0.023758 0.873000
0.018222 -0.023033 0.890000
-0.027264 -0.014641 0.892000
0.008125 0.021835 0.868000
-0.012983 0.018663 0.870000
0.041467 -0.016941 0.878000
0.019245 0.020095 0.870000
-0.011360 0.004768 0.883000
-0.015812 0.023264 0.868000
-0.039791 -0.009880 0.893000
-0.026103 -0.003619 0.890000
-0.047823 0.018427 0.859000
0.012713 -0.028862 0.889000
-0.012785 0.040292 0.881000
-0.028764 -0.007307 0.893000
-0.010718 -0.017539 0.890000
-0.014025 0.025765 0.868000
-0.012128 0.000044 0.886000
-0.011463 -0.006924 0.891000
-0.008144 -0.005445 0.889000
-0.035873 0.004790 0.887000
-0.004374 0.018599 0.867000
0.023894 -0.013403 0.883000
-0.026591 0.032986 0.870000
-0.021776 0.010523 0.878000
-0.035870 0.017389 0.878000
0.011995 -0.021202 0.890000
0.022152 -0.019283 0.886000
0.041872 0.003954 0.864000
0.022542 -0.034273 0.887000
-0.037670 -0.005850 0.895000
0.011275 -0.021959 0.891000
-0.019831 -0.003611 0.888000
-0.026927 -0.008042 0.893000
0.035319 0.014349 0.869000
0.009786 -0.028130 0.889000
-0.015704 0.041427 0.882000
0.026407 0.001833 0.870000
-0.037375 0.003333 0.888000
0.045183 -0.011096 0.873000
0.028165 0.016853 0.869000
0.034167 0.012532 0.867000
-0.017440 0.009078 0.878000
-0.033430 0.000410 0.890000
0.023488 0.005759 0.868000
-0.004022 0.023979 0.868000
-0.038149 0.002605 0.889000
0.040853 0.002179 0.865000
-0.009413 0.029081 0.871000
0.006051 0.004018 0.878000
0.027123 0.000759 0.870000
-0.013449 0.010150 0.877000
0.021927 0.025671 0.877000
0.026252 -0.025203 0.889000
-0.024752 0.008021 0.881000
-0.043509 0.010535 0.879000
-0.022268 0.023291 0.869000
0.020191 -0.010460 0.880000
0.031709 -0.010798 0.878000
0.027679 0.010723 0.865000
0.021034 -0.017440 0.885000
0.017595 0.027115 0.877000
0.013203 0.003996 0.873000
-0.015271 0.009439 0.878000
0.006712 0.009711 0.870000
0.022623 -0.005725 0.876000
0.041971 -0.024976 0.881000
-0.010810 0.020406 0.868000
-0.044031 0.022372 0.875000
-0.035902 0.027615 0.870000
0.038068 -0.030121 0.883000
0.039163 -0.000314 0.867000
-0.028707 0.026868 0.869000
0.007768 0.011475 0.868000
0.025857 -0.030657 0.888000
-0.043880 0.025525 0.872000
0.004553 0.022193 0.868000
0.020796 -0.003558 0.875000
-0.038794 0.005520 0.887000
-0.008656 0.023594 0.867000
-0.046091 0.008875 0.894000
0.035082 -0.004623 0.872000
-0.044797 0.004768 0.883000
0.007750 0.017508 0.866000
0.020076 0.024892 0.875000
0.020963 0.016814 0.867000
-0.047579 0.020950 0.861000
0.012656 -0.010884 0.885000
-0.011463 -0.011691 0.891000
0.024342 0.021961 0.873000
0.010152 -0.028496 0.889000
0.010602 0.015369 0.866000
-0.001165 0.024722 0.869000
0.011315 0.014300 0.866000
0.013158 0.007563 0.870000
0.028424 0.006102 0.866000
-0.021101 0.007649 0.880000
0.031455 -0.016636 0.881000
0.023062 -0.008639 0.879000
0.010859 -0.030257 0.887000
0.018359 -0.007554 0.879000
-0.026918 0.027583 0.869000
0.012022 -0.023452 0.892000
-0.016231 -0.016092 0.891000
0.001693 0.021453 0.867000
0.008698 -0.027429 0.890000
0.014017 -0.001042 0.879000
0.001696 0.013634 0.869000
0.009208 0.021860 0.869000
0.013324 -0.004670 0.881000
0.041467 0.021003 0.878000
-0.034386 0.017369 0.877000
0.005285 0.009364 0.871000
0.017415 0.007902 0.868000
-0.031677 0.012023 0.882000
0.010541 -0.020859 0.891000
-0.018819 -0.009501 0.892000
0.012222 -0.000681 0.880000
0.019533 -0.013403 0.883000
0.025573 0.014300 0.866000
-0.037093 0.001143 0.890000
-0.016225 0.017609 0.871000
0.009709 -0.039525 0.882000
0.028198 0.017947 0.870000
-0.009608 -0.003615 0.889000
0.021058 -0.018919 0.886000
0.027829 -0.010109 0.881000
0.026346 0.015762 0.868000
0.030528 0.008587 0.865000
0.014444 -0.010859 0.883000
-0.040209 0.007337 0.886000
0.035323 -0.013327 0.878000
-0.010363 -0.009857 0.891000
0.033860 -0.025511 0.887000
0.033762 0.020931 0.875000
0.035644 -0.012590 0.877000
0.034551 -0.025847 0.886000
0.038068 -0.021399 0.883000
-0.041676 -0.004371 0.894000
-0.034645 -0.012820 0.893000
0.013108 -0.023059 0.891000
0.033453 0.013603 0.867000
0.018222 -0.028162 0.890000
-0.036828 0.021291 0.875000
0.032532 -0.002108 0.871000
-0.043771 0.020618 0.877000
-0.022781 -0.003615 0.889000
-0.024666 -0.014625 0.891000
-0.022188 0.008012 0.880000
0.042717 -0.011468 0.874000
-0.028797 -0.011362 0.894000
0.033079 0.022037 0.876000
0.047285 0.013681 0.872000
0.031057 -0.014444 0.880000
0.015271 0.018977 0.868000
0.010908 -0.021592 0.891000
-0.020015 0.007287 0.880000
-0.031267 -0.003256 0.891000
-0.027264 -0.006197 0.892000
0.018150 0.005766 0.869000
0.023078 0.013587 0.866000
0.027743 0.005395 0.867000
-0.020810 0.003314 0.883000
-0.008163 -0.013158 0.891000
-0.011578 0.014040 0.872000
0.023088 -0.010098 0.880000
-0.024163 0.000408 0.886000
-0.042445 0.004790 0.887000
0.010920 -0.023819 0.892000
-0.043196 0.011996 0.880000
0.022597 -0.004278 0.875000
0.005401 -0.022667 0.890000
-0.038900 0.024476 0.873000
-0.029733 0.003703 0.889000
-0.018566 0.040247 0.880000
0.043175 0.018792 0.876000
0.024588 0.003620 0.869000
-0.032829 0.020907 0.874000
0.028424 0.005389 0.866000
-0.045884 0.016989 0.876000
-0.010363 -0.011324 0.891000
0.036241 -0.007871 0.874000
-0.009895 0.004763 0.882000
0.028351 -0.030588 0.886000
-0.011232 0.031662 0.873000
-0.045212 0.003318 0.884000
0.044413 0.006807 0.865000
-0.001559 -0.017905 0.890000
-0.007246 0.026152 0.869000
0.039565 -0.002101 0.868000
0.008107 0.015369 0.866000
0.011968 -0.018230 0.888000
0.002470 -0.012777 0.890000
0.022721 0.015013 0.866000
-0.027952 0.042372 0.879000
0.006696 0.021835 0.868000
0.037910 -0.005334 0.871000
0.007045 0.020383 0.867000
0.020868 -0.007184 0.878000
0.017675 -0.036579 0.881000
0.039793 -0.009299 0.873000
0.029877 -0.025175 0.888000
-0.027073 0.018029 0.874000
-0.026918 0.032590 0.869000
-0.037443 0.013097 0.881000
-0.034509 0.025496 0.871000
0.014193 -0.027795 0.890000
-0.037506 0.022346 0.874000
0.007607 -0.023426 0.891000
-0.020151 -0.000321 0.886000
-0.035024 0.008776 0.884000
0.022084 0.004335 0.869000
-0.043051 -0.005096 0.892000
0.004910 0.013618 0.868000
-0.028429 -0.008419 0.894000
-0.000093 0.031050 0.876000
-0.012998 0.030156 0.871000
0.027591 -0.015619 0.885000
0.010026 0.030037 0.878000
-0.010363 -0.008757 0.891000
0.041969 0.000756 0.866000
0.029479 -0.031352 0.887000
0.031098 -0.002466 0.871000
0.018233 0.000043 0.873000
0.017475 0.004345 0.871000
0.012756 -0.026022 0.892000
0.039119 -0.009669 0.874000
0.008473 0.013603 0.867000
0.024503 0.014300 0.866000
0.022721 0.008241 0.866000
0.014808 -0.011223 0.883000
-0.023341 0.030087 0.869000
0.034683 -0.003900 0.871000
-0.021173 0.002951 0.883000
0.027544 0.019783 0.872000
-0.045988 0.005918 0.892000
0.022747 0.016101 0.867000
-0.024084 0.032986 0.870000
-0.024772 0.024364 0.869000
-0.027050 0.005507 0.885000
-0.045215 0.010511 0.877000
0.008322 -0.005079 0.889000
0.008028 -0.039459 0.897000
-0.021528 0.025765 0.868000
0.026139 0.021242 0.873000
0.034484 0.010736 0.866000
0.041161 0.005377 0.864000
0.003834 0.020026 0.867000
0.002406 0.021453 0.867000
-0.044420 -0.004352 0.890000
0.037088 -0.012951 0.877000
0.013624 0.028198 0.877000
-0.029131 0.024062 0.871000
0.004297 -0.010567 0.889000
0.038361 0.004315 0.865000
0.013826 0.010391 0.867000
0.039831 0.000756 0.866000
-0.038472 0.004430 0.888000
0.024593 -0.011936 0.882000
0.012541 0.028920 0.877000
-0.021268 0.019424 0.872000
0.017142 -0.026360 0.891000
-0.018334 0.021860 0.869000
0.042790 -0.027953 0.861000
-0.003395 -0.015725 0.891000
-0.020678 -0.010982 0.893000
0.040567 -0.021011 0.882000
0.024148 -0.009001 0.879000
0.009314 -0.038667 0.879000
-0.040337 0.026273 0.873000
0.029146 -0.026637 0.888000
0.030919 0.005033 0.866000
0.014330 0.000764 0.876000
-0.010742 -0.013907 0.892000
0.037508 -0.003896 0.870000
-0.017678 -0.006183 0.890000
-0.036156 0.007693 0.885000
0.022567 -0.021885 0.888000
0.046567 -0.010724 0.872000
0.000272 -0.010945 0.890000
-0.010465 0.018641 0.869000
-0.030054 0.016647 0.877000
-0.006880 0.024693 0.868000
-0.012073 0.006578 0.882000
0.014017 -0.002127 0.879000
0.033732 0.007875 0.865000
0.011380 0.006496 0.871000
0.006127 -0.014226 0.889000
-0.008163 -0.017192 0.891000
-0.001559 -0.012777 0.890000
0.026923 -0.022956 0.887000
0.039839 0.018029 0.874000
-0.020331 0.010162 0.878000
-0.040848 -0.009501 0.892000
-0.016393 0.006563 0.880000
-0.044283 0.016704 0.880000
0.011550 -0.006869 0.884000
0.008473 0.019312 0.867000
0.032943 -0.017744 0.882000
-0.029566 0.010231 0.884000
-0.005457 0.026510 0.869000
0.030264 0.024616 0.878000
0.019513 0.015726 0.866000
-0.024299 -0.015358 0.891000
-0.029235 0.009150 0.885000
-0.012625 0.018663 0.870000
0.026408 -0.010121 0.882000
-0.006688 -0.007282 0.890000
-0.029064 0.031875 0.869000
-0.027073 0.018749 0.874000
0.004668 -0.021202 0.890000
0.021752 0.003624 0.870000
-0.018713 0.031196 0.870000
-0.004802 0.036263 0.880000
-0.032331 -0.001055 0.890000
0.037449 -0.012951 0.877000
-0.019208 -0.010982 0.893000
0.026588 -0.024078 0.888000
0.035846 -0.031861 0.891000
-0.019742 0.002227 0.884000
0.031962 -0.030189 0.885000
0.035964 -0.011494 0.876000
-0.004022 0.016834 0.868000
0.036200 -0.007502 0.873000
-0.020456 0.028623 0.868000
0.039298 -0.015857 0.878000
0.020366 0.021577 0.872000
0.024258 0.002191 0.870000
-0.040072 0.011673 0.883000
0.004297 -0.021544 0.889000
0.043224 -0.015117 0.877000
-0.011525 0.021835 0.868000
0.012584 0.031554 0.880000
0.042142 0.020618 0.877000
0.041656 -0.022463 0.882000
0.016873 0.027476 0.877000
0.026193 -0.022591 0.887000
0.016758 0.021552 0.871000
0.010106 -0.031646 0.885000
0.020328 -0.032046 0.886000
0.025799 -0.015272 0.886000
-0.044103 -0.002156 0.891000
-0.046678 0.023513 0.864000
-0.043540 0.002964 0.887000
0.009731 -0.006142 0.884000
-0.015812 0.024336 0.868000
-0.004862 -0.015358 0.891000
0.035969 -0.023997 0.885000
0.002075 0.005464 0.878000
0.032026 0.003254 0.867000
-0.046980 0.019223 0.863000
-0.009738 0.019335 0.868000
-0.019385 0.028266 0.868000
-0.014106 0.032022 0.873000
-0.003303 0.018955 0.867000
0.036407 -0.014050 0.878000
0.023542 0.002191 0.870000
-0.011386 0.002229 0.885000
0.022983 -0.005004 0.876000
0.026229 0.024200 0.876000
-0.015393 0.001865 0.885000
0.007938 -0.009448 0.887000
0.005261 0.020740 0.867000
0.009084 -0.024187 0.892000
-0.002246 0.028396 0.872000
-0.016736 0.039116 0.879000
0.017736 -0.014874 0.884000
-0.029900 -0.011362 0.894000
0.033117 0.022784 0.877000
-0.021220 0.021169 0.870000
-0.024223 0.015889 0.875000
-0.039836 -0.007315 0.894000
0.014232 0.021886 0.870000
0.018486 0.018620 0.868000
0.011615 -0.028862 0.889000
-0.018313 0.028266 0.868000
0.033762 -0.009320 0.875000
-0.023341 0.031160 0.869000
0.027576 0.020524 0.873000
0.031709 0.024255 0.878000
0.009420 -0.028496 0.889000
-0.010363 -0.006924 0.891000
-0.025853 -0.011730 0.894000
-0.001559 -0.010213 0.890000
-0.009159 0.038842 0.881000
-0.010810 0.023979 0.868000
-0.001519 0.022524 0.867000
-0.000805 0.018955 0.867000
-0.026263 0.021911 0.871000
-0.004379 0.025051 0.868000
0.031304 -0.025876 0.887000
0.001336 0.016101 0.867000
0.024831 0.010723 0.865000
0.005261 0.017171 0.867000
0.038839 -0.026880 0.884000
-0.024499 0.034497 0.872000
-0.014764 -0.008757 0.891000
0.020443 -0.025993 0.891000
-0.048883 0.018781 0.859000
-0.003669 0.025437 0.869000
0.029732 0.019805 0.873000
0.020145 -0.007907 0.878000
-0.002593 0.016834 0.868000
0.029850 0.006459 0.866000
0.008932 0.029642 0.877000
-0.037865 0.023425 0.874000
-0.025303 0.016609 0.875000
0.035197 0.010736 0.866000
0.014758 0.030830 0.880000
0.028063 -0.005010 0.877000
0.015306 0.005414 0.870000
0.028781 -0.026637 0.888000
0.033849 0.000400 0.868000
-0.022037 0.016231 0.874000
-0.021885 0.027909 0.868000
0.024843 -0.007907 0.878000
0.012055 0.010760 0.868000
0.036615 -0.030121 0.883000
-0.024029 0.027551 0.868000
0.005029 -0.023739 0.889000
0.017066 -0.030987 0.887000
-0.027339 0.034099 0.871000
-0.048232 0.019864 0.860000
-0.047878 0.017387 0.860000
