-0.028270 -0.031057 0.889000
-0.047165 -0.008940 0.873000
-0.037763 -0.022775 0.880000
-0.024140 -0.002110 0.872000
-0.015455 0.007188 0.868000
0.004904 0.033943 0.867000
-0.005199 -0.016001 0.886000
0.039969 -0.012118 0.869000
-0.007568 0.022472 0.865000
0.020891 -0.001404 0.879000
-0.017718 -0.031162 0.892000
-0.010165 0.029181 0.874000
0.028100 0.019312 0.867000
-0.040299 -0.017704 0.880000
0.029747 0.024906 0.863000
-0.047993 -0.014722 0.875000
-0.046752 0.002196 0.872000
0.020986 -0.010859 0.883000
-0.047524 -0.008221 0.873000
-0.003999 0.023130 0.863000
-0.015149 0.002552 0.871000
0.043746 0.017225 0.852000
-0.015994 -0.008991 0.878000
-0.003643 0.017802 0.863000
-0.008135 -0.023347 0.888000
-0.040161 -0.012951 0.877000
-0.028512 0.016590 0.874000
0.026438 -0.010859 0.883000
-0.001874 0.012161 0.866000
0.037235 -0.012518 0.872000
0.023571 0.036062 0.858000
0.021552 0.025232 0.862000
-0.007039 -0.023347 0.888000
-0.009024 0.025051 0.868000
-0.031279 -0.017724 0.881000
-0.001530 0.007589 0.873000
-0.011425 -0.024444 0.888000
-0.001874 0.013231 0.866000
-0.036356 -0.018812 0.881000
-0.015132 0.003266 0.870000
0.038214 0.004018 0.878000
0.032034 0.007984 0.877000
-0.026414 0.019873 0.876000
0.016604 0.038048 0.863000
0.035363 0.001129 0.879000
0.036005 0.004375 0.877000
0.010340 0.038893 0.874000
-0.035584 -0.003900 0.871000
0.027860 -0.004676 0.882000
-0.048812 -0.019516 0.864000
0.005225 0.026266 0.861000
0.013826 0.015387 0.867000
-0.037865 -0.007871 0.874000
0.018316 0.036500 0.860000
-0.039886 0.005779 0.871000
0.021099 0.034297 0.858000
-0.022652 0.002191 0.870000
-0.024414 0.015065 0.869000
0.034395 -0.003587 0.882000
-0.011578 0.026243 0.872000
0.017234 0.029741 0.859000
-0.035911 0.016685 0.879000
0.037680 0.009396 0.874000
0.006463 -0.015983 0.885000
0.028095 -0.015134 0.878000
0.004876 0.027361 0.862000
-0.011347 -0.009032 0.882000
-0.001874 0.028201 0.866000
-0.008982 0.014623 0.864000
-0.012785 -0.010472 0.881000
0.019112 0.021023 0.864000
-0.014030 -0.031127 0.891000
-0.033568 -0.026517 0.884000
-0.024381 -0.038223 0.894000
-0.014808 0.024448 0.872000
0.008060 0.025912 0.861000
0.004647 -0.019648 0.886000
0.015820 0.031508 0.859000
0.034840 0.021785 0.866000
-0.004409 0.033497 0.874000
-0.043014 -0.026067 0.869000
-0.015358 -0.017401 0.883000
0.007462 0.007957 0.874000
-0.011154 0.022524 0.867000
-0.019696 0.011805 0.866000
-0.008796 -0.006483 0.881000
-0.013621 0.012503 0.865000
0.004899 0.032834 0.866000
0.008144 0.011501 0.870000
0.028424 0.020359 0.866000
0.030367 -0.010472 0.881000
0.041781 -0.003927 0.877000
-0.035104 0.004330 0.868000
-0.037649 0.001116 0.869000
-0.004114 -0.022616 0.888000
-0.032077 -0.030848 0.883000
0.011631 0.020289 0.863000
0.009187 0.013603 0.867000
0.004273 -0.007961 0.884000
0.012642 -0.012327 0.884000
-0.017350 -0.032998 0.892000
-0.006508 0.012518 0.866000
0.011458 0.004375 0.877000
-0.028088 0.015476 0.872000
-0.031350 -0.021399 0.883000
0.024758 0.006165 0.875000
-0.031462 -0.009331 0.876000
0.038361 0.027100 0.865000
-0.043098 -0.015495 0.878000
0.011900 -0.005044 0.883000
0.010198 0.033037 0.862000
0.022210 0.027651 0.860000
0.039660 0.004741 0.878000
0.026874 0.026651 0.862000
-0.024167 0.019087 0.873000
0.010822 -0.009780 0.884000
-0.002581 0.026002 0.864000
-0.019466 -0.026271 0.888000
-0.005420 0.021354 0.863000
-0.035549 -0.026367 0.879000
0.036685 -0.008970 0.876000
0.025290 -0.004670 0.881000
-0.013605 0.014623 0.864000
0.013718 -0.007225 0.883000
-0.011950 0.027351 0.873000
-0.019510 -0.035488 0.890000
0.024314 0.014399 0.872000
0.005637 0.036925 0.870000
0.026905 0.024551 0.863000
-0.004105 -0.012719 0.886000
0.038582 0.016514 0.870000
-0.021677 -0.003914 0.874000
0.032906 -0.002495 0.881000
-0.010669 -0.021107 0.886000
0.022778 -0.005402 0.882000
-0.019992 -0.011895 0.879000
-0.024244 -0.035448 0.889000
0.011972 0.022749 0.862000
-0.001164 0.030409 0.868000
-0.022011 -0.002831 0.873000
0.018785 -0.006491 0.882000
0.028851 0.000405 0.879000
-0.046340 0.000402 0.871000
0.041935 0.022643 0.858000
0.016059 0.008657 0.872000
0.006642 0.023077 0.861000
-0.001164 0.030052 0.868000
0.003102 0.026651 0.862000
0.021907 0.040843 0.862000
-0.028969 -0.029560 0.888000
-0.034867 -0.002825 0.871000
-0.035104 0.003615 0.868000
0.023571 0.033590 0.858000
0.029146 0.009428 0.877000
-0.045884 -0.018705 0.876000
-0.022781 -0.027398 0.889000
-0.027276 0.001831 0.869000
-0.027414 -0.022176 0.885000
-0.028904 -0.033140 0.886000
0.042045 0.008686 0.875000
-0.034826 0.017047 0.879000
-0.003745 -0.020035 0.887000
0.013158 0.011143 0.870000
0.036169 -0.003583 0.881000
-0.033167 -0.021762 0.883000
0.011725 0.039431 0.870000
-0.015885 0.023730 0.872000
-0.024195 0.019468 0.874000
-0.048353 -0.014002 0.875000
-0.042804 -0.006417 0.872000
0.013714 0.028359 0.860000
0.008163 0.038086 0.872000
-0.043671 0.007246 0.875000
0.020559 0.019980 0.865000
-0.007924 0.013571 0.865000
0.044343 0.015435 0.850000
-0.032679 0.010785 0.870000
0.037594 -0.012160 0.872000
-0.021366 -0.006807 0.876000
-0.034257 -0.023579 0.883000
-0.003741 -0.028035 0.886000
0.008639 -0.018148 0.884000
0.012991 -0.005044 0.883000
0.039923 -0.014247 0.868000
0.008163 0.010810 0.872000
-0.024001 0.007536 0.867000
-0.006485 0.020289 0.863000
-0.040161 -0.024502 0.877000
0.018401 0.020668 0.864000
-0.016583 0.021911 0.871000
0.018670 0.027651 0.860000
-0.027383 -0.020695 0.884000
0.039253 0.017926 0.869000
-0.022704 -0.018554 0.886000
-0.037822 0.009385 0.873000
-0.022024 -0.021154 0.888000
0.014808 -0.011949 0.883000
0.020260 -0.008679 0.883000
0.008779 0.031973 0.862000
-0.014731 -0.025935 0.889000
0.029676 -0.004313 0.882000
0.020600 -0.011936 0.882000
-0.047395 0.013142 0.884000
0.032137 -0.020009 0.870000
-0.005188 -0.010508 0.884000
0.021132 0.006158 0.874000
0.049121 0.008478 0.854000
0.000986 0.007589 0.873000
0.008088 0.018179 0.864000
0.017874 0.006511 0.873000
-0.020409 0.007884 0.866000
0.019017 0.003288 0.876000
0.030991 0.018263 0.868000
-0.020655 -0.033365 0.892000
-0.046499 0.004720 0.874000
-0.020608 -0.028894 0.890000
-0.002282 -0.013449 0.886000
-0.024687 0.009310 0.866000
-0.012169 -0.025935 0.889000
-0.008856 -0.021861 0.887000
0.002042 0.016401 0.864000
-0.032999 0.008985 0.869000
-0.019137 0.021961 0.873000
-0.028079 -0.015584 0.883000
-0.037081 -0.019900 0.881000
-0.001190 -0.022251 0.888000
-0.014381 -0.028162 0.890000
0.038896 0.017568 0.869000
-0.017638 -0.025906 0.888000
0.018359 -0.000680 0.879000
-0.014995 -0.017401 0.883000
0.023272 0.028359 0.860000
-0.012422 -0.008296 0.881000
-0.013148 -0.010472 0.881000
0.009720 -0.018491 0.883000
0.003188 -0.014178 0.886000
0.014808 -0.013040 0.883000
0.002766 0.012189 0.868000
-0.009906 -0.010859 0.883000
0.020099 0.002928 0.876000
0.015838 0.026589 0.860000
-0.043921 0.011634 0.880000
-0.018842 0.025281 0.876000
0.033135 0.018263 0.868000
0.035162 0.009036 0.874000
0.004282 -0.018554 0.886000
-0.018735 0.021194 0.871000
0.013005 -0.013055 0.884000
-0.007673 0.033973 0.877000
-0.042347 -0.003180 0.870000
0.008266 -0.020672 0.883000
-0.035503 0.005050 0.869000
0.019938 0.015065 0.869000
-0.039078 -0.013673 0.877000
0.004186 0.013944 0.866000
0.010651 0.040506 0.870000
-0.040522 -0.014395 0.877000
0.017690 0.039159 0.864000
-0.040476 0.010139 0.876000
-0.010177 0.030655 0.875000
-0.003749 -0.025175 0.888000
-0.012267 0.024750 0.870000
-0.027202 -0.036953 0.890000
-0.046606 -0.015460 0.876000
-0.002238 0.030444 0.869000
0.008414 0.028038 0.861000
-0.021220 0.018305 0.870000
0.039208 -0.014247 0.868000
-0.015994 0.028953 0.878000
-0.029814 0.000401 0.870000
0.010971 0.014316 0.867000
0.045902 0.004355 0.873000
-0.045264 0.001118 0.871000
-0.001524 0.031554 0.870000
-0.046393 0.002914 0.872000
0.033723 -0.013626 0.874000
-0.008982 0.014978 0.864000
-0.019696 0.014300 0.866000
-0.004470 -0.018554 0.886000
-0.013826 -0.002848 0.878000
0.012264 -0.015220 0.883000
-0.004835 -0.013813 0.886000
-0.024001 0.011462 0.867000
-0.011167 0.007902 0.868000
-0.014025 0.021478 0.868000
0.032284 0.010115 0.874000
0.037107 0.017926 0.869000
0.009013 -0.015619 0.885000
-0.019290 0.028294 0.880000
-0.002933 0.018158 0.863000
-0.045215 0.008345 0.877000
0.030039 -0.008669 0.882000
-0.020076 0.006466 0.867000
0.032928 -0.016466 0.872000
0.032469 -0.009725 0.879000
-0.025245 0.018009 0.873000
0.030987 0.006548 0.878000
-0.008982 0.016045 0.864000
0.010222 0.034537 0.864000
-0.014689 0.014639 0.865000
0.023894 -0.010859 0.883000
-0.004389 0.029763 0.870000
-0.003372 -0.011612 0.885000
-0.025786 0.005752 0.867000
-0.047306 -0.019629 0.869000
-0.039574 -0.022050 0.880000
0.014862 0.019268 0.865000
-0.005064 0.021710 0.863000
0.037939 0.001130 0.880000
0.004537 0.031372 0.865000
0.032868 -0.008649 0.880000
0.042641 0.020524 0.858000
0.023237 0.014040 0.872000
-0.005495 0.033536 0.875000
0.029146 -0.014756 0.877000
-0.018819 -0.032263 0.892000
0.038400 0.010835 0.874000
0.007813 0.041005 0.873000
0.018046 0.039515 0.864000
0.009676 0.002938 0.879000
-0.029422 0.011846 0.869000
-0.019608 -0.010075 0.878000
-0.004354 0.018158 0.863000
-0.033856 -0.019559 0.882000
-0.027904 -0.029228 0.889000
-0.032149 -0.023997 0.885000
-0.031641 -0.002825 0.871000
-0.005123 0.032381 0.873000
-0.023433 -0.017825 0.886000
-0.033205 -0.022878 0.884000
-0.017181 0.010723 0.865000
0.019533 -0.008315 0.883000
-0.003741 -0.015637 0.886000
-0.025708 -0.028862 0.889000
-0.017914 0.016082 0.866000
-0.038989 -0.009680 0.875000
0.008463 0.016082 0.866000
0.008620 -0.003587 0.882000
0.025690 0.032531 0.858000
-0.044442 -0.029050 0.862000
-0.030959 -0.003546 0.872000
-0.028079 -0.018128 0.883000
-0.019898 -0.030394 0.891000
0.025089 0.007597 0.874000
-0.023069 -0.018189 0.886000
-0.006315 -0.026301 0.889000
0.019046 0.025557 0.861000
-0.014397 -0.028927 0.891000
-0.025159 0.000759 0.870000
-0.017020 -0.003558 0.875000
0.036350 0.019692 0.868000
0.017354 0.040629 0.865000
-0.041796 -0.029897 0.866000
0.018150 0.012561 0.869000
-0.000823 -0.016731 0.886000
-0.020904 -0.020400 0.887000
-0.029828 -0.016636 0.881000
-0.032293 -0.012619 0.879000
0.030916 0.009778 0.876000
-0.013977 0.017132 0.865000
0.025838 0.007966 0.875000
-0.009974 -0.029960 0.889000
-0.048435 -0.017503 0.870000
0.015154 -0.016292 0.882000
0.023980 0.028359 0.860000
0.030276 0.017548 0.868000
-0.019854 -0.027764 0.889000
0.019938 0.013992 0.869000
-0.042014 -0.015495 0.878000
-0.025072 0.005039 0.867000
0.018670 0.028005 0.860000
0.001704 0.009026 0.873000
-0.039574 -0.021688 0.880000
0.020987 0.045414 0.868000
-0.031318 -0.003546 0.872000
-0.017893 0.013927 0.865000
0.013516 0.011143 0.870000
-0.006500 0.013571 0.865000
0.004282 -0.017825 0.886000
0.009367 -0.017784 0.884000
-0.021341 -0.029261 0.890000
0.019245 0.011501 0.870000
-0.021885 0.004687 0.868000
0.007351 0.024494 0.861000
0.022642 0.022775 0.863000
0.026550 0.024906 0.863000
-0.016564 0.003266 0.870000
0.032071 -0.010798 0.878000
0.032906 -0.007571 0.881000
-0.020446 -0.016674 0.883000
-0.010084 0.009321 0.867000
-0.029761 0.020303 0.879000
-0.044082 0.008336 0.876000
-0.040962 -0.004259 0.871000
-0.023863 -0.007159 0.875000
0.003553 -0.016366 0.886000
0.006673 0.016776 0.865000
-0.021173 -0.016674 0.883000
-0.024217 -0.036870 0.888000
-0.040299 -0.019153 0.880000
-0.020716 -0.012257 0.879000
-0.005211 -0.022982 0.888000
0.002459 -0.013813 0.886000
0.033193 -0.009001 0.879000
0.036366 -0.008259 0.877000
0.016880 0.031508 0.859000
0.006288 0.022368 0.861000
-0.013778 0.001124 0.875000
-0.024527 -0.003550 0.873000
0.034395 -0.005039 0.882000
0.038180 0.018641 0.869000
0.021350 -0.009042 0.883000
-0.026143 0.011105 0.867000
0.003807 0.023785 0.861000
-0.036385 -0.006065 0.873000
0.027702 0.003653 0.877000
-0.026622 0.015816 0.871000
0.043145 0.020077 0.854000
0.000271 -0.011990 0.886000
0.001728 -0.022904 0.885000
-0.041605 -0.014034 0.877000
-0.028740 -0.010835 0.881000
0.027404 -0.000680 0.879000
-0.030328 -0.023268 0.885000
0.003138 0.010451 0.872000
-0.004354 0.021710 0.863000
0.026589 0.006533 0.876000
-0.033189 -0.007511 0.874000
0.031989 0.024636 0.866000
0.004574 0.010451 0.872000
-0.025621 -0.020377 0.886000
-0.040837 0.010139 0.876000
0.022161 0.009016 0.872000
-0.040522 -0.024863 0.877000
-0.003315 0.030121 0.870000
-0.011471 0.016401 0.864000
-0.022024 -0.024809 0.888000
-0.047395 -0.002139 0.884000
-0.026293 0.016911 0.872000
-0.011142 0.021072 0.866000
0.019148 -0.006854 0.882000
-0.028872 0.016950 0.874000
0.000621 0.013587 0.866000
-0.027135 0.019152 0.876000
-0.024801 0.015440 0.870000
0.017057 0.013618 0.868000
0.030765 -0.005402 0.882000
-0.051361 -0.017758 0.865000
0.001001 -0.021130 0.887000
-0.030554 -0.016274 0.881000
0.040429 0.000767 0.879000
-0.027383 -0.015965 0.884000
-0.013177 -0.016311 0.883000
-0.026499 -0.037361 0.891000
-0.033664 -0.011146 0.877000
-0.008656 0.009321 0.867000
-0.002960 0.008647 0.871000
-0.032692 0.019602 0.880000
0.035041 -0.006838 0.880000
0.026348 -0.002130 0.880000
0.014776 0.031899 0.860000
-0.016067 -0.014840 0.882000
0.044693 0.015085 0.850000
-0.021776 0.024978 0.878000
0.023623 0.010822 0.873000
-0.027172 -0.028862 0.889000
-0.031385 -0.032338 0.884000
0.021602 0.022446 0.864000
0.039705 0.000405 0.879000
0.038538 0.017568 0.869000
-0.004835 -0.014543 0.886000
0.009003 -0.017057 0.884000
0.009522 0.017132 0.865000
0.013547 0.009016 0.872000
0.006658 0.020289 0.863000
-0.009013 0.008964 0.867000
0.008191 0.006526 0.875000
0.020436 0.003645 0.875000
-0.024555 -0.005353 0.874000
0.023900 0.018305 0.870000
0.021927 0.001126 0.877000
0.036076 -0.015712 0.870000
0.023759 -0.000318 0.878000
0.022262 0.002928 0.876000
0.029003 0.025942 0.862000
-0.002646 -0.028035 0.886000
-0.013999 -0.035082 0.889000
-0.023890 -0.007528 0.876000
-0.027383 -0.021059 0.884000
-0.033357 0.007912 0.869000
0.020915 0.019624 0.865000
-0.020838 0.017926 0.869000
0.020487 0.024877 0.862000
-0.005822 0.028689 0.870000
-0.015508 0.022986 0.871000
-0.017976 0.004693 0.869000
0.023598 0.030448 0.859000
0.003142 0.009026 0.873000
-0.023825 -0.024416 0.887000
0.004210 0.036609 0.871000
-0.047170 -0.025797 0.860000
-0.045264 -0.021825 0.871000
0.020076 0.004005 0.875000
-0.041432 0.014185 0.881000
-0.017320 0.023013 0.872000
-0.035067 -0.011494 0.876000
-0.001521 0.029695 0.868000
-0.034945 0.019283 0.882000
0.030955 0.019312 0.867000
0.011289 0.019601 0.864000
-0.001162 0.011462 0.867000
0.039660 -0.004654 0.878000
-0.052434 -0.012504 0.871000
0.003909 -0.007597 0.884000
0.003812 0.027006 0.862000
-0.029070 0.022137 0.880000
0.010003 0.005091 0.876000
-0.012422 -0.010109 0.881000
0.040021 0.004380 0.878000
0.000636 -0.015272 0.886000
0.011302 0.017844 0.865000
-0.041415 0.007229 0.873000
-0.040976 -0.017684 0.879000
-0.019466 -0.024078 0.888000
-0.035819 0.003258 0.868000
0.031854 -0.006128 0.882000
-0.046980 -0.022690 0.863000
-0.003311 0.009342 0.869000
-0.028284 0.006109 0.867000
-0.019924 -0.007168 0.876000
-0.028674 0.003973 0.868000
0.025740 -0.009416 0.884000
0.004229 0.040018 0.875000
-0.022037 -0.004274 0.874000
0.027711 0.020359 0.866000
-0.036149 -0.011494 0.876000
-0.044854 -0.000315 0.870000
-0.025004 -0.034023 0.890000
0.020416 0.029741 0.859000
0.011511 -0.002132 0.881000
-0.042705 0.001475 0.870000
0.023980 0.029067 0.860000
0.042815 0.008336 0.876000
-0.023460 -0.023321 0.887000
0.041304 0.020740 0.867000
-0.019203 -0.006447 0.876000
-0.007933 0.011449 0.866000
-0.050060 -0.021574 0.861000
-0.042231 -0.010761 0.875000
0.017294 0.024168 0.862000
0.029766 -0.017224 0.874000
0.010541 0.031936 0.861000
0.019851 -0.013373 0.881000
-0.017955 0.018977 0.868000
-0.023529 -0.007528 0.876000
0.036324 0.005812 0.876000
-0.005935 -0.028797 0.887000
-0.006568 0.004720 0.874000
-0.018460 0.024892 0.875000
-0.041605 0.010872 0.877000
-0.048123 0.012414 0.884000
0.039118 0.023211 0.866000
-0.011257 0.002564 0.875000
-0.014366 0.008607 0.867000
0.016569 -0.001405 0.880000
-0.043871 0.010535 0.879000
0.028949 -0.004313 0.882000
0.009123 0.023431 0.861000
-0.012183 0.014978 0.864000
0.021805 0.031472 0.858000
0.020366 0.008298 0.872000
-0.045570 -0.002822 0.870000
-0.027570 0.006823 0.867000
0.032644 -0.014346 0.874000
0.019491 0.041697 0.865000
0.011161 -0.003587 0.882000
-0.050060 -0.021220 0.861000
0.022161 0.010810 0.872000
-0.012909 0.018200 0.865000
-0.011777 -0.021861 0.887000
0.013718 -0.017764 0.883000
-0.049982 -0.013954 0.872000
-0.029098 0.012934 0.870000
0.026457 0.029775 0.860000
-0.018545 -0.010810 0.879000
-0.038125 -0.018428 0.880000
-0.003376 -0.028035 0.886000
-0.033341 -0.013327 0.878000
0.029113 -0.015460 0.876000
-0.030727 -0.030588 0.886000
-0.019115 -0.000675 0.872000
0.021957 0.022446 0.864000
-0.015445 -0.024444 0.888000
-0.045316 -0.006776 0.872000
0.036350 0.018263 0.868000
0.011752 0.042393 0.872000
0.001706 0.037814 0.874000
0.025711 -0.010859 0.883000
-0.019697 -0.016292 0.882000
-0.003319 0.008647 0.871000
0.041089 -0.012132 0.870000
-0.021727 0.023479 0.876000
0.042863 0.004375 0.877000
0.030834 -0.020695 0.884000
-0.027290 -0.011197 0.881000
0.040651 -0.007889 0.876000
-0.039529 -0.016598 0.879000
-0.039214 -0.004982 0.872000
-0.011485 0.012147 0.865000
0.013263 0.004736 0.877000
-0.007229 0.025022 0.867000
0.021477 0.029033 0.859000
0.012770 0.013261 0.868000
0.020963 -0.006128 0.882000
-0.011485 0.011791 0.865000
-0.039755 -0.025195 0.876000
-0.040962 0.005062 0.871000
-0.017221 0.007536 0.867000
0.013006 0.025882 0.860000
-0.046446 -0.019360 0.873000
0.025129 0.024551 0.863000
-0.034947 -0.006784 0.873000
0.020273 0.016476 0.868000
-0.022087 -0.007528 0.876000
0.033646 0.011887 0.872000
0.042815 0.002567 0.876000
-0.017400 -0.006086 0.876000
0.024370 0.009396 0.874000
0.016777 0.046341 0.872000
0.002456 -0.010884 0.885000
-0.036676 0.015256 0.880000
0.013339 -0.003587 0.882000
-0.036067 -0.008230 0.874000
0.037292 0.024252 0.865000
-0.040384 0.009036 0.874000
0.008275 -0.021059 0.884000
0.024617 0.017947 0.870000
0.000975 0.028491 0.864000
-0.044752 -0.011481 0.875000
-0.009619 -0.026330 0.890000
0.010933 0.019245 0.864000
0.007078 0.011156 0.871000
-0.027050 -0.020354 0.885000
0.042978 0.013681 0.872000
-0.022755 -0.026271 0.888000
0.039930 -0.006447 0.876000
-0.020539 -0.021130 0.887000
-0.046805 -0.009299 0.873000
-0.022984 0.003620 0.869000
-0.001172 0.035296 0.874000
0.031027 0.016138 0.869000
-0.026685 -0.021811 0.885000
0.036769 0.002934 0.878000
-0.010694 -0.033215 0.888000
-0.023142 -0.006799 0.875000
0.032432 -0.011159 0.878000
-0.035590 -0.016980 0.880000
-0.014366 0.007893 0.867000
-0.025033 -0.031494 0.891000
-0.006665 -0.029892 0.887000
0.016880 0.029741 0.859000
-0.014893 -0.002844 0.877000
0.032137 0.015440 0.870000
-0.022191 0.008954 0.866000
0.031745 0.001491 0.879000
0.015535 -0.011949 0.883000
0.021197 0.039778 0.862000
-0.020539 -0.020035 0.887000
0.006828 -0.017076 0.885000
-0.012770 -0.006476 0.880000
-0.046446 -0.009299 0.873000
0.013778 0.019601 0.864000
-0.007726 -0.009405 0.883000
0.020416 0.035751 0.859000
0.032853 -0.020367 0.870000
0.023569 0.016892 0.871000
-0.023288 0.006466 0.867000
0.024120 -0.000318 0.878000
-0.029131 -0.001032 0.871000
0.029732 -0.017922 0.873000
0.015154 -0.005039 0.882000
-0.045884 -0.018345 0.876000
0.043196 0.018693 0.855000
-0.003334 0.004725 0.875000
-0.022448 0.023118 0.876000
-0.019452 0.001118 0.871000
-0.015757 0.012147 0.865000
-0.018292 0.007893 0.867000
0.012298 0.025882 0.860000
0.015154 -0.006128 0.882000
0.025478 0.005805 0.875000
0.033927 -0.017145 0.870000
-0.005470 0.007571 0.871000
0.025348 -0.010132 0.883000
-0.026263 0.015458 0.871000
-0.025621 -0.018919 0.886000
-0.020480 0.017568 0.869000
-0.010597 -0.005027 0.880000
-0.005775 0.021354 0.863000
-0.017935 0.007893 0.867000
0.009155 0.019245 0.864000
-0.023664 -0.013735 0.881000
0.026043 0.031472 0.858000
-0.001552 -0.025483 0.886000
-0.020598 0.022346 0.874000
-0.012366 -0.001761 0.877000
0.024730 0.007238 0.874000
-0.026233 0.015082 0.870000
-0.003749 -0.023347 0.888000
-0.003296 0.013571 0.865000
0.014724 0.002934 0.878000
0.026765 0.016514 0.870000
-0.022548 0.009310 0.866000
-0.042520 0.013460 0.881000
0.010565 0.034141 0.863000
-0.032961 0.007545 0.868000
-0.047273 -0.017243 0.875000
-0.049321 -0.010018 0.873000
0.020214 -0.004670 0.881000
0.013794 0.038137 0.865000
-0.042902 0.006878 0.874000
-0.040299 -0.018066 0.880000
-0.018059 -0.001035 0.873000
0.005728 -0.007597 0.884000
-0.028281 -0.008991 0.878000
0.025929 0.020359 0.866000
-0.041273 -0.001389 0.870000
0.007428 0.011501 0.870000
-0.024112 0.000402 0.871000
-0.031243 0.019964 0.880000
0.027829 -0.012648 0.881000
0.002459 -0.011625 0.886000
0.013730 0.023785 0.861000
-0.028316 0.010403 0.868000
-0.020083 -0.016674 0.883000
-0.019143 -0.037686 0.890000
0.015893 0.037693 0.863000
0.012799 0.041580 0.870000
-0.035268 -0.019174 0.881000
0.042944 0.023322 0.857000
-0.018799 -0.003194 0.874000
-0.038408 -0.002464 0.870000
0.025348 -0.011223 0.883000
0.046314 0.006878 0.874000
-0.003660 0.027876 0.867000
-0.014689 0.013571 0.865000
0.006317 0.032440 0.865000
0.032943 -0.005402 0.882000
-0.015341 -0.014840 0.882000
-0.019608 -0.010798 0.878000
0.020725 0.009374 0.872000
-0.032109 -0.007151 0.874000
-0.027888 0.020257 0.877000
0.009499 0.020644 0.863000
-0.015202 0.000043 0.874000
0.000621 0.029270 0.866000
-0.001878 0.010403 0.868000
0.018822 0.042864 0.867000
0.023924 0.036769 0.858000
-0.031385 -0.032702 0.884000
0.002750 0.028103 0.863000
-0.019856 -0.002831 0.873000
-0.022984 0.015780 0.869000
0.018380 0.022420 0.863000
-0.009727 0.010034 0.867000
-0.005438 0.025349 0.866000
-0.025399 -0.032227 0.891000
0.038627 0.015458 0.871000
-0.020128 -0.018897 0.885000
-0.032904 0.014105 0.876000
-0.010119 0.025824 0.870000
0.023036 0.000043 0.878000
-0.026279 -0.037940 0.896000
-0.027321 -0.013388 0.882000
-0.036301 0.009005 0.871000
0.032580 -0.003224 0.882000
0.037088 0.004375 0.877000
0.013354 -0.006135 0.883000
-0.005420 0.021710 0.863000
-0.049581 -0.017402 0.865000
-0.013464 0.030760 0.878000
-0.027050 -0.022540 0.885000
0.003825 0.016420 0.865000
0.038268 -0.011787 0.871000
-0.012169 -0.033984 0.889000
0.005358 -0.005408 0.883000
0.009555 0.012904 0.868000
-0.024611 0.021315 0.876000
-0.022904 0.010023 0.866000
-0.016660 -0.002118 0.875000
-0.028707 0.011846 0.869000
0.030207 0.020003 0.866000
0.040853 0.023184 0.865000
0.043536 0.005091 0.876000
-0.009392 0.025437 0.869000
0.022389 -0.013735 0.881000
0.009957 0.041675 0.872000
0.047603 0.009159 0.852000
-0.030706 -0.008240 0.875000
0.012976 -0.002861 0.882000
-0.001521 0.030052 0.868000
-0.039932 0.006862 0.872000
0.008840 0.012904 0.868000
-0.003690 0.005439 0.874000
0.042781 0.019692 0.868000
-0.011244 0.028821 0.874000
-0.009190 -0.012691 0.884000
0.016606 -0.007217 0.882000
0.012785 0.040459 0.869000
0.014049 -0.001407 0.881000
-0.011790 -0.023347 0.888000
0.044414 0.014399 0.872000
0.011617 0.033037 0.862000
0.007902 -0.003591 0.883000
-0.042182 -0.008950 0.874000
0.015880 -0.013388 0.882000
0.021277 -0.003216 0.880000
0.026650 0.000405 0.878000
-0.039212 -0.017342 0.880000
0.041278 0.011195 0.874000
0.003473 0.014300 0.866000
-0.010441 0.009321 0.867000
0.034600 0.002212 0.878000
-0.017117 -0.013358 0.880000
-0.028414 0.014024 0.871000
-0.037822 -0.006784 0.873000
0.004162 0.022722 0.861000
-0.023539 -0.030360 0.890000
-0.029745 0.008617 0.868000
-0.007262 0.006854 0.871000
0.046314 0.008677 0.874000
-0.009554 -0.013782 0.884000
0.004200 0.035094 0.869000
0.038937 0.003296 0.878000
0.006368 0.039163 0.872000
0.037810 0.005097 0.877000
-0.010247 -0.007209 0.881000
-0.018162 -0.010436 0.878000
-0.029037 0.021388 0.879000
0.044004 0.016175 0.871000
0.020915 0.042409 0.865000
-0.015271 -0.006823 0.878000
-0.001865 0.022749 0.862000
0.006997 0.024849 0.861000
-0.014910 -0.005016 0.878000
-0.049680 -0.012892 0.873000
-0.047415 0.000760 0.871000
-0.045524 -0.013657 0.876000
-0.020574 0.021602 0.873000
-0.038006 0.003977 0.869000
-0.009338 0.016401 0.864000
-0.032040 -0.018833 0.882000
0.045042 0.016485 0.850000
0.013746 0.035166 0.862000
-0.022473 -0.008620 0.877000
-0.040915 -0.003538 0.870000
0.018192 0.046288 0.871000
0.021246 0.042360 0.864000
-0.036176 0.002901 0.868000
0.004631 -0.005771 0.883000
0.016606 -0.012662 0.882000
0.008541 0.009036 0.874000
0.039976 -0.005010 0.877000
-0.021122 0.010023 0.866000
0.001693 0.012532 0.867000
-0.024358 0.012532 0.867000
0.031169 0.011900 0.873000
-0.007970 0.027257 0.870000
0.010565 0.020644 0.863000
-0.013621 0.011435 0.865000
0.014033 0.000043 0.880000
0.017293 -0.002492 0.880000
-0.015722 -0.016674 0.883000
-0.010061 0.020336 0.865000
0.024010 0.007957 0.874000
0.038092 -0.016372 0.867000
0.030845 0.010835 0.874000
-0.016113 0.016420 0.865000
-0.018397 0.000043 0.872000
-0.036218 0.000758 0.869000
0.035964 0.007254 0.876000
-0.042705 0.003266 0.870000
0.029313 -0.010121 0.882000
-0.045009 -0.009299 0.873000
-0.013763 0.027022 0.874000
0.015171 -0.012676 0.883000
-0.031456 -0.027670 0.886000
-0.036576 0.005408 0.869000
0.038494 0.019692 0.868000
0.006750 0.007246 0.875000
0.037235 -0.011801 0.872000
-0.018692 -0.021107 0.886000
0.011511 -0.001770 0.881000
-0.001190 -0.021885 0.888000
-0.006840 0.017802 0.863000
-0.016926 -0.035814 0.889000
-0.008646 0.010736 0.866000
-0.006896 0.007563 0.870000
-0.032432 -0.005706 0.873000
0.022852 0.016533 0.871000
0.015682 0.009005 0.871000
0.038224 -0.013564 0.870000
0.016004 0.012204 0.869000
0.006650 0.029490 0.862000
-0.017181 0.011079 0.865000
-0.009180 -0.010496 0.883000
0.035522 0.009756 0.874000
0.038316 0.026358 0.864000
-0.048629 0.008012 0.880000
-0.004105 -0.017825 0.886000
0.004205 0.035851 0.870000
-0.006485 0.019934 0.863000
-0.028603 -0.028098 0.888000
-0.023476 -0.004993 0.874000
0.024900 -0.001767 0.880000
0.020062 0.028680 0.859000
-0.051480 -0.016015 0.867000
0.028100 0.018599 0.867000
0.007368 0.031655 0.863000
-0.024583 0.020211 0.875000
0.029596 0.016138 0.869000
0.003812 0.028070 0.862000
0.032943 -0.006128 0.882000
-0.040557 -0.003180 0.870000
0.037257 -0.003583 0.881000
-0.048756 -0.019848 0.863000
0.037767 -0.018705 0.876000
0.009003 -0.007597 0.884000
-0.011360 -0.013040 0.883000
-0.013342 0.005056 0.870000
0.030634 0.018263 0.868000
-0.010453 0.007902 0.868000
-0.043459 -0.015495 0.878000
-0.051000 -0.012863 0.871000
-0.001921 -0.022616 0.888000
0.014879 0.017151 0.866000
0.019201 0.015047 0.868000
0.024286 0.016892 0.871000
0.020678 0.011859 0.870000
-0.024414 0.003262 0.869000
-0.044434 0.014217 0.883000
-0.008481 -0.019648 0.886000
-0.012169 -0.025569 0.889000
-0.046127 -0.022081 0.867000
0.010083 -0.019581 0.883000
-0.023972 0.024644 0.879000
-0.005064 0.022065 0.863000
-0.038181 -0.007143 0.873000
-0.043147 -0.021302 0.879000
-0.031243 -0.012995 0.880000
0.016133 0.003288 0.876000
-0.010760 0.014978 0.864000
0.045132 0.013681 0.872000
-0.025487 0.001831 0.869000
0.019603 0.046235 0.870000
-0.000802 0.024551 0.863000
0.033440 -0.011494 0.876000
0.002773 0.011143 0.870000
0.035644 0.005458 0.877000
-0.000822 -0.010520 0.885000
0.025957 -0.000680 0.879000
-0.004105 -0.018919 0.886000
0.041733 0.007254 0.876000
0.041399 0.018284 0.869000
-0.043427 -0.029083 0.863000
0.021777 0.011156 0.871000
-0.010316 -0.021495 0.887000
0.026016 -0.013010 0.881000
-0.031456 -0.025847 0.886000
0.019355 0.033630 0.859000
0.030884 0.022472 0.865000
0.001710 0.038982 0.876000
-0.010835 0.025466 0.870000
-0.042639 0.009057 0.876000
0.019648 0.008657 0.872000
0.040021 0.003657 0.878000
0.027154 0.016175 0.871000
-0.050039 -0.011814 0.873000
-0.017537 0.011435 0.865000
0.016249 0.021354 0.863000
-0.034150 0.010439 0.871000
0.023477 -0.004670 0.881000
0.046980 0.009026 0.873000
-0.050583 -0.013922 0.870000
0.033839 0.005458 0.877000
-0.015254 -0.003566 0.877000
-0.031208 -0.011534 0.879000
0.004563 0.035851 0.870000
0.020725 0.009016 0.872000
-0.030762 -0.027337 0.887000
0.010541 0.031227 0.861000
-0.046139 -0.011108 0.874000
-0.004475 -0.026607 0.887000
0.029391 0.025617 0.863000
-0.045981 -0.002825 0.871000
-0.027370 -0.002110 0.872000
0.038937 -0.005016 0.878000
-0.026053 -0.007889 0.876000
0.038576 0.003657 0.878000
-0.017175 -0.018128 0.883000
-0.033510 0.012260 0.873000
-0.032754 0.012246 0.872000
-0.006493 0.021379 0.864000
0.046261 0.011900 0.873000
0.025690 0.031472 0.858000
0.037779 0.019692 0.868000
-0.014747 -0.028162 0.890000
-0.024057 0.015065 0.869000
0.042502 0.004736 0.877000
0.000998 -0.007961 0.884000
-0.011476 -0.034466 0.892000
-0.011257 0.029574 0.875000
-0.039167 0.014153 0.879000
0.004166 0.020620 0.862000
0.041089 0.016873 0.870000
-0.021659 -0.021885 0.888000
-0.024358 0.011462 0.867000
0.014183 0.015387 0.867000
-0.047883 -0.008580 0.873000
0.009477 0.023431 0.861000
-0.012183 -0.028894 0.890000
0.007902 -0.005044 0.883000
-0.044796 -0.028695 0.862000
-0.016132 0.017864 0.866000
0.018296 0.003288 0.876000
-0.035266 -0.003905 0.872000
-0.028316 0.003258 0.868000
0.043896 0.006173 0.876000
-0.042411 -0.029473 0.864000
0.012627 -0.005771 0.883000
0.035841 -0.012892 0.873000
0.009477 0.023077 0.861000
0.030298 -0.011895 0.879000
0.029747 0.025261 0.863000
0.018648 0.035397 0.859000
0.022905 0.008307 0.873000
-0.017201 0.008597 0.866000
-0.017997 0.002191 0.870000
0.028255 -0.007225 0.883000
0.019068 0.023458 0.862000
-0.031963 0.000043 0.870000
-0.019057 -0.020377 0.886000
-0.019466 -0.024809 0.888000
-0.014532 -0.002844 0.877000
0.040684 -0.014264 0.869000
-0.023147 -0.037277 0.889000
-0.022704 -0.001393 0.872000
-0.016564 0.021169 0.870000
0.031493 -0.017184 0.872000
0.027679 0.021760 0.865000
0.022339 0.019980 0.865000
0.020053 0.006158 0.874000
-0.012582 0.021096 0.867000
-0.018587 -0.015186 0.881000
0.014828 0.021354 0.863000
0.029440 -0.016523 0.875000
0.006383 0.007957 0.874000
-0.028410 -0.014477 0.882000
0.019135 0.019980 0.865000
-0.046913 0.004725 0.875000
-0.017740 -0.004999 0.875000
-0.004036 0.030873 0.871000
0.021932 0.041245 0.863000
0.042142 0.005819 0.877000
0.020701 0.010081 0.871000
0.047893 0.008279 0.870000
-0.009918 -0.017421 0.884000
-0.023069 -0.017825 0.886000
0.016623 0.019957 0.864000
-0.017914 0.009666 0.866000
0.039565 0.019335 0.868000
-0.022860 -0.010436 0.878000
-0.008290 0.011449 0.866000
-0.005426 0.014623 0.864000
0.005663 0.040332 0.874000
0.012370 0.018200 0.865000
0.019829 -0.003216 0.880000
-0.027383 -0.018876 0.884000
-0.028773 -0.014114 0.882000
0.007192 -0.016712 0.885000
0.031709 -0.011882 0.878000
0.038981 -0.003936 0.879000
-0.000091 0.025261 0.863000
-0.014350 0.009666 0.866000
-0.037443 -0.021713 0.881000
0.016527 0.029387 0.859000
-0.018355 0.002550 0.870000
-0.014030 -0.035894 0.891000
-0.009521 -0.006121 0.881000
0.029698 -0.018979 0.872000
-0.010095 0.023979 0.868000
-0.022024 -0.023713 0.888000
-0.010049 0.016401 0.864000
-0.025072 0.011105 0.867000
0.032831 0.000767 0.879000
-0.045163 0.006894 0.876000
-0.030727 -0.025483 0.886000
-0.008025 0.032853 0.876000
0.036623 0.021785 0.866000
0.004910 0.034696 0.868000
-0.013637 0.010736 0.866000
-0.022730 -0.020035 0.887000
0.008424 0.022394 0.862000
0.019061 -0.000318 0.878000
0.003807 0.024140 0.861000
0.044257 0.008336 0.876000
0.012014 0.017844 0.865000
-0.019541 0.023812 0.875000
-0.020099 0.017191 0.868000
0.030810 0.012260 0.873000
-0.004731 0.010748 0.867000
-0.019137 -0.001394 0.873000
0.030073 -0.005771 0.883000
0.006463 -0.014162 0.885000
-0.026836 -0.032924 0.890000
-0.015633 -0.006461 0.878000
0.040744 -0.002125 0.878000
-0.014235 -0.014098 0.881000
-0.017578 0.007893 0.867000
0.014134 0.037381 0.864000
0.037278 0.011900 0.873000
0.011972 0.023103 0.862000
0.037961 0.025646 0.864000
-0.040510 -0.001030 0.869000
-0.001921 -0.022982 0.888000
-0.010305 -0.020742 0.886000
-0.019833 0.021218 0.872000
0.015592 0.017864 0.866000
-0.018085 -0.031529 0.892000
-0.016213 -0.028162 0.890000
0.006463 -0.010520 0.885000
0.018508 0.012919 0.869000
-0.019340 0.009666 0.866000
0.020464 0.026620 0.861000
0.022905 0.007948 0.873000
0.002754 0.028847 0.864000
0.019915 0.016476 0.868000
0.040021 0.003296 0.878000
-0.035104 0.002186 0.868000
-0.027904 -0.033253 0.889000
0.018778 0.041341 0.865000
0.041420 -0.005371 0.877000
-0.003011 -0.017460 0.886000
-0.020288 -0.033365 0.892000
-0.006137 0.021735 0.864000
-0.001919 -0.025146 0.887000
-0.010706 -0.031057 0.889000
0.014068 0.030483 0.860000
0.016738 0.011143 0.870000
0.014405 0.029387 0.859000
-0.046139 -0.019382 0.874000
0.034088 0.022828 0.865000
0.033669 -0.003587 0.882000
-0.033205 -0.026880 0.884000
-0.015976 -0.004649 0.877000
0.034088 0.023896 0.865000
-0.029882 0.014040 0.872000
0.033631 -0.002495 0.881000
-0.013857 -0.009011 0.880000
0.028424 -0.015839 0.877000
-0.005199 -0.015272 0.886000
0.035202 -0.011481 0.875000
-0.030565 -0.002466 0.871000
-0.015994 -0.008629 0.878000
0.021277 -0.002854 0.880000
0.026843 0.028392 0.861000
0.003913 -0.010155 0.885000
0.036434 -0.014996 0.870000
0.031778 0.015082 0.870000
-0.036760 -0.021737 0.882000
-0.011296 -0.003209 0.878000
-0.022011 -0.003550 0.873000
0.013360 0.031545 0.860000
-0.042327 -0.014034 0.877000
-0.030519 -0.012633 0.880000
-0.052311 -0.010109 0.881000
0.021957 0.022090 0.864000
0.038582 0.016156 0.870000
-0.041273 -0.002464 0.870000
0.013453 0.016795 0.866000
0.008779 0.030909 0.862000
0.012917 0.003296 0.878000
-0.020307 0.025310 0.877000
-0.008434 -0.007209 0.881000
-0.043721 -0.013297 0.876000
0.031348 0.017548 0.868000
-0.012225 0.009321 0.867000
0.039118 0.022498 0.866000
-0.026565 0.024338 0.881000
0.016777 0.008657 0.872000
-0.012669 0.003277 0.873000
0.011944 0.025528 0.860000
-0.023380 -0.016329 0.884000
0.023167 -0.010859 0.883000
0.015466 0.032215 0.859000
-0.002584 0.014639 0.865000
0.034403 -0.013611 0.873000
0.015862 -0.001044 0.881000
-0.012380 0.031482 0.878000
0.031312 0.019669 0.867000
-0.022808 -0.007168 0.876000
-0.009117 0.032890 0.877000
-0.039304 -0.008230 0.874000
-0.014565 -0.006469 0.879000
-0.040476 -0.026637 0.876000
0.010528 0.026943 0.860000
-0.008367 0.030979 0.874000
0.035923 0.008686 0.875000
-0.041163 -0.027213 0.883000
-0.043771 -0.014034 0.877000
-0.025072 0.005752 0.867000
-0.013480 -0.005383 0.879000
0.012194 0.002573 0.878000
0.014828 0.036273 0.863000
-0.011116 0.014978 0.864000
-0.043509 -0.017684 0.879000
-0.028641 0.007893 0.867000
0.003913 -0.023997 0.885000
-0.031931 -0.012619 0.879000
-0.042834 0.011996 0.880000
-0.022062 0.022011 0.875000
-0.006315 -0.024471 0.889000
-0.025964 -0.003191 0.873000
-0.048212 -0.019204 0.866000
-0.028603 -0.027733 0.888000
0.014791 -0.002135 0.882000
-0.030328 -0.033467 0.885000
0.008424 0.030554 0.862000
-0.040344 0.014910 0.881000
-0.014449 0.024807 0.872000
-0.021390 -0.009703 0.877000
-0.040253 -0.016237 0.879000
-0.033092 -0.017724 0.881000
-0.046698 -0.001391 0.871000
0.026225 0.023513 0.864000
-0.045420 -0.020461 0.874000
-0.036218 0.001474 0.869000
0.041685 0.010127 0.875000
-0.029466 -0.012648 0.881000
0.009900 0.013960 0.867000
-0.038050 0.006846 0.870000
0.023867 -0.014114 0.882000
-0.029599 -0.022904 0.885000
0.005657 0.010104 0.873000
0.006743 0.041052 0.874000
-0.036108 -0.009680 0.875000
-0.039079 0.003620 0.869000
0.014297 0.006518 0.874000
-0.042951 -0.011121 0.875000
-0.025781 0.022836 0.879000
-0.022371 0.019805 0.873000
-0.019181 0.023812 0.875000
0.033888 -0.017840 0.869000
-0.007551 0.018158 0.863000
-0.032604 0.002186 0.868000
0.020086 0.027651 0.860000
-0.011437 -0.024837 0.889000
-0.000812 0.006518 0.874000
-0.019385 0.005044 0.868000
0.022389 -0.004308 0.881000
-0.014009 0.008964 0.867000
0.007351 0.024849 0.861000
-0.043098 -0.016580 0.878000
-0.013388 0.025913 0.873000
0.028651 -0.017421 0.884000
-0.012535 -0.034350 0.889000
0.014081 -0.007225 0.883000
-0.032321 -0.000315 0.870000
0.035237 0.021096 0.867000
-0.037995 -0.012590 0.877000
-0.033129 -0.029724 0.882000
0.011249 0.024849 0.861000
-0.030191 -0.016999 0.881000
0.008921 0.006173 0.876000
0.017588 0.028326 0.859000
-0.013464 -0.002486 0.878000
0.037866 -0.013564 0.870000
0.003812 0.026651 0.862000
-0.016850 -0.020719 0.885000
0.003501 0.009385 0.873000
-0.030817 0.002186 0.868000
-0.025751 -0.010075 0.878000
-0.015455 0.020406 0.868000
-0.027111 -0.026607 0.887000
-0.008491 -0.022226 0.887000
-0.017539 -0.018128 0.883000
-0.000458 -0.009063 0.885000
-0.007551 0.017092 0.863000
-0.003643 0.021354 0.863000
0.022571 0.006878 0.874000
-0.038408 -0.002822 0.870000
-0.000459 -0.022226 0.887000
0.040067 0.000767 0.879000
-0.032841 -0.027972 0.884000
0.011944 0.028713 0.860000
-0.008982 0.014267 0.864000
0.024314 0.015476 0.872000
0.003918 -0.018189 0.886000
-0.029388 0.002544 0.868000
-0.011034 -0.020742 0.886000
0.034044 0.010822 0.873000
-0.034335 -0.029825 0.885000
-0.016961 0.000402 0.872000
0.022918 0.028713 0.860000
-0.044747 0.013112 0.882000
-0.013495 -0.008649 0.880000
0.034473 -0.021059 0.884000
0.036266 0.021785 0.866000
0.040466 0.014040 0.872000
-0.045727 -0.020438 0.873000
0.044875 0.002202 0.874000
-0.029633 -0.032046 0.886000
0.039344 -0.011070 0.871000
-0.013297 -0.028927 0.891000
0.001342 0.034816 0.871000
-0.007743 -0.015983 0.885000
-0.044070 0.013854 0.883000
-0.018714 -0.024051 0.887000
-0.050525 -0.014621 0.869000
0.006463 -0.011612 0.885000
-0.008016 0.002924 0.875000
0.041231 0.012619 0.873000
-0.020076 0.007180 0.867000
-0.039034 -0.025555 0.876000
-0.002277 -0.010144 0.884000
0.043027 0.012619 0.873000
0.034246 -0.019986 0.869000
-0.000824 -0.022226 0.887000
-0.035584 -0.003542 0.871000
-0.025285 -0.023321 0.887000
0.012991 -0.015220 0.883000
-0.044648 -0.024907 0.866000
0.027418 0.017906 0.868000
0.004278 -0.005420 0.885000
-0.036025 -0.006065 0.873000
-0.045151 -0.027985 0.862000
0.015857 0.025557 0.861000
-0.007204 0.014267 0.864000
0.014828 0.036983 0.863000
-0.023288 0.005752 0.867000
-0.036218 0.000043 0.869000
0.017475 0.010081 0.871000
0.018079 -0.008679 0.883000
0.030057 -0.018620 0.872000
0.031888 0.011182 0.873000
-0.033265 -0.009691 0.876000
0.020654 0.046182 0.869000
-0.047993 -0.007520 0.875000
-0.048243 -0.009299 0.873000
0.021271 0.020336 0.865000
0.014965 0.009005 0.871000
-0.021293 -0.022982 0.888000
-0.028773 0.013666 0.871000
-0.027904 -0.031423 0.889000
0.005735 -0.013069 0.885000
-0.048232 -0.022611 0.860000
-0.042717 -0.029083 0.863000
-0.015184 0.025195 0.873000
0.023451 -0.002130 0.880000
0.044156 0.001842 0.874000
0.001730 -0.012719 0.886000
-0.006896 0.007204 0.870000
0.034356 -0.001770 0.881000
-0.026045 -0.035043 0.888000
0.022864 0.035709 0.858000
-0.044283 0.011271 0.880000
0.042142 0.006901 0.877000
0.026950 0.010139 0.876000
0.007732 0.017823 0.864000
-0.007237 0.009331 0.868000
0.011739 0.010081 0.871000
0.011550 -0.015601 0.884000
0.017588 0.032569 0.859000
-0.026713 -0.006072 0.874000
0.004647 -0.018189 0.886000
-0.041226 0.001116 0.869000
0.018648 0.031155 0.859000
-0.035671 -0.023189 0.882000
-0.029499 0.022914 0.882000
0.038494 -0.015319 0.868000
-0.038138 0.008657 0.872000
0.025071 0.026975 0.861000
-0.027570 0.005752 0.867000
-0.049937 -0.017402 0.865000
-0.026202 0.024338 0.881000
0.002040 0.018158 0.863000
0.043188 0.018641 0.869000
-0.048586 -0.022611 0.860000
0.046092 0.014386 0.850000
0.038627 0.015099 0.871000
-0.013826 -0.003209 0.878000
0.025118 0.007246 0.875000
0.012873 0.006526 0.875000
-0.015437 0.019669 0.867000
-0.043162 -0.006417 0.872000
0.000265 0.012532 0.867000
-0.050525 -0.014264 0.869000
-0.005801 0.011105 0.867000
0.022261 0.024523 0.862000
0.019783 -0.000318 0.878000
-0.027729 -0.003546 0.872000
-0.008982 0.018179 0.864000
-0.021479 0.013944 0.866000
-0.005788 0.023896 0.865000
-0.027697 -0.001391 0.871000
0.011766 0.008667 0.873000
0.003918 -0.017460 0.886000
-0.008876 -0.028496 0.889000
0.007078 0.038760 0.871000
-0.026410 -0.036139 0.888000
-0.011219 0.004709 0.872000
0.046442 0.012287 0.850000
0.013127 0.013261 0.868000
0.042115 0.018641 0.869000
-0.030362 -0.025118 0.886000
-0.021553 0.003620 0.869000
-0.002933 0.018513 0.863000
-0.029165 0.014758 0.872000
-0.046894 -0.020678 0.868000
0.022545 0.008307 0.873000
-0.035228 0.015256 0.880000
-0.042705 -0.000315 0.870000
0.002392 0.019556 0.862000
-0.039846 0.011969 0.878000
0.001365 -0.015637 0.886000
-0.027904 -0.030325 0.889000
0.010553 0.032683 0.862000
0.019961 0.046951 0.870000
-0.030817 0.007188 0.868000
-0.004480 -0.023347 0.888000
-0.021244 0.000760 0.871000
-0.015097 0.020406 0.868000
0.014117 0.020999 0.863000
0.009632 0.007246 0.875000
0.040419 -0.015730 0.871000
0.022778 -0.005765 0.882000
-0.016113 0.013927 0.865000
-0.022345 0.019424 0.872000
0.035082 0.012963 0.872000
-0.038575 0.016742 0.882000
0.005934 0.022368 0.861000
-0.027370 -0.003187 0.872000
-0.026652 -0.001751 0.872000
0.002059 0.034816 0.871000
0.027734 0.002212 0.878000
0.030730 -0.009747 0.881000
-0.033986 -0.010052 0.876000
0.003116 0.031052 0.866000
0.035594 0.020383 0.867000
0.012441 0.011143 0.870000
0.045254 0.017968 0.854000
0.037064 0.018620 0.868000
-0.013252 -0.024809 0.888000
-0.019100 -0.024444 0.888000
0.036182 0.024580 0.864000
0.021752 0.015082 0.870000
0.004642 -0.010520 0.885000
-0.014219 -0.010098 0.880000
-0.047993 -0.013282 0.875000
-0.005463 0.028689 0.870000
0.038224 -0.012848 0.870000
0.041447 0.017231 0.870000
0.005735 -0.011248 0.885000
0.008830 0.014673 0.867000
0.030625 -0.012966 0.878000
0.000627 0.006518 0.874000
-0.012611 0.006123 0.869000
-0.015289 -0.010810 0.879000
0.028424 0.006901 0.877000
0.015236 0.039963 0.866000
0.036979 0.022141 0.866000
-0.041150 -0.010041 0.875000
-0.010885 0.004000 0.874000
-0.000451 0.034497 0.872000
-0.041385 -0.019515 0.880000
0.040141 0.027812 0.865000
-0.030294 -0.022514 0.884000
0.004547 0.013246 0.867000
-0.045570 -0.000673 0.870000
0.027418 0.018263 0.868000
-0.012521 -0.023347 0.888000
-0.029794 -0.010822 0.880000
0.000271 -0.019305 0.887000
-0.010049 0.014267 0.864000
-0.033341 0.015221 0.878000
-0.047905 0.009098 0.880000
0.037953 0.012963 0.872000
-0.024527 -0.003191 0.873000
-0.019014 -0.018148 0.884000
0.025366 0.030448 0.859000
-0.007915 0.014623 0.864000
-0.020409 0.010023 0.866000
-0.040510 0.001116 0.869000
-0.027904 -0.029960 0.889000
-0.037039 -0.023499 0.880000
-0.006650 -0.013069 0.885000
0.036476 0.013666 0.871000
-0.009963 -0.023347 0.888000
-0.033395 0.009711 0.870000
0.007419 0.012204 0.869000
0.027892 -0.010496 0.883000
0.022077 -0.011223 0.883000
-0.044138 -0.004254 0.870000
0.034561 0.005819 0.877000
-0.027684 -0.013388 0.882000
0.040544 0.022498 0.866000
0.006099 -0.019626 0.885000
0.031062 0.015082 0.870000
0.043548 0.021508 0.855000
-0.026351 -0.024024 0.886000
0.036182 0.024935 0.864000
-0.010760 0.017467 0.864000
0.039884 -0.007520 0.875000
-0.042231 -0.024806 0.875000
-0.020585 -0.028130 0.889000
0.021350 -0.010859 0.883000
0.005940 0.022039 0.862000
-0.019057 -0.020742 0.886000
-0.026856 0.007180 0.867000
0.009621 0.009036 0.874000
0.022944 0.026620 0.861000
0.044516 0.002921 0.874000
0.012470 0.009374 0.872000
-0.014139 0.027413 0.875000
-0.048940 -0.020841 0.860000
0.005370 -0.009063 0.885000
0.035444 -0.005396 0.881000
0.031455 -0.009022 0.881000
0.016719 0.043320 0.869000
-0.027202 -0.031092 0.890000
0.046314 0.009036 0.874000
-0.038408 -0.001747 0.870000
0.033079 0.007615 0.876000
0.018887 0.045519 0.870000
-0.004013 0.012161 0.866000
0.001698 0.033702 0.870000
-0.034905 -0.028602 0.881000
-0.044905 -0.017302 0.878000
0.030005 -0.003583 0.881000
-0.032403 -0.018833 0.882000
0.028424 0.004014 0.877000
0.047195 0.003292 0.877000
0.007714 0.021684 0.862000
0.021452 0.034650 0.858000
0.033810 0.019669 0.867000
0.009511 0.018534 0.864000
0.033530 -0.018913 0.869000
0.017415 0.043270 0.868000
-0.018286 -0.019240 0.884000
0.008414 0.025203 0.861000
0.016324 0.016101 0.867000
-0.002282 -0.016001 0.886000
-0.018928 -0.013358 0.880000
0.003098 0.024140 0.861000
-0.029031 0.002544 0.868000
-0.030157 -0.010822 0.880000
-0.004050 0.005439 0.874000
-0.020862 0.001475 0.870000
0.028424 0.005097 0.877000
0.010528 0.025528 0.860000
-0.015811 -0.024444 0.888000
0.009176 0.015013 0.866000
-0.002933 0.017447 0.863000
0.023924 0.033944 0.858000
-0.037401 -0.016980 0.880000
-0.006293 -0.019283 0.886000
0.017690 0.039871 0.864000
-0.009985 -0.026330 0.890000
0.040383 -0.002486 0.878000
0.003473 0.013587 0.866000
-0.002282 -0.026212 0.886000
0.042978 0.015117 0.872000
-0.011710 -0.009395 0.882000
0.041921 0.022472 0.865000
-0.030207 -0.002466 0.871000
-0.010785 0.010023 0.866000
0.024390 0.024877 0.862000
-0.007770 -0.029560 0.888000
-0.039573 -0.004982 0.872000
-0.026805 -0.008620 0.877000
-0.024195 -0.004633 0.874000
-0.011244 0.003640 0.874000
-0.025986 -0.024389 0.886000
0.026827 0.015476 0.872000
0.012667 0.024140 0.861000
-0.049225 -0.024167 0.865000
0.025348 -0.010859 0.883000
-0.013418 0.027774 0.875000
-0.045215 -0.016200 0.877000
-0.020288 -0.032263 0.892000
0.006456 -0.021787 0.884000
0.024621 -0.010496 0.883000
-0.019474 -0.000316 0.872000
-0.009242 -0.028862 0.889000
0.040711 0.025587 0.862000
0.033287 -0.015748 0.872000
0.015447 0.002573 0.878000
-0.027433 -0.006072 0.874000
0.015535 -0.012313 0.883000
-0.038006 0.001831 0.869000
-0.042445 -0.006417 0.872000
0.012642 -0.011235 0.884000
-0.007031 -0.021495 0.887000
0.014439 0.034771 0.861000
0.030039 -0.009395 0.882000
0.004910 0.012547 0.868000
0.032569 0.011887 0.872000
-0.034390 0.005402 0.868000
0.033415 0.022141 0.866000
0.019732 0.037208 0.860000
0.027999 0.011928 0.875000
-0.014122 0.026663 0.874000
0.012499 0.044649 0.874000
-0.019742 0.006116 0.868000
0.028127 -0.014066 0.879000
-0.019787 0.002908 0.870000
-0.036356 -0.023526 0.881000
0.018338 0.000043 0.878000
-0.013163 -0.013751 0.882000
-0.011142 0.011092 0.866000
-0.034190 0.010810 0.872000
0.017813 0.011501 0.870000
-0.001872 0.014639 0.865000
-0.037401 -0.018428 0.880000
-0.028971 -0.008620 0.877000
0.041420 -0.003927 0.877000
0.020319 0.013292 0.870000
-0.016158 -0.023686 0.887000
-0.002578 0.023841 0.863000
-0.026103 -0.030726 0.890000
-0.008016 0.031735 0.875000
0.039569 0.007615 0.876000
-0.020197 -0.026637 0.888000
0.039702 -0.010712 0.871000
-0.003288 0.018513 0.863000
0.015898 -0.012313 0.883000
0.006650 0.030199 0.862000
-0.040837 -0.012576 0.876000
-0.026351 -0.024389 0.886000
-0.010316 -0.022591 0.887000
-0.040253 0.013068 0.879000
0.042212 0.016533 0.871000
0.044824 0.013338 0.873000
-0.023037 0.017967 0.871000
-0.016903 0.004335 0.869000
0.028554 -0.011197 0.881000
0.007102 0.041052 0.874000
-0.038761 -0.014773 0.878000
0.025839 0.024906 0.863000
0.011458 0.004736 0.877000
0.007192 -0.010155 0.885000
0.029781 0.023513 0.864000
0.019267 0.047005 0.871000
0.016912 -0.000318 0.879000
-0.033986 -0.010413 0.876000
0.036005 0.005458 0.877000
-0.046034 -0.007494 0.872000
-0.009963 -0.030657 0.888000
0.039429 0.023896 0.865000
0.022440 -0.008679 0.883000
-0.035671 -0.022463 0.882000
0.033117 0.004014 0.877000
0.022891 0.030094 0.859000
-0.043931 -0.007862 0.873000
-0.026232 -0.012662 0.882000
0.014828 0.021710 0.863000
0.031022 -0.011534 0.879000
0.031596 0.024252 0.865000
0.037692 0.021785 0.866000
-0.026805 0.020618 0.877000
-0.019225 -0.008981 0.877000
-0.026746 -0.026241 0.887000
-0.019719 0.016458 0.867000
-0.035984 -0.004264 0.872000
-0.034509 -0.003183 0.871000
0.043175 0.007975 0.876000
-0.014187 -0.002848 0.878000
0.003856 0.010092 0.872000
-0.017181 0.011435 0.865000
-0.000824 -0.020400 0.887000
0.034317 0.000043 0.880000
0.022778 -0.006854 0.882000
-0.026836 -0.030726 0.890000
0.013354 -0.013767 0.883000
0.043846 0.001484 0.875000
-0.032358 0.011515 0.871000
0.009466 0.028005 0.860000
-0.003292 0.024224 0.864000
-0.012582 0.008607 0.867000
0.027229 0.025587 0.862000
-0.020716 -0.012619 0.879000
0.023211 0.016892 0.871000
0.011617 0.033747 0.862000
0.018150 0.013634 0.869000
0.001330 0.018513 0.863000
-0.004389 0.008637 0.870000
-0.015271 0.029314 0.878000
-0.007752 -0.019648 0.886000
0.031493 -0.017543 0.872000
-0.012521 -0.033581 0.888000
0.001333 0.015708 0.865000
-0.023645 0.012532 0.867000
-0.024772 0.002547 0.869000
0.042288 0.024056 0.858000
-0.022525 0.025368 0.879000
0.015154 -0.004313 0.882000
-0.039982 -0.020625 0.881000
0.040651 0.007254 0.876000
-0.018376 0.000402 0.871000
0.042288 0.023703 0.858000
-0.036273 -0.026005 0.879000
-0.043821 -0.015495 0.878000
-0.030935 -0.034466 0.892000
0.011972 0.033392 0.862000
0.010186 0.024494 0.861000
