-0.010935 0.023894 0.878000
0.017595 -0.010424 0.877000
-0.022138 0.010884 0.878000
-0.015063 -0.022226 0.887000
-0.013013 -0.050562 0.872000
-0.021029 0.033612 0.877000
0.015288 0.035094 0.869000
0.020366 0.015835 0.872000
-0.015254 0.034334 0.877000
-0.012451 0.012037 0.883000
0.010651 0.034776 0.870000
0.016782 0.045033 0.854000
-0.003380 -0.026607 0.887000
0.012844 0.019446 0.873000
-0.012394 0.018132 0.879000
0.003549 -0.032010 0.885000
0.019603 0.025824 0.870000
0.022649 -0.007898 0.877000
-0.021317 -0.030325 0.889000
0.001333 0.043121 0.865000
-0.013936 0.000044 0.885000
-0.014731 -0.037643 0.889000
-0.007691 0.017771 0.879000
-0.023890 0.022037 0.876000
0.015464 -0.021302 0.879000
-0.016888 -0.045225 0.887000
-0.001189 -0.047781 0.887000
0.020273 0.035768 0.868000
0.016796 0.012619 0.873000
0.020654 0.031517 0.869000
0.026741 -0.001044 0.881000
0.002798 0.015221 0.878000
0.021302 -0.030053 0.881000
0.018129 0.038269 0.868000
-0.021999 -0.035368 0.887000
0.020506 -0.016580 0.878000
0.012069 0.043678 0.869000
0.015718 0.016571 0.873000
-0.009940 -0.007614 0.886000
0.021713 -0.036662 0.883000
0.009698 -0.024976 0.881000
-0.018993 0.000407 0.883000
0.014428 -0.037710 0.882000
0.031148 0.004455 0.893000
-0.000814 -0.052957 0.876000
-0.008806 0.010934 0.882000
0.011429 0.044717 0.848000
0.023131 0.036125 0.868000
-0.009918 0.002227 0.884000
0.027955 -0.001778 0.885000
0.010810 -0.035209 0.883000
-0.010645 0.006593 0.884000
0.026370 -0.033770 0.893000
-0.004829 -0.023268 0.885000
0.005663 0.021986 0.874000
0.011110 -0.001763 0.878000
0.020844 -0.009342 0.877000
0.005285 0.040911 0.871000
-0.002605 -0.053074 0.872000
0.011524 -0.031902 0.882000
-0.010657 -0.015619 0.885000
-0.020377 0.015256 0.880000
0.006023 0.021267 0.874000
-0.008034 0.021701 0.877000
0.014395 -0.025310 0.880000
0.002431 0.029969 0.876000
0.012167 0.007975 0.876000
0.020191 -0.026034 0.880000
0.012902 -0.006454 0.877000
0.005352 -0.014114 0.882000
0.000635 -0.035289 0.885000
0.001702 0.038445 0.872000
-0.022448 0.031411 0.876000
-0.022912 -0.003216 0.880000
-0.019474 0.039881 0.872000
-0.026958 -0.013025 0.882000
0.018192 0.023703 0.871000
-0.014731 -0.036546 0.889000
-0.012843 -0.015619 0.885000
0.009709 -0.029361 0.882000
0.028392 0.024921 0.876000
0.004950 0.027774 0.875000
0.011752 0.024089 0.872000
0.022830 -0.034157 0.884000
0.017915 -0.000317 0.875000
-0.005942 -0.031388 0.888000
0.023900 0.027973 0.870000
0.029246 0.019964 0.880000
-0.003732 -0.015965 0.884000
0.026222 -0.021520 0.888000
-0.030924 -0.026485 0.871000
0.029512 0.005161 0.888000
0.010060 -0.022800 0.881000
0.022186 0.011541 0.873000
0.024175 -0.012995 0.880000
0.005000 -0.035612 0.884000
0.024370 0.009396 0.874000
0.017175 0.009036 0.874000
-0.012611 0.042247 0.869000
-0.011386 0.001136 0.885000
0.001360 -0.023943 0.883000
0.015306 0.034060 0.870000
0.011406 0.018009 0.873000
0.028113 -0.012044 0.890000
-0.000093 0.032132 0.876000
-0.001528 0.041316 0.872000
-0.009086 0.040692 0.874000
-0.013464 0.024616 0.878000
0.009218 0.038357 0.870000
0.003553 -0.029129 0.886000
-0.028249 -0.020170 0.877000
0.004626 -0.019559 0.882000
-0.007743 -0.013798 0.885000
0.005670 0.027774 0.875000
0.011873 -0.027877 0.881000
0.003905 -0.009769 0.883000
-0.010282 0.003318 0.884000
0.027380 -0.017173 0.890000
0.000635 -0.026182 0.885000
-0.013207 -0.012341 0.885000
-0.024135 -0.013434 0.885000
-0.007735 -0.048711 0.884000
0.001726 -0.025061 0.884000
0.017675 -0.032591 0.881000
0.021253 -0.019131 0.879000
0.023983 0.012260 0.873000
-0.017801 0.028591 0.878000
0.027279 0.018770 0.875000
-0.019510 -0.034755 0.890000
-0.009839 0.024949 0.877000
0.006456 -0.035612 0.884000
0.003856 0.036292 0.872000
0.029313 0.017831 0.882000
-0.008043 0.019196 0.878000
-0.018950 0.013097 0.881000
0.019334 0.003640 0.874000
0.012991 -0.039933 0.883000
-0.010694 -0.034677 0.888000
0.007159 -0.004308 0.881000
0.031163 0.030571 0.883000
0.026045 -0.007580 0.882000
0.028554 0.012735 0.881000
0.011498 -0.017342 0.880000
0.004995 -0.009042 0.883000
0.016206 -0.024948 0.880000
-0.007015 -0.022176 0.885000
0.019984 0.021911 0.871000
0.023397 -0.011520 0.878000
-0.010525 -0.050318 0.874000
-0.009117 0.026393 0.877000
-0.023301 -0.008659 0.881000
-0.003383 -0.043814 0.888000
-0.005188 -0.018148 0.884000
0.023488 0.036840 0.868000
-0.026595 -0.019922 0.882000
0.026437 0.030156 0.871000
0.012194 -0.012243 0.878000
-0.011750 0.000408 0.885000
-0.031282 -0.028277 0.871000
0.020203 0.047749 0.865000
-0.019488 -0.037277 0.889000
-0.013587 -0.007979 0.886000
-0.013841 0.022112 0.879000
-0.014615 0.013112 0.882000
-0.001533 0.024172 0.875000
0.001704 0.035615 0.873000
0.012125 0.016212 0.873000
0.007893 -0.008306 0.882000
-0.019608 0.031844 0.878000
-0.007412 -0.028130 0.889000
0.011739 0.028722 0.871000
-0.024892 -0.016731 0.886000
-0.010573 0.019196 0.878000
-0.017963 -0.017095 0.886000
0.006078 -0.021737 0.882000
0.005644 0.036609 0.871000
-0.004780 0.026724 0.876000
0.029745 -0.010270 0.895000
-0.008071 -0.049271 0.881000
0.019179 0.041436 0.867000
-0.021029 0.033251 0.877000
0.001730 -0.038610 0.886000
-0.018842 0.038261 0.876000
0.008610 -0.005033 0.881000
0.024120 -0.008268 0.878000
-0.010223 0.018494 0.879000
0.016418 0.017629 0.872000
0.027014 -0.021202 0.890000
-0.023433 -0.012719 0.886000
-0.011072 -0.045327 0.889000
-0.019742 -0.004686 0.884000
0.004234 0.017349 0.876000
0.025537 0.002931 0.877000
0.031269 0.022288 0.886000
-0.020060 0.008393 0.882000
-0.012507 -0.024051 0.887000
-0.020261 0.038578 0.875000
-0.022390 -0.023347 0.888000
0.023894 -0.027213 0.883000
0.003887 0.013068 0.879000
-0.030241 -0.029028 0.872000
-0.022112 0.023145 0.877000
0.019511 -0.036621 0.882000
-0.019946 0.035056 0.877000
0.002821 -0.036017 0.885000
-0.009873 0.017066 0.880000
-0.008796 0.015998 0.881000
0.020237 -0.036258 0.882000
-0.000815 0.030364 0.877000
0.013173 0.025854 0.871000
-0.015480 -0.039517 0.890000
-0.005463 -0.052952 0.870000
0.006449 -0.027577 0.883000
-0.009457 0.036417 0.875000
0.002451 -0.022125 0.883000
-0.009200 -0.018533 0.885000
-0.000094 -0.032411 0.886000
-0.021053 0.029676 0.878000
-0.014155 -0.049351 0.876000
0.026797 -0.028320 0.895000
-0.007717 0.013838 0.882000
0.013263 -0.003927 0.877000
0.001726 -0.013782 0.884000
0.015085 -0.011520 0.878000
-0.013464 0.025339 0.878000
0.004568 0.038401 0.871000
-0.004419 0.023118 0.876000
0.010996 0.043678 0.869000
0.020725 0.013322 0.872000
-0.000813 0.023092 0.875000
-0.030600 -0.029387 0.872000
0.028351 -0.001050 0.886000
-0.014015 -0.042081 0.890000
-0.012858 -0.006520 0.886000
0.008541 0.018749 0.874000
-0.002269 0.012372 0.881000
-0.016793 0.008393 0.882000
-0.020763 0.006933 0.881000
0.011161 -0.031176 0.882000
-0.011022 -0.014162 0.885000
-0.016430 0.009845 0.882000
-0.029882 -0.018979 0.872000
-0.013983 -0.031388 0.888000
-0.002632 -0.049996 0.881000
-0.011373 0.005865 0.884000
-0.006673 -0.039794 0.888000
0.009654 0.010511 0.877000
-0.015650 0.022112 0.879000
0.012180 0.001126 0.877000
-0.021317 -0.034350 0.889000
0.020168 -0.022749 0.879000
-0.015775 -0.015272 0.886000
-0.007691 0.017047 0.879000
-0.016736 0.021750 0.879000
0.019017 -0.008610 0.876000
-0.011009 0.002954 0.884000
-0.009128 0.029676 0.878000
-0.017440 0.032205 0.878000
-0.019356 0.003678 0.883000
-0.005570 -0.047781 0.887000
0.023894 -0.026487 0.883000
-0.008726 0.038893 0.874000
0.013203 0.016931 0.873000
-0.016926 -0.031789 0.889000
-0.006286 -0.009063 0.885000
0.005006 -0.030189 0.885000
-0.011437 -0.042766 0.889000
0.018171 0.025108 0.870000
-0.029917 -0.029420 0.873000
0.014314 0.004725 0.875000
0.011173 -0.034845 0.883000
-0.017579 -0.010520 0.885000
0.020226 0.045309 0.866000
-0.010270 0.009493 0.883000
0.010435 -0.031902 0.882000
-0.005188 -0.017057 0.884000
0.023211 0.020835 0.871000
0.017415 0.038626 0.868000
-0.025257 -0.018189 0.886000
-0.010340 -0.039473 0.889000
-0.017618 -0.019305 0.887000
-0.000811 0.036333 0.873000
-0.021801 0.012706 0.879000
0.004995 -0.011949 0.883000
-0.018885 0.029676 0.878000
-0.019057 -0.014907 0.886000
0.013671 -0.023137 0.880000
0.006023 0.023065 0.874000
-0.007682 0.031121 0.878000
0.010761 -0.012981 0.879000
0.014982 0.020500 0.872000
-0.015994 0.026423 0.878000
0.007893 -0.007580 0.882000
-0.006628 0.012023 0.882000
0.027955 0.000044 0.885000
-0.013587 -0.017825 0.886000
0.020076 -0.004278 0.875000
-0.009963 -0.047104 0.888000
-0.024444 0.014217 0.883000
-0.012843 -0.012341 0.885000
-0.011978 0.038578 0.875000
0.004278 -0.036746 0.885000
0.002792 0.029969 0.876000
0.002420 0.039881 0.872000
-0.023503 0.025973 0.875000
0.020122 -0.009342 0.877000
-0.011386 -0.019990 0.885000
0.029678 -0.007674 0.893000
-0.001542 0.013807 0.880000
0.002061 0.035574 0.872000
0.023115 -0.024251 0.881000
-0.003698 0.025642 0.876000
-0.030530 -0.024306 0.870000
0.020076 -0.002118 0.875000
0.022262 -0.005365 0.876000
0.014001 -0.013689 0.878000
-0.022289 -0.009780 0.884000
-0.009906 0.008766 0.883000
-0.010657 -0.016348 0.885000
0.005352 -0.003224 0.882000
-0.019272 -0.046790 0.896000
-0.018411 -0.034755 0.890000
-0.007761 -0.036463 0.887000
-0.018503 0.036861 0.877000
0.015068 -0.006454 0.877000
-0.010669 -0.012355 0.886000
0.002462 -0.047051 0.887000
-0.007321 0.018835 0.878000
-0.001895 0.022397 0.876000
0.025032 0.018347 0.872000
-0.000824 -0.043400 0.887000
-0.025257 -0.020377 0.886000
-0.010305 -0.047727 0.886000
-0.000458 -0.038975 0.886000
-0.012843 -0.013069 0.885000
-0.002608 0.040286 0.873000
0.027196 -0.033883 0.896000
-0.009543 0.008766 0.883000
-0.002646 -0.036058 0.886000
-0.023556 0.015925 0.877000
-0.007039 -0.040525 0.888000
0.021345 0.034339 0.868000
0.007885 -0.000682 0.881000
0.023184 0.027257 0.870000
0.008532 0.020883 0.873000
-0.011059 -0.046738 0.888000
0.002085 -0.017381 0.882000
0.011472 -0.002486 0.878000
0.023451 -0.019153 0.880000
0.002094 -0.040434 0.886000
0.016475 0.001844 0.875000
-0.005205 -0.047781 0.887000
0.000631 0.011634 0.880000
-0.001538 0.017028 0.878000
-0.006658 -0.025118 0.886000
-0.013556 0.006229 0.884000
-0.010212 0.022087 0.878000
0.029578 0.025319 0.890000
0.004579 0.033459 0.873000
-0.023433 -0.036058 0.886000
0.000635 -0.034924 0.885000
-0.021293 -0.020423 0.888000
-0.000814 0.021315 0.876000
0.016188 -0.021663 0.879000
-0.015046 -0.020013 0.886000
-0.001528 0.040958 0.872000
-0.008686 -0.052594 0.870000
0.006427 0.004752 0.880000
-0.007312 0.027476 0.877000
-0.013983 -0.027733 0.888000
0.004215 0.035933 0.872000
-0.018545 0.028262 0.879000
-0.030959 -0.017902 0.872000
0.027829 0.007296 0.881000
-0.015393 -0.010520 0.885000
-0.008766 0.031844 0.878000
0.027166 -0.025373 0.895000
0.030781 0.001514 0.893000
0.021615 -0.019493 0.879000
0.025362 0.026930 0.871000
-0.001911 -0.019945 0.883000
0.022752 -0.023526 0.881000
-0.012640 -0.051579 0.871000
-0.015114 -0.040250 0.890000
-0.020585 -0.027032 0.889000
0.010210 0.047639 0.863000
0.019201 0.038983 0.868000
0.002094 -0.043351 0.886000
-0.022912 -0.003578 0.880000
-0.019122 -0.031423 0.889000
0.011766 0.018727 0.873000
0.020630 0.042556 0.868000
0.008238 0.001854 0.880000
-0.016213 -0.039884 0.890000
0.018038 -0.030778 0.881000
-0.004082 0.014548 0.881000
0.004595 0.031050 0.876000
-0.029557 -0.029061 0.873000
0.001000 -0.038246 0.886000
0.020053 0.003281 0.874000
0.004631 -0.011223 0.883000
-0.015480 -0.042814 0.890000
0.028063 0.020618 0.877000
-0.016103 -0.002503 0.884000
-0.025257 -0.021836 0.886000
-0.014910 -0.050548 0.878000
0.002420 0.035933 0.872000
-0.012046 0.017066 0.880000
-0.017678 -0.036220 0.890000
-0.018971 0.004763 0.882000
-0.023328 -0.010484 0.882000
-0.012479 -0.013798 0.885000
-0.013920 0.009140 0.884000
-0.011360 0.011673 0.883000
-0.016945 -0.039151 0.890000
-0.012901 -0.046059 0.889000
0.017813 0.025824 0.870000
-0.007770 -0.040159 0.888000
0.008610 -0.011560 0.881000
0.010316 0.027319 0.872000
0.016151 -0.010063 0.877000
-0.029557 -0.025468 0.873000
-0.011803 -0.045327 0.889000
0.002801 0.013791 0.879000
-0.021683 -0.025203 0.889000
-0.007682 0.018473 0.878000
0.022339 -0.016960 0.879000
-0.019653 0.020326 0.880000
0.006434 -0.003583 0.881000
0.000636 -0.028432 0.887000
0.030413 -0.000323 0.893000
0.007437 0.037684 0.871000
-0.017559 -0.002867 0.884000
-0.023476 0.031339 0.874000
-0.001919 -0.048146 0.887000
-0.008144 -0.028496 0.889000
-0.002617 0.021315 0.876000
0.022034 0.037154 0.867000
-0.009850 0.031844 0.878000
0.020249 0.041080 0.867000
0.020963 -0.034080 0.882000
0.026827 0.025525 0.872000
-0.011283 0.031808 0.877000
-0.009608 -0.046059 0.889000
0.012250 -0.034443 0.882000
-0.001911 -0.017037 0.883000
0.022027 -0.025339 0.881000
-0.028577 -0.026637 0.876000
-0.006681 -0.045693 0.889000
-0.013572 -0.014162 0.885000
-0.018266 0.001861 0.883000
0.015844 -0.025672 0.880000
-0.019100 -0.041987 0.888000
-0.023556 0.015564 0.877000
0.027227 -0.036136 0.897000
-0.019764 -0.007970 0.885000
0.004808 0.044122 0.850000
0.009346 -0.030813 0.882000
0.024454 -0.002844 0.877000
0.019961 0.023318 0.870000
0.020099 -0.008249 0.876000
0.018572 0.012963 0.872000
0.008247 -0.002132 0.881000
0.015322 0.044875 0.851000
-0.007254 0.041938 0.870000
-0.021537 -0.008679 0.883000
0.016362 0.036525 0.869000
-0.005211 -0.041256 0.888000
-0.031999 -0.027202 0.871000
0.002782 0.034537 0.873000
-0.019541 0.038578 0.875000
0.029776 0.022263 0.885000
0.008388 -0.040890 0.896000
-0.030294 -0.031246 0.884000
-0.014284 0.005865 0.884000
0.008629 -0.033028 0.883000
0.017181 -0.042591 0.893000
0.004278 -0.028732 0.885000
-0.023556 0.013399 0.877000
0.011276 0.047639 0.863000
0.005000 -0.036340 0.884000
-0.021975 -0.037881 0.886000
0.008972 -0.022800 0.881000
0.011367 0.035492 0.870000
0.025635 -0.028624 0.893000
-0.013464 0.024978 0.878000
0.002094 -0.041163 0.886000
-0.012493 -0.005061 0.886000
0.001732 -0.046686 0.887000
-0.024920 -0.020400 0.887000
0.017057 0.041127 0.868000
0.002429 0.019851 0.875000
0.023211 0.021194 0.871000
0.007167 -0.011936 0.882000
-0.004404 0.039567 0.873000
-0.023121 -0.032484 0.888000
0.005663 0.024504 0.874000
-0.020331 0.032205 0.878000
-0.019488 -0.035814 0.889000
0.010406 0.043773 0.850000
0.016931 -0.024948 0.880000
-0.002638 -0.020672 0.883000
-0.011764 -0.012355 0.886000
-0.008846 -0.006520 0.886000
0.016889 -0.042782 0.897000
-0.000821 -0.009052 0.884000
-0.008117 -0.011261 0.886000
-0.015410 -0.019648 0.886000
-0.015994 0.027507 0.878000
-0.003330 0.035296 0.874000
-0.012741 0.025339 0.878000
-0.003368 -0.021423 0.884000
0.025011 -0.041674 0.897000
-0.013464 0.022087 0.878000
0.010293 0.036209 0.870000
0.017526 0.046195 0.856000
-0.021125 0.001494 0.881000
0.015017 0.011914 0.874000
0.023623 0.011541 0.873000
0.007522 -0.022075 0.881000
-0.013118 0.021027 0.879000
0.010737 0.006901 0.877000
0.022774 0.036483 0.868000
-0.022730 -0.033908 0.887000
0.015376 0.007597 0.874000
-0.012087 0.012764 0.883000
0.012208 -0.015513 0.879000
0.009610 0.023039 0.873000
-0.001184 -0.018491 0.883000
0.001001 -0.042670 0.887000
0.016437 0.013697 0.873000
0.004224 0.033138 0.874000
0.016835 0.002924 0.875000
-0.004769 0.036015 0.874000
-0.005875 0.030037 0.878000
-0.014155 0.035016 0.876000
-0.013267 -0.036180 0.889000
-0.010305 -0.006155 0.886000
0.000266 0.041269 0.871000
0.019558 0.035411 0.868000
0.018129 0.037197 0.868000
-0.013342 0.041938 0.870000
-0.020881 -0.013449 0.886000
-0.001176 0.031808 0.877000
0.012917 -0.008268 0.878000
0.008962 -0.019153 0.880000
-0.015757 -0.005420 0.885000
0.019017 -0.006086 0.876000
0.026079 0.027647 0.871000
0.006065 0.002579 0.880000
-0.013556 0.005137 0.884000
0.004200 0.044036 0.869000
0.017394 0.045005 0.867000
-0.005902 0.012023 0.882000
-0.014548 0.028591 0.878000
0.021010 -0.042162 0.884000
0.020122 -0.011868 0.877000
0.014281 0.012978 0.873000
0.010293 0.040506 0.870000
0.018401 -0.031140 0.881000
-0.023825 -0.016019 0.887000
0.012222 -0.022412 0.880000
-0.012465 0.004410 0.884000
-0.009929 -0.015983 0.885000
-0.018307 -0.010520 0.885000
0.016719 0.036882 0.869000
0.003134 0.040194 0.871000
-0.019452 0.041269 0.871000
-0.008144 -0.028862 0.889000
-0.005135 0.034256 0.875000
0.011498 -0.020601 0.880000
0.006743 0.020907 0.874000
-0.003745 -0.037924 0.887000
-0.007404 -0.026271 0.888000
0.010060 -0.024251 0.881000
-0.011644 0.027476 0.877000
0.014914 0.043628 0.868000
0.021977 -0.017684 0.879000
-0.010293 -0.014891 0.885000
0.015736 0.007957 0.874000
-0.028905 -0.023726 0.875000
-0.017821 0.027177 0.879000
-0.017658 -0.032521 0.889000
-0.009467 0.035377 0.876000
-0.003001 -0.017764 0.883000
0.022416 0.032553 0.868000
-0.001917 -0.033140 0.886000
-0.004064 0.018452 0.877000
-0.008481 -0.011261 0.886000
-0.019854 -0.035814 0.889000
0.017833 0.019760 0.871000
0.010639 0.041890 0.869000
-0.002632 0.012372 0.881000
0.006009 0.035215 0.872000
0.002061 0.037010 0.872000
0.004933 0.034138 0.872000
0.023220 -0.037110 0.885000
-0.000823 -0.039340 0.886000
0.004972 0.013429 0.879000
0.019693 0.001122 0.874000
0.021011 0.030087 0.869000
-0.008836 -0.014162 0.885000
0.029578 -0.001055 0.890000
0.005352 -0.023552 0.882000
-0.006315 -0.044595 0.889000
0.028949 0.022550 0.882000
-0.002277 -0.014510 0.884000
0.008238 -0.017342 0.880000
-0.022049 -0.028130 0.889000
-0.004465 -0.013069 0.885000
-0.015080 -0.032119 0.888000
-0.019036 -0.007606 0.885000
0.007522 -0.013735 0.881000
-0.023301 -0.002132 0.881000
0.003913 -0.032375 0.885000
-0.004731 0.042507 0.867000
0.025182 -0.034755 0.890000
-0.005576 -0.045642 0.888000
0.007876 -0.015169 0.880000
0.004642 -0.029461 0.885000
-0.001189 -0.048146 0.887000
-0.011072 -0.042766 0.889000
0.007070 0.043012 0.870000
0.002456 -0.034924 0.885000
-0.004807 0.014185 0.881000
-0.020197 -0.025540 0.888000
-0.022213 -0.007571 0.881000
0.016912 -0.022749 0.879000
-0.009929 -0.013069 0.885000
0.027073 0.004028 0.880000
-0.003698 0.024200 0.876000
0.007902 -0.032301 0.883000
0.018465 0.042507 0.867000
-0.012142 -0.047051 0.887000
-0.007656 0.035696 0.875000
0.018129 0.037912 0.868000
-0.007007 -0.018148 0.884000
-0.023248 0.003661 0.879000
-0.005211 -0.027002 0.888000
0.013624 -0.003205 0.877000
-0.024920 -0.034638 0.887000
-0.011790 -0.031753 0.888000
-0.007761 -0.033543 0.887000
-0.017300 0.041269 0.871000
0.007548 -0.038523 0.884000
-0.009749 0.042605 0.869000
-0.019356 -0.001047 0.883000
-0.013434 0.036819 0.876000
-0.017214 -0.009427 0.885000
0.015085 -0.016218 0.878000
0.025770 -0.017076 0.885000
0.016606 -0.036258 0.882000
-0.020015 0.017429 0.880000
0.027248 0.021986 0.874000
0.007885 -0.011922 0.881000
0.018699 -0.014773 0.878000
0.004631 -0.009042 0.883000
-0.018439 0.040332 0.874000
-0.012535 -0.041302 0.889000
-0.007404 -0.039428 0.888000
0.006441 -0.012662 0.882000
0.012888 0.000404 0.876000
-0.019488 -0.029594 0.889000
-0.023798 -0.013813 0.886000
-0.016140 -0.019648 0.886000
0.026528 0.019108 0.874000
-0.003338 0.024200 0.876000
-0.016318 0.037901 0.876000
0.003509 0.021291 0.875000
0.021443 0.015476 0.872000
-0.006628 0.011660 0.882000
0.015341 0.019424 0.872000
-0.021683 -0.025569 0.889000
0.012829 0.022295 0.872000
0.020413 0.001482 0.874000
-0.021751 0.032168 0.877000
0.008182 0.030979 0.874000
0.007176 -0.033028 0.883000
-0.023301 -0.001407 0.881000
-0.006943 0.034656 0.876000
-0.021464 0.011996 0.880000
-0.024920 -0.018575 0.887000
0.012127 0.044717 0.848000
0.015610 0.044291 0.867000
-0.011386 0.000408 0.885000
-0.015376 0.000044 0.884000
0.031926 0.033153 0.884000
0.011354 0.043320 0.869000
-0.016542 -0.028829 0.888000
-0.014235 0.014910 0.881000
0.006804 -0.011573 0.882000
0.000267 0.036693 0.873000
0.002456 -0.026547 0.885000
-0.001919 -0.040114 0.887000
-0.027590 -0.024558 0.879000
0.020319 0.027257 0.870000
0.025549 -0.032924 0.890000
-0.000821 -0.014874 0.884000
0.011123 -0.014066 0.879000
-0.007296 0.035696 0.875000
-0.019854 -0.036180 0.889000
0.019223 0.029371 0.869000
-0.014139 0.040378 0.875000
-0.022364 -0.013829 0.887000
-0.007396 -0.035368 0.887000
-0.000453 0.024892 0.875000
-0.008836 -0.019262 0.885000
-0.017499 0.012735 0.881000
0.000628 0.032492 0.876000
-0.025257 -0.022201 0.886000
0.004258 -0.017361 0.881000
0.013500 0.037598 0.869000
0.023840 -0.018087 0.881000
0.004268 -0.011586 0.883000
0.002821 -0.038203 0.885000
-0.000094 -0.038246 0.886000
-0.013952 -0.020377 0.886000
0.019179 0.042150 0.867000
0.016758 0.022269 0.871000
-0.010537 0.037137 0.875000
-0.005922 -0.013069 0.885000
0.020623 -0.037026 0.883000
-0.025029 0.031121 0.878000
-0.008736 0.036057 0.875000
-0.001530 0.037771 0.873000
-0.006620 0.015635 0.881000
-0.021875 -0.008669 0.882000
-0.021053 0.028953 0.878000
0.015341 0.017988 0.872000
-0.018390 -0.029960 0.889000
-0.016486 -0.006149 0.885000
-0.001887 0.040599 0.872000
0.031057 0.034814 0.880000
0.003134 0.040911 0.871000
-0.013633 -0.046059 0.889000
0.030781 0.001147 0.893000
-0.013480 0.021388 0.879000
0.015034 0.001844 0.875000
-0.005152 0.017750 0.878000
0.010639 0.041532 0.869000
0.015051 -0.003923 0.876000
-0.012727 0.030364 0.877000
0.009687 -0.005389 0.880000
0.028785 0.026393 0.877000
0.021590 -0.016580 0.878000
0.016493 -0.003923 0.876000
-0.009467 0.034295 0.876000
0.001708 0.032455 0.875000
-0.012019 0.023894 0.878000
-0.013449 0.027476 0.877000
0.010387 0.005103 0.878000
0.021615 -0.016960 0.879000
0.016796 0.010104 0.873000
-0.021125 0.005845 0.881000
0.014914 0.040770 0.868000
0.015034 0.001124 0.875000
0.010328 0.021242 0.873000
-0.002279 -0.054594 0.885000
-0.012493 -0.004332 0.886000
-0.005501 0.025281 0.876000
0.020413 0.002921 0.874000
0.004268 -0.024669 0.883000
-0.013999 -0.039107 0.889000
0.023088 -0.019153 0.880000
0.009599 0.029832 0.872000
-0.012887 -0.025540 0.888000
0.014363 -0.010798 0.878000
-0.026988 -0.030484 0.883000
-0.004480 -0.027002 0.888000
0.019716 -0.001757 0.875000
-0.025592 -0.022904 0.885000
-0.029367 -0.031423 0.889000
-0.005193 -0.048766 0.885000
-0.013618 -0.027733 0.888000
0.007428 0.039431 0.870000
0.004955 0.016628 0.876000
-0.005205 -0.038289 0.887000
0.017273 -0.021302 0.879000
0.030073 0.020032 0.883000
0.015017 0.011554 0.874000
0.026857 0.024476 0.873000
-0.016504 -0.015637 0.886000
0.028651 0.006593 0.884000
-0.022049 -0.032155 0.889000
-0.015012 0.002954 0.884000
-0.016907 -0.027733 0.888000
0.010387 0.005825 0.878000
-0.031604 -0.020725 0.870000
-0.019608 0.031121 0.878000
-0.002266 -0.050301 0.880000
0.018508 0.032233 0.869000
0.008610 -0.007209 0.881000
-0.013252 -0.025540 0.888000
0.011135 -0.018428 0.880000
0.010749 0.006187 0.878000
0.002420 0.037010 0.872000
-0.002644 -0.010884 0.885000
0.018721 -0.023111 0.879000
0.029379 0.012050 0.884000
-0.004404 0.037771 0.873000
0.000631 0.013445 0.880000
-0.007752 -0.010167 0.886000
-0.007752 -0.009802 0.886000
-0.022339 -0.013084 0.886000
-0.008034 0.026393 0.877000
-0.015012 0.001499 0.884000
0.010773 -0.018066 0.880000
-0.013587 -0.046998 0.886000
-0.011964 0.041411 0.874000
0.014297 0.007597 0.874000
-0.018885 0.030398 0.878000
0.015985 0.043628 0.868000
0.025098 -0.028797 0.887000
-0.015341 0.010934 0.882000
0.019938 0.031160 0.869000
-0.026595 -0.027909 0.882000
-0.006286 -0.023633 0.885000
0.000269 0.011271 0.880000
0.020915 -0.023861 0.880000
0.012441 0.032270 0.870000
-0.020197 -0.024078 0.888000
0.012125 0.019087 0.873000
0.018254 0.007238 0.874000
0.030471 0.021874 0.884000
0.008993 -0.030848 0.883000
0.023184 0.023318 0.870000
-0.001921 -0.046007 0.888000
-0.014349 -0.029926 0.888000
0.009610 0.028429 0.873000
0.007159 -0.014098 0.881000
-0.007312 0.024227 0.877000
-0.017312 -0.037319 0.890000
-0.009895 0.013112 0.882000
0.007876 0.001854 0.880000
-0.008328 -0.051878 0.870000
0.031339 0.019049 0.888000
-0.008716 0.041005 0.873000
0.020483 -0.011507 0.877000
0.024231 0.030444 0.869000
-0.004475 -0.047781 0.887000
-0.015254 0.031086 0.877000
-0.018245 0.007667 0.882000
0.000997 -0.023216 0.883000
0.028851 0.020303 0.879000
0.021156 -0.003198 0.875000
-0.009597 -0.034312 0.888000
0.018254 0.003640 0.874000
0.017077 0.034021 0.869000
-0.020377 0.017066 0.880000
0.026429 -0.037161 0.895000
0.006735 0.033100 0.873000
0.021060 0.020835 0.871000
-0.021751 0.033612 0.877000
0.011498 -0.022050 0.880000
-0.010835 0.041938 0.870000
0.014001 -0.009714 0.878000
0.005370 0.000044 0.885000
-0.023852 -0.030657 0.888000
-0.023449 0.035974 0.873000
0.016041 0.026930 0.871000
-0.028577 -0.019787 0.876000
0.027965 -0.029860 0.897000
-0.007682 0.031482 0.878000
-0.005915 -0.019240 0.884000
0.028319 0.002229 0.885000
0.015535 -0.039570 0.883000
-0.004460 -0.018512 0.884000
0.020796 -0.001037 0.875000
-0.018692 -0.045174 0.886000
0.022135 0.021194 0.871000
0.024984 -0.019945 0.883000
-0.010340 -0.026301 0.889000
0.012097 0.029081 0.871000
-0.017519 0.008756 0.882000
0.021011 0.028298 0.869000
0.005279 0.042654 0.870000
0.020460 -0.008610 0.876000
-0.000453 0.022011 0.875000
0.025750 0.023013 0.872000
-0.023879 -0.028862 0.889000
-0.015219 0.041098 0.875000
-0.011750 -0.014526 0.885000
-0.020585 -0.025569 0.889000
0.012902 -0.003566 0.877000
0.001700 0.040552 0.871000
0.007505 0.006194 0.879000
0.004278 -0.038203 0.885000
-0.007023 -0.024753 0.886000
-0.004780 0.033574 0.876000
0.013624 -0.002844 0.877000
0.009250 0.024117 0.873000
0.017854 0.017270 0.872000
0.004955 0.030690 0.876000
0.022752 -0.025701 0.881000
-0.012128 -0.009437 0.886000
-0.015410 -0.019283 0.886000
-0.003380 -0.026972 0.887000
0.005364 -0.028700 0.884000
0.001718 0.011996 0.880000
-0.025257 -0.033870 0.886000
0.000268 0.031771 0.876000
-0.010694 -0.037967 0.888000
0.031092 0.033403 0.881000
0.005722 -0.011223 0.883000
-0.008866 -0.032850 0.888000
-0.022448 0.029969 0.876000
-0.022473 0.012316 0.877000
-0.016523 -0.020400 0.887000
-0.020716 0.022112 0.879000
-0.008501 -0.040525 0.888000
0.027622 -0.005791 0.886000
-0.006928 0.037454 0.874000
-0.011034 -0.007614 0.886000
-0.008405 0.030398 0.878000
-0.010537 0.038578 0.875000
-0.013967 -0.024781 0.887000
0.022957 0.002204 0.875000
0.006797 -0.016636 0.881000
0.014081 -0.037753 0.883000
0.020319 0.025824 0.870000
-0.013967 -0.022956 0.887000
0.019267 0.022269 0.871000
0.021108 0.009745 0.873000
0.006037 0.015186 0.876000
-0.012073 0.014201 0.882000
-0.008836 -0.013434 0.885000
0.001363 -0.033467 0.885000
0.014281 0.016212 0.873000
-0.024583 -0.035408 0.888000
0.023584 -0.033832 0.885000
0.019829 -0.025672 0.880000
0.026950 0.014105 0.876000
-0.007387 -0.009073 0.886000
-0.011022 -0.001049 0.885000
0.014931 0.037955 0.869000
0.015826 -0.021302 0.879000
-0.012115 0.003686 0.885000
0.027105 -0.022744 0.893000
-0.014316 -0.021836 0.886000
-0.020516 -0.010896 0.886000
-0.008866 -0.036870 0.888000
-0.023945 0.014137 0.878000
0.002429 0.018770 0.875000
-0.007312 0.020618 0.877000
-0.009242 -0.046425 0.889000
0.008541 0.030260 0.874000
0.007102 0.017670 0.874000
-0.009211 -0.005426 0.886000
0.012153 0.011207 0.875000
0.019488 -0.029690 0.881000
-0.009575 -0.022930 0.886000
-0.009575 -0.011261 0.886000
-0.015445 -0.029560 0.888000
0.014314 0.003645 0.875000
0.020099 -0.007168 0.876000
0.008610 -0.019900 0.881000
0.007522 -0.017724 0.881000
0.014001 -0.014411 0.878000
0.009969 0.021242 0.873000
-0.017459 0.024283 0.879000
-0.015132 0.041938 0.870000
0.028230 0.036250 0.871000
0.001362 -0.025061 0.884000
-0.018059 0.040645 0.873000
0.020460 -0.005725 0.876000
0.019716 -0.001397 0.875000
0.017156 0.009385 0.873000
-0.017195 0.000044 0.884000
0.018865 0.030087 0.869000
-0.012858 -0.018919 0.886000
-0.007304 0.034295 0.876000
0.027871 -0.022769 0.894000
-0.023825 -0.017845 0.887000
-0.025592 -0.015983 0.885000
-0.008434 0.015998 0.881000
0.017314 0.045152 0.863000
-0.003001 -0.016311 0.883000
-0.021851 -0.007209 0.881000
-0.025285 -0.024781 0.887000
-0.004101 -0.013434 0.885000
0.010060 -0.026427 0.881000
-0.012535 -0.028862 0.889000
0.016892 -0.014411 0.878000
0.009687 -0.006838 0.880000
0.024786 0.003288 0.876000
0.000989 0.031411 0.876000
0.011429 0.044019 0.848000
-0.023116 0.030620 0.874000
-0.005558 -0.008698 0.885000
-0.017059 0.035056 0.877000
-0.001919 -0.030987 0.887000
0.022778 -0.029361 0.882000
-0.018692 -0.014543 0.886000
0.005316 0.016628 0.876000
-0.024251 0.024560 0.876000
-0.022550 -0.005389 0.880000
0.027702 0.016647 0.877000
-0.015939 0.040378 0.875000
0.026459 -0.026139 0.896000
0.011148 -0.022438 0.881000
0.007471 0.016249 0.875000
-0.016158 -0.022591 0.887000
0.005702 0.008012 0.880000
-0.008126 -0.032448 0.887000
-0.019290 0.022137 0.880000
0.009346 -0.028635 0.882000
-0.016085 0.004768 0.883000
-0.017658 -0.029594 0.889000
0.006071 -0.019537 0.881000
-0.007717 0.011660 0.882000
0.004282 -0.030223 0.886000
-0.026262 -0.026487 0.883000
-0.016121 -0.010884 0.885000
0.003178 -0.010132 0.883000
0.004268 -0.024306 0.883000
0.014914 0.040412 0.868000
-0.005935 -0.037194 0.887000
-0.020470 -0.007597 0.884000
-0.022188 -0.003216 0.880000
-0.009543 0.009493 0.883000
-0.014416 0.042296 0.870000
0.023062 -0.013704 0.879000
0.016411 0.044980 0.853000
0.009314 0.002938 0.879000
0.003062 0.044174 0.851000
-0.009850 0.022087 0.878000
-0.006888 0.043678 0.869000
-0.000820 -0.016311 0.883000
0.006361 0.039118 0.871000
-0.021999 -0.017115 0.887000
-0.021999 -0.014559 0.887000
0.021727 0.029014 0.869000
0.015359 0.013697 0.873000
0.008238 0.001130 0.880000
-0.002629 0.015256 0.880000
-0.024583 -0.029195 0.888000
0.010798 -0.029361 0.882000
0.020987 0.033267 0.868000
0.017899 0.045544 0.857000
0.001702 0.039522 0.872000
-0.019036 -0.008334 0.885000
0.001681 0.044339 0.861000
-0.015393 -0.013434 0.885000
-0.019854 -0.036912 0.889000
-0.028577 -0.022671 0.876000
0.020237 -0.034443 0.882000
0.023344 -0.002841 0.876000
0.022415 -0.029361 0.882000
-0.015410 -0.046633 0.886000
0.004224 0.023425 0.874000
0.017854 0.015117 0.872000
-0.009117 0.025671 0.877000
0.001365 -0.031682 0.886000
0.031634 0.024841 0.886000
0.021615 -0.020578 0.879000
-0.004419 0.023479 0.876000
-0.012156 -0.033581 0.888000
0.005728 0.005501 0.884000
0.029709 0.018578 0.883000
-0.023433 -0.034234 0.886000
0.019738 -0.006807 0.876000
-0.021751 0.028559 0.877000
0.021877 -0.000677 0.875000
0.017293 -0.027483 0.880000
0.008247 -0.003583 0.881000
-0.023825 -0.015289 0.887000
-0.012324 0.041052 0.874000
0.012599 -0.026427 0.881000
0.007496 0.011246 0.878000
0.026075 -0.010496 0.883000
-0.019036 -0.008698 0.885000
-0.019143 -0.037319 0.890000
-0.001552 -0.035328 0.886000
-0.010972 0.015273 0.881000
0.013218 0.010475 0.874000
-0.017638 -0.025175 0.888000
0.024257 -0.024306 0.883000
-0.019122 -0.040205 0.889000
-0.018971 0.006215 0.882000
0.007176 -0.031938 0.883000
0.018150 0.033306 0.869000
-0.023069 -0.036422 0.886000
0.014199 0.042556 0.868000
-0.003698 0.021315 0.876000
0.011779 0.014072 0.874000
-0.000453 0.023452 0.875000
0.001722 -0.019922 0.882000
-0.009565 -0.005056 0.885000
-0.001919 -0.027337 0.887000
0.026169 0.014792 0.874000
0.017575 -0.006447 0.876000
-0.024223 0.027053 0.875000
-0.016926 -0.031423 0.889000
-0.006568 0.038893 0.874000
0.028295 0.030944 0.873000
0.009599 0.029114 0.872000
-0.002641 -0.023606 0.884000
0.011445 0.007975 0.876000
0.000271 -0.029527 0.887000
-0.021677 0.037095 0.874000
-0.010200 0.027476 0.877000
-0.002641 -0.021787 0.884000
-0.002611 -0.051757 0.874000
-0.000459 -0.041574 0.887000
0.003185 -0.039660 0.885000
-0.020083 -0.004681 0.883000
0.015700 0.021936 0.872000
-0.004435 -0.050244 0.879000
0.012484 0.015493 0.873000
-0.013810 -0.049047 0.877000
0.017555 0.002564 0.875000
-0.014284 0.006593 0.884000
0.017772 0.036840 0.868000
-0.024054 -0.009758 0.882000
-0.017175 0.002951 0.883000
0.020237 -0.034080 0.882000
-0.003011 -0.033505 0.886000
0.006044 0.014482 0.877000
-0.018714 -0.019305 0.887000
-0.017000 0.041052 0.874000
0.027466 0.004395 0.881000
0.007522 -0.022800 0.881000
-0.012281 -0.051938 0.871000
-0.021801 0.011620 0.879000
-0.002977 0.019873 0.876000
0.007831 0.015889 0.875000
0.028230 0.037684 0.871000
-0.022860 0.011246 0.878000
-0.011399 -0.005061 0.886000
0.000989 0.018792 0.876000
0.011380 0.030514 0.871000
-0.021245 -0.011990 0.886000
-0.015097 -0.038009 0.889000
-0.023835 0.030979 0.874000
-0.009148 0.016342 0.880000
0.000985 0.037727 0.872000
0.019378 -0.007168 0.876000
-0.020910 0.039163 0.872000
-0.000811 0.037052 0.873000
-0.017841 0.017429 0.880000
-0.025927 -0.022878 0.884000
0.007070 0.040506 0.870000
-0.019488 -0.030691 0.889000
0.014741 -0.018407 0.879000
0.006383 0.023065 0.874000
0.023211 0.022628 0.871000
0.027154 0.031231 0.871000
0.012770 0.043628 0.868000
0.018254 0.007597 0.874000
0.031022 0.038754 0.879000
-0.022473 0.016286 0.877000
-0.020015 0.016342 0.880000
0.021752 0.021886 0.870000
0.022027 -0.028240 0.881000
0.028191 0.009834 0.881000
-0.021610 -0.038975 0.886000
0.001708 0.027413 0.875000
-0.012115 0.000044 0.885000
0.021802 0.013322 0.872000
0.003767 0.043876 0.852000
-0.013983 -0.031022 0.888000
0.029406 0.037095 0.874000
-0.014731 -0.038375 0.889000
0.013640 -0.013689 0.878000
-0.018024 -0.031057 0.889000
-0.016374 0.023921 0.879000
0.004181 0.044189 0.865000
0.013985 -0.008981 0.877000
-0.000094 -0.011963 0.884000
0.008600 0.001130 0.880000
-0.021221 -0.010884 0.885000
0.019356 -0.003558 0.875000
0.010399 -0.011895 0.879000
-0.004424 0.018452 0.877000
-0.002284 -0.041940 0.887000
0.029445 0.008796 0.886000
-0.017136 0.012372 0.881000
-0.005848 0.038533 0.874000
0.009969 0.019805 0.873000
-0.014648 0.005865 0.884000
-0.015271 0.028230 0.878000
-0.021464 -0.002854 0.880000
0.014232 0.030838 0.870000
0.008502 0.043012 0.870000
-0.017598 -0.046633 0.886000
0.007530 -0.009032 0.882000
-0.005862 0.026724 0.876000
-0.021826 -0.003216 0.880000
-0.001188 -0.034599 0.886000
0.015017 0.009036 0.874000
0.003188 -0.032046 0.886000
0.030746 0.005184 0.892000
-0.022024 -0.022251 0.888000
-0.021464 -0.004665 0.880000
0.027934 -0.027614 0.896000
-0.024334 0.019218 0.879000
-0.007237 0.042556 0.868000
-0.016907 -0.024809 0.888000
0.005358 -0.011586 0.883000
-0.015885 0.041675 0.872000
0.016587 -0.034041 0.881000
-0.016213 -0.041349 0.890000
0.017415 0.040055 0.868000
0.005285 0.038043 0.871000
-0.002620 0.028559 0.877000
-0.027684 -0.014477 0.882000
-0.017156 0.010934 0.882000
-0.012465 0.005137 0.884000
0.006023 0.024504 0.874000
-0.016085 0.006585 0.883000
0.029080 0.032815 0.875000
-0.002282 -0.034599 0.886000
-0.004780 0.025281 0.876000
-0.004430 0.031844 0.878000
0.008962 -0.000681 0.880000
0.007143 0.009450 0.879000
0.011085 0.009417 0.876000
-0.027259 -0.026034 0.880000
-0.000824 -0.048146 0.887000
0.005709 -0.020625 0.881000
0.010712 0.011928 0.875000
-0.003380 -0.037559 0.887000
0.002811 -0.020648 0.882000
-0.000455 0.015600 0.879000
-0.022550 -0.004665 0.880000
0.006434 -0.014823 0.881000
-0.022704 -0.037516 0.886000
-0.000805 0.043527 0.866000
0.013609 0.002928 0.876000
-0.015097 -0.037277 0.889000
0.026888 0.021267 0.874000
0.007530 -0.027546 0.882000
-0.024054 0.010208 0.882000
0.024565 -0.016636 0.881000
0.011537 -0.034845 0.883000
-0.014015 -0.043180 0.890000
0.002420 0.036292 0.872000
-0.023476 0.034217 0.874000
0.010032 0.044368 0.848000
0.002071 0.018431 0.876000
-0.016812 0.007312 0.883000
0.017655 -0.028207 0.880000
0.016512 -0.009703 0.877000
-0.015271 0.024978 0.878000
0.022597 0.000043 0.875000
0.008600 -0.015531 0.880000
0.004814 0.045575 0.851000
-0.021999 -0.016384 0.887000
-0.012549 -0.042081 0.890000
0.017535 0.007597 0.874000
0.015985 0.041484 0.868000
0.011833 -0.010436 0.878000
-0.016194 -0.036546 0.889000
0.003545 -0.011599 0.884000
0.029040 -0.018395 0.896000
-0.016812 0.003314 0.883000
0.014379 -0.018407 0.879000
-0.004064 0.018813 0.877000
0.013609 0.000043 0.876000
0.003152 0.016989 0.876000
-0.004404 0.038489 0.873000
-0.020951 -0.043864 0.889000
-0.000093 0.028920 0.877000
-0.001551 -0.011977 0.885000
0.019444 -0.019854 0.879000
-0.019854 -0.029960 0.889000
0.019017 -0.006807 0.876000
0.009577 0.039431 0.870000
-0.016140 -0.017825 0.886000
0.028113 -0.011678 0.890000
0.022102 -0.038887 0.884000
-0.016504 -0.014178 0.886000
-0.014995 0.009493 0.883000
0.008962 -0.012995 0.880000
-0.009478 0.032890 0.877000
0.016022 0.031554 0.870000
0.019423 0.046164 0.862000
0.023062 -0.013342 0.879000
0.014691 -0.000317 0.876000
0.018359 -0.020940 0.879000
-0.003345 0.017028 0.878000
-0.020516 -0.011261 0.886000
-0.020910 0.039522 0.872000
-0.008108 -0.021083 0.885000
-0.018245 0.006578 0.882000
0.016059 0.020500 0.872000
0.019082 -0.023834 0.879000
-0.009565 -0.018533 0.885000
0.008891 0.025554 0.873000
-0.019246 0.029676 0.878000
-0.018286 -0.006142 0.884000
0.019716 0.000403 0.875000
0.014607 0.028722 0.871000
0.000630 0.016305 0.878000
-0.009929 -0.020354 0.885000
-0.021269 -0.017480 0.887000
0.020460 -0.006447 0.876000
0.012208 -0.015151 0.879000
0.024422 -0.038375 0.889000
-0.011059 -0.036139 0.888000
-0.017882 0.010934 0.882000
0.005709 -0.016999 0.881000
-0.001542 -0.050663 0.880000
-0.006650 -0.014162 0.885000
-0.022339 -0.012355 0.886000
-0.024555 -0.020035 0.887000
-0.016907 -0.029926 0.888000
0.003192 -0.029892 0.887000
0.002785 0.025583 0.874000
-0.015650 0.023559 0.879000
-0.006583 0.025281 0.876000
0.010761 -0.015513 0.879000
0.016096 0.007597 0.874000
0.029008 -0.017269 0.895000
0.007822 0.017670 0.874000
-0.006308 -0.040159 0.888000
0.021369 0.030802 0.869000
0.030277 0.006996 0.889000
-0.003323 0.040599 0.872000
0.000636 -0.039340 0.886000
-0.015757 -0.046945 0.885000
-0.015994 0.027146 0.878000
-0.016085 0.005132 0.883000
0.008247 -0.020262 0.881000
0.017751 0.044648 0.867000
-0.022473 0.015204 0.877000
0.028851 0.019941 0.879000
0.030107 0.017508 0.884000
-0.009117 0.026032 0.877000
0.013233 0.005445 0.875000
0.015502 0.047528 0.861000
0.019311 0.006870 0.873000
0.011550 -0.040342 0.884000
-0.017175 0.006585 0.883000
0.026075 -0.009769 0.883000
0.016170 -0.014411 0.878000
-0.018993 -0.001410 0.883000
0.018657 -0.006447 0.876000
-0.013999 -0.038741 0.889000
-0.008806 -0.048963 0.882000
-0.013267 -0.039839 0.889000
0.026768 -0.031600 0.894000
0.001363 -0.035289 0.885000
-0.001913 -0.009052 0.884000
0.021345 0.032196 0.868000
0.012167 0.007615 0.876000
0.011819 0.003292 0.877000
0.002459 -0.043716 0.886000
0.011725 0.033702 0.870000
-0.019720 0.002588 0.883000
-0.024527 -0.033870 0.886000
-0.000821 -0.025061 0.884000
0.032472 0.024559 0.889000
-0.007638 -0.050979 0.873000
0.007831 0.015529 0.875000
0.000999 -0.036017 0.885000
0.008266 -0.032301 0.883000
0.030141 0.026270 0.885000
0.009367 -0.039251 0.884000
0.019378 -0.008970 0.876000
0.017813 0.028331 0.870000
0.030379 0.000411 0.892000
0.011833 -0.009714 0.878000
-0.008126 -0.025511 0.887000
0.004995 -0.013040 0.883000
0.016151 -0.009703 0.877000
-0.017440 0.031844 0.878000
-0.001189 -0.027337 0.887000
0.004944 0.025224 0.874000
0.003759 0.044472 0.850000
0.011752 0.024807 0.872000
0.019938 0.029371 0.869000
0.030147 -0.009544 0.896000
0.018909 0.020477 0.871000
0.007102 0.031699 0.874000
-0.031604 -0.022158 0.870000
-0.023835 0.035656 0.874000
0.014314 0.002924 0.875000
0.013203 0.014775 0.873000
0.012264 -0.035936 0.883000
-0.015376 0.004410 0.884000
0.021902 -0.003923 0.876000
-0.005164 0.016342 0.880000
-0.002629 0.014531 0.880000
0.004944 0.022706 0.874000
-0.014893 0.034695 0.877000
0.007428 0.039073 0.870000
0.004210 0.039477 0.871000
-0.019833 0.040240 0.872000
0.019761 -0.013312 0.877000
0.018930 0.014399 0.872000
-0.020423 0.000770 0.882000
0.013233 0.005085 0.875000
0.005352 -0.007217 0.882000
0.008285 -0.040024 0.885000
0.000628 0.022372 0.875000
0.026193 -0.019305 0.887000
-0.021826 -0.006476 0.880000
-0.016213 -0.040250 0.890000
0.024871 -0.007192 0.879000
0.017057 0.037554 0.868000
-0.017983 -0.018210 0.887000
-0.001184 -0.017764 0.883000
0.016225 -0.032953 0.881000
-0.014015 -0.042448 0.890000
0.026222 -0.021885 0.888000
0.025635 -0.037813 0.893000
0.018909 0.019043 0.871000
0.012976 -0.033354 0.882000
-0.019246 0.030037 0.878000
-0.009211 -0.005061 0.886000
0.005346 -0.015548 0.881000
-0.009148 -0.049215 0.880000
-0.012770 0.015980 0.880000
0.027073 0.005114 0.880000
-0.020083 -0.001774 0.883000
0.015412 -0.002481 0.876000
-0.015633 0.029676 0.878000
-0.013826 0.024255 0.878000
0.025606 -0.036669 0.892000
-0.006258 0.014910 0.881000
0.025362 0.026571 0.871000
-0.020585 -0.035448 0.889000
-0.024081 -0.011586 0.883000
-0.027259 -0.029656 0.880000
-0.004114 -0.029195 0.888000
-0.009839 0.028920 0.877000
-0.007752 -0.008343 0.886000
-0.012394 0.017771 0.879000
-0.016448 0.004041 0.883000
0.024230 -0.019922 0.882000
0.027903 0.030549 0.872000
-0.010669 -0.021471 0.886000
-0.011386 -0.002870 0.885000
0.001726 -0.013418 0.884000
0.020191 -0.024223 0.880000
-0.013633 -0.028130 0.889000
-0.004780 0.023479 0.876000
0.003541 -0.009769 0.883000
-0.022188 -0.004665 0.880000
0.011367 0.036925 0.870000
0.014281 0.013697 0.873000
-0.022499 0.009078 0.878000
0.015376 0.007957 0.874000
-0.014548 0.023894 0.878000
-0.012535 -0.040205 0.889000
-0.019697 0.006215 0.882000
0.002779 0.039163 0.872000
0.007167 -0.011210 0.882000
-0.018950 0.015273 0.881000
-0.016176 -0.029926 0.888000
0.007151 0.004390 0.880000
-0.012183 -0.043913 0.890000
0.019147 -0.043247 0.899000
0.023246 -0.038975 0.886000
-0.024892 -0.034234 0.886000
0.002805 0.011271 0.880000
0.005358 -0.002500 0.883000
-0.017499 0.012372 0.881000
0.003163 0.013791 0.879000
0.006368 0.034497 0.872000
0.019738 -0.005365 0.876000
-0.004465 -0.010884 0.885000
0.009720 -0.036662 0.883000
0.014412 -0.031866 0.881000
-0.014381 -0.039517 0.890000
0.022059 0.033982 0.868000
-0.007337 -0.049577 0.880000
0.018233 0.009385 0.873000
0.020076 -0.001037 0.875000
0.024093 -0.005010 0.877000
0.010639 0.042605 0.869000
-0.009597 -0.037236 0.888000
-0.019268 0.027900 0.879000
0.008172 0.025913 0.873000
0.008639 -0.037068 0.884000
-0.004845 -0.046373 0.888000
0.027734 0.013775 0.878000
0.008962 -0.015531 0.880000
0.000994 -0.051388 0.880000
-0.015793 -0.022226 0.887000
-0.024695 0.025730 0.879000
0.020987 0.033625 0.868000
0.009334 0.044717 0.848000
-0.014416 0.042654 0.870000
0.012069 0.040459 0.869000
0.018822 0.042150 0.867000
0.018996 -0.000677 0.875000
0.016096 0.006518 0.874000
0.011393 0.025525 0.872000
-0.013587 -0.008343 0.886000
0.007454 0.023398 0.873000
0.015051 -0.004644 0.876000
-0.004824 -0.019240 0.884000
0.018844 0.036125 0.868000
0.016243 -0.039525 0.882000
0.004610 0.012344 0.879000
0.028319 0.001865 0.885000
0.027622 -0.006155 0.886000
0.019378 -0.004644 0.876000
0.023867 -0.022100 0.882000
-0.006315 -0.028130 0.889000
-0.006308 -0.041621 0.888000
-0.024217 -0.023347 0.888000
0.013339 -0.033717 0.882000
0.014674 0.005805 0.875000
0.000636 -0.026577 0.886000
0.019017 -0.007889 0.876000
0.028415 -0.004342 0.888000
0.025041 -0.023268 0.885000
-0.009940 -0.011261 0.886000
-0.002287 -0.046373 0.888000
0.009687 -0.018791 0.880000
0.016512 -0.007898 0.877000
0.007167 -0.010847 0.882000
-0.010177 0.036417 0.875000
0.025275 0.036125 0.868000
0.003174 -0.016655 0.882000
-0.017983 -0.046686 0.887000
0.010060 -0.025701 0.881000
-0.019809 -0.015289 0.887000
0.015120 -0.023499 0.880000
-0.022938 -0.005396 0.881000
0.016587 -0.029690 0.881000
-0.016542 -0.025540 0.888000
0.012902 -0.006093 0.877000
0.014948 0.032270 0.870000
-0.021986 0.039163 0.872000
-0.013282 -0.045012 0.890000
0.016796 0.011182 0.873000
0.012527 0.002567 0.876000
0.017854 0.017629 0.872000
-0.004110 -0.040479 0.887000
-0.009211 -0.012719 0.886000
-0.015722 0.009493 0.883000
0.003887 0.013429 0.879000
0.022313 -0.011520 0.878000
-0.005445 0.043221 0.867000
-0.024555 -0.020765 0.887000
0.012814 0.030156 0.871000
-0.013633 -0.029594 0.889000
0.018785 -0.037710 0.882000
-0.004840 -0.040114 0.887000
-0.022339 -0.039704 0.886000
0.030505 0.022263 0.885000
-0.005583 -0.028862 0.889000
-0.017039 0.039343 0.876000
-0.007287 0.037454 0.874000
-0.007354 0.013112 0.882000
0.012527 0.001485 0.876000
-0.011399 -0.009437 0.886000
-0.000093 -0.051994 0.878000
0.005728 -0.032338 0.884000
-0.011777 -0.024416 0.887000
-0.012887 -0.026637 0.888000
0.017273 -0.023834 0.879000
0.002085 -0.018107 0.882000
0.022931 0.004720 0.874000
-0.021053 0.031482 0.878000
-0.020446 -0.005408 0.883000
0.016362 0.035094 0.869000
0.029212 -0.003619 0.890000
-0.017821 0.026815 0.879000
0.026169 0.016231 0.874000
0.007167 -0.023189 0.882000
-0.025927 -0.018512 0.884000
0.019024 0.047119 0.860000
0.016418 0.015835 0.872000
0.005612 0.047804 0.866000
0.004944 0.020188 0.874000
-0.011283 0.033251 0.877000
0.031092 0.034128 0.881000
0.030815 0.000044 0.894000
0.001724 -0.050473 0.883000
0.004631 -0.026123 0.883000
-0.016194 -0.032521 0.889000
-0.015811 -0.027002 0.888000
0.014556 0.040770 0.868000
0.003865 0.023785 0.874000
-0.016907 -0.027002 0.888000
0.021369 0.039386 0.869000
0.006456 -0.035249 0.884000
0.011778 0.045066 0.848000
-0.024500 -0.013798 0.885000
0.013922 0.016212 0.873000
-0.005551 -0.020695 0.884000
-0.030207 -0.020749 0.871000
-0.011764 -0.011261 0.886000
-0.014515 -0.049351 0.876000
0.011072 0.012288 0.875000
0.005676 0.029247 0.876000
0.013858 0.038671 0.869000
0.008238 0.001492 0.880000
-0.000093 -0.017764 0.883000
-0.030888 -0.021084 0.870000
-0.001161 0.042814 0.866000
-0.022755 -0.022982 0.888000
0.005709 -0.000319 0.881000
0.031079 0.010312 0.891000
0.006743 0.021267 0.874000
0.007548 -0.035612 0.884000
0.016969 -0.036621 0.882000
0.012284 0.047064 0.859000
0.031634 0.026664 0.886000
0.031854 0.038160 0.882000
0.016078 0.015493 0.873000
0.009643 0.012302 0.876000
0.006071 -0.015186 0.881000
-0.017821 0.022836 0.879000
-0.014171 0.028920 0.877000
-0.012858 -0.010167 0.886000
-0.008462 -0.015965 0.884000
-0.014681 -0.021471 0.886000
0.003541 -0.011223 0.883000
0.007548 -0.038159 0.884000
0.007530 -0.007943 0.882000
0.000633 -0.016311 0.883000
0.006434 -0.020262 0.881000
0.014982 0.023013 0.872000
0.021777 0.017967 0.871000
-0.011978 0.040378 0.875000
0.001328 0.044745 0.862000
0.024093 -0.001761 0.877000
0.020630 0.032553 0.868000
0.015359 0.012619 0.873000
0.016392 0.045629 0.852000
-0.015739 0.004410 0.884000
0.022135 0.020835 0.871000
0.010037 0.004023 0.879000
0.018909 0.021911 0.871000
0.013547 0.021936 0.872000
-0.008472 -0.014162 0.885000
0.012829 0.025166 0.872000
0.008860 0.042296 0.870000
0.004944 0.024145 0.874000
0.006558 -0.040981 0.898000
0.023732 -0.005732 0.877000
-0.000092 0.039163 0.872000
0.007143 0.010897 0.879000
0.020749 0.009385 0.873000
-0.006959 0.030760 0.878000
-0.002652 -0.044545 0.888000
0.030869 0.024448 0.885000
0.017435 0.035452 0.869000
0.022931 0.008317 0.874000
-0.005188 -0.017421 0.884000
-0.009918 0.001863 0.884000
-0.002246 0.040599 0.872000
0.027892 0.004405 0.883000
-0.005205 -0.039019 0.887000
0.023211 0.019043 0.871000
0.026827 -0.036096 0.896000
0.015448 0.047010 0.858000
-0.022730 0.036333 0.873000
-0.021610 -0.012355 0.886000
0.014657 0.007957 0.874000
0.018380 -0.027121 0.880000
0.022161 0.012605 0.872000
0.011367 0.038715 0.870000
0.004249 0.011259 0.879000
0.013173 0.028722 0.871000
0.025770 -0.018533 0.885000
0.019874 -0.034806 0.882000
-0.003376 -0.033140 0.886000
0.021713 -0.035572 0.883000
0.018657 -0.004283 0.876000
-0.014300 -0.014162 0.885000
0.011173 -0.035572 0.883000
0.008610 -0.006121 0.881000
0.000631 0.014169 0.880000
0.011725 0.038357 0.870000
0.005709 0.002582 0.881000
-0.015097 -0.035814 0.889000
-0.006300 -0.047781 0.887000
0.011022 0.031948 0.871000
-0.018587 0.016361 0.881000
-0.023917 0.016647 0.877000
-0.002608 0.037411 0.873000
0.009969 0.024117 0.873000
-0.001889 0.035615 0.873000
0.007893 -0.025367 0.882000
-0.012128 -0.047362 0.886000
0.022416 0.034696 0.868000
-0.009128 0.020280 0.878000
0.028230 0.036609 0.871000
-0.001889 0.039208 0.873000
0.021011 0.029729 0.869000
0.003927 -0.046007 0.888000
-0.007621 -0.051579 0.871000
-0.019268 0.026815 0.879000
-0.008726 0.040332 0.874000
0.008247 -0.006483 0.881000
0.020343 0.018326 0.871000
-0.009608 -0.043132 0.889000
-0.018348 -0.044130 0.887000
-0.009974 -0.026667 0.889000
-0.016337 0.031447 0.877000
0.030079 -0.006579 0.894000
-0.016560 -0.030691 0.889000
0.019738 -0.007528 0.876000
0.028489 0.017409 0.879000
0.008620 -0.025730 0.882000
0.027136 -0.023137 0.894000
-0.017499 0.014910 0.881000
-0.000818 0.011284 0.881000
0.016456 0.005439 0.874000
-0.026262 -0.027577 0.883000
0.028447 -0.006176 0.889000
0.007893 -0.009032 0.882000
-0.001885 0.041628 0.871000
0.023928 0.019760 0.871000
0.012456 0.026930 0.871000
0.025957 -0.002127 0.879000
0.005352 -0.024278 0.882000
