-0.039875 -0.015941 0.863000
0.023708 -0.016652 0.863000
-0.026347 -0.026921 0.862000
0.033576 0.015471 0.852000
-0.013495 -0.033114 0.857000
0.032600 0.023944 0.854000
0.000974 0.020644 0.863000
-0.011827 0.017467 0.864000
-0.018605 0.006451 0.865000
0.012652 0.024112 0.860000
0.000613 -0.020720 0.855000
0.004142 -0.034877 0.857000
0.041006 0.030775 0.839000
-0.018123 -0.032130 0.859000
0.018913 0.040511 0.855000
0.033264 0.021107 0.853000
-0.004329 -0.016202 0.858000
-0.018940 -0.022005 0.864000
-0.008290 0.012874 0.866000
0.031822 0.014069 0.852000
-0.012480 -0.015886 0.860000
0.033069 0.034944 0.848000
-0.031705 -0.031925 0.863000
0.011236 0.004644 0.860000
0.011223 0.017720 0.859000
0.016450 0.004265 0.855000
0.014725 0.003570 0.857000
0.013666 -0.023943 0.857000
0.017983 0.023785 0.861000
0.016079 -0.002418 0.854000
-0.013558 0.019887 0.861000
0.026304 0.034881 0.855000
0.002370 -0.025968 0.854000
0.022380 0.004606 0.853000
0.028666 0.004951 0.852000
-0.038604 -0.033267 0.843000
0.018572 -0.027951 0.872000
-0.006493 0.019245 0.864000
0.013682 0.012049 0.858000
0.017837 -0.015423 0.854000
0.015077 0.009213 0.857000
0.017962 0.034731 0.860000
0.021703 0.009532 0.854000
0.019709 0.027973 0.859000
-0.028088 -0.034686 0.861000
-0.014706 0.001468 0.866000
0.004526 0.017092 0.863000
0.012255 -0.025354 0.857000
0.002722 -0.028780 0.854000
-0.013558 -0.012360 0.861000
0.017588 0.020902 0.859000
0.003077 -0.017201 0.855000
0.009763 -0.009811 0.855000
0.025861 -0.002062 0.852000
0.028700 0.013383 0.853000
0.006997 0.026620 0.861000
-0.005369 -0.032685 0.855000
0.031158 0.018298 0.853000
0.001677 -0.012685 0.859000
-0.010723 0.024140 0.861000
0.003457 0.019556 0.862000
0.002750 0.027393 0.863000
0.018188 0.001800 0.854000
0.018605 0.018031 0.857000
0.039187 0.011263 0.852000
0.036775 0.031639 0.853000
-0.032303 0.001812 0.860000
-0.034073 -0.000665 0.860000
0.012623 -0.000311 0.858000
0.003812 0.024523 0.862000
-0.025370 -0.020250 0.865000
0.034628 0.020030 0.852000
-0.020646 0.008902 0.861000
-0.013188 -0.013762 0.860000
-0.020718 -0.004580 0.864000
0.012608 -0.025001 0.857000
0.008522 -0.039436 0.872000
0.015077 0.016268 0.857000
-0.011090 0.025232 0.862000
-0.030425 -0.002455 0.867000
-0.004003 0.026002 0.864000
0.020321 0.009544 0.855000
0.023237 -0.022568 0.872000
0.005194 -0.032018 0.856000
-0.035635 0.001450 0.855000
-0.007533 0.029810 0.861000
-0.020742 0.003603 0.865000
0.010516 0.019841 0.859000
-0.022444 0.006429 0.862000
-0.013945 -0.008127 0.863000
-0.013188 -0.024381 0.860000
0.012682 0.040488 0.862000
-0.017042 -0.033153 0.858000
0.011236 0.005352 0.860000
-0.042074 -0.001707 0.850000
0.005913 -0.033859 0.858000
-0.007906 -0.005640 0.863000
-0.023426 -0.037787 0.859000
0.028915 0.037082 0.849000
-0.013637 0.000399 0.866000
0.013730 0.041858 0.861000
0.044208 0.008547 0.861000
-0.035200 0.003553 0.853000
-0.041248 -0.023728 0.862000
-0.010429 -0.002452 0.866000
0.026427 -0.010918 0.859000
0.008424 0.028425 0.862000
-0.023508 -0.024083 0.862000
0.025391 -0.020055 0.872000
-0.029219 -0.027307 0.863000
-0.005781 0.019957 0.864000
0.003077 -0.020720 0.855000
-0.001502 -0.041227 0.857000
0.025159 -0.004166 0.852000
0.035116 -0.004225 0.864000
0.026593 0.011628 0.853000
-0.002584 0.012147 0.865000
0.002033 -0.008807 0.860000
0.001683 0.022749 0.862000
0.028030 0.017617 0.854000
-0.005781 0.027780 0.864000
-0.029574 -0.024821 0.863000
-0.024274 -0.021294 0.864000
0.031822 0.010913 0.852000
0.003812 0.023813 0.862000
0.008738 -0.030327 0.858000
0.035371 0.005308 0.853000
0.007360 0.012815 0.862000
0.009123 0.025557 0.861000
-0.006087 -0.045812 0.857000
0.008395 0.044590 0.859000
0.009855 0.038404 0.863000
-0.018249 0.006095 0.865000
-0.033126 -0.030859 0.863000
0.036381 0.009159 0.852000
-0.009348 0.014639 0.865000
0.008748 -0.001018 0.859000
0.026273 0.016211 0.854000
0.017899 0.016973 0.857000
-0.032528 -0.002809 0.866000
0.003084 -0.035936 0.857000
0.017608 0.023050 0.860000
-0.005438 0.015369 0.866000
0.017608 0.034731 0.860000
0.030346 -0.013206 0.870000
-0.035064 -0.010306 0.867000
-0.000799 -0.010930 0.860000
-0.000090 -0.031240 0.854000
-0.006864 0.009666 0.866000
0.040542 0.022108 0.851000
-0.006485 -0.007416 0.863000
0.001685 0.038759 0.863000
-0.019251 -0.016632 0.862000
0.032551 -0.005634 0.862000
0.025159 0.001445 0.852000
0.002019 -0.025265 0.854000
-0.020598 -0.031777 0.859000
-0.007171 -0.014116 0.860000
0.025540 -0.004171 0.853000
-0.036449 -0.018492 0.866000
0.024954 0.023675 0.857000
0.020745 0.018759 0.858000
-0.003258 -0.030221 0.855000
0.013954 -0.009437 0.853000
-0.030914 -0.040938 0.851000
-0.017456 0.013863 0.861000
0.032952 0.028864 0.854000
0.022158 0.029706 0.858000
0.028315 -0.001010 0.852000
-0.008537 -0.035852 0.855000
0.000265 0.015351 0.865000
0.034628 0.007757 0.852000
-0.028830 -0.032243 0.862000
0.037784 0.010211 0.852000
-0.004324 -0.020063 0.857000
0.025307 0.021911 0.857000
-0.000447 0.019601 0.864000
-0.030249 -0.033307 0.862000
-0.001168 -0.050145 0.871000
0.025570 0.014805 0.854000
-0.029506 -0.035040 0.861000
-0.032885 -0.016353 0.866000
-0.005781 0.018890 0.864000
-0.006864 0.015013 0.866000
-0.041773 -0.003811 0.851000
-0.010049 0.021023 0.864000
-0.002557 -0.021801 0.856000
0.003425 -0.023859 0.854000
0.026593 0.010223 0.853000
-0.003292 0.020668 0.864000
-0.023100 -0.032522 0.860000
-0.028218 -0.017758 0.865000
-0.002936 0.026713 0.864000
-0.028964 -0.009937 0.866000
0.005219 0.044641 0.860000
0.000262 -0.039862 0.858000
0.023543 0.031082 0.857000
-0.035718 -0.000310 0.857000
0.016762 -0.013650 0.853000
0.020156 -0.020203 0.863000
0.008069 0.028070 0.862000
0.014439 0.037960 0.861000
0.012682 0.033747 0.862000
-0.021073 -0.006358 0.864000
-0.011759 -0.017281 0.859000
-0.004709 0.029879 0.863000
0.012549 -0.013299 0.853000
-0.032627 -0.038091 0.850000
0.010198 0.043326 0.862000
0.015165 0.028780 0.862000
0.029858 0.033512 0.856000
-0.020386 0.005383 0.865000
0.026396 -0.010199 0.858000
0.014707 -0.021801 0.856000
-0.018918 -0.019848 0.863000
-0.033445 -0.036821 0.853000
0.015592 -0.027759 0.866000
0.007706 0.023785 0.861000
0.011262 -0.030114 0.862000
0.010565 0.040535 0.863000
-0.035298 -0.029828 0.864000
-0.009979 -0.019733 0.858000
-0.010785 0.006459 0.866000
-0.031816 -0.001739 0.866000
-0.005017 -0.041130 0.855000
-0.015045 0.011435 0.865000
-0.033637 -0.007451 0.867000
0.020062 0.031862 0.859000
0.042018 0.002184 0.867000
0.007994 -0.016126 0.854000
0.028581 -0.008807 0.860000
-0.011854 0.002181 0.866000
0.011972 0.034457 0.862000
0.011972 0.033747 0.862000
0.004205 -0.043284 0.870000
-0.031558 0.003931 0.859000
-0.012126 -0.016240 0.860000
-0.002199 -0.035458 0.854000
-0.039210 -0.012759 0.864000
-0.008213 -0.017261 0.858000
-0.007481 -0.035852 0.855000
0.029823 0.024323 0.855000
0.030175 0.033825 0.855000
0.026304 -0.007348 0.855000
0.009091 -0.004548 0.858000
0.026079 -0.018598 0.871000
-0.040770 -0.004166 0.852000
-0.036407 -0.008146 0.865000
0.037039 0.013352 0.851000
0.024809 -0.003815 0.852000
0.005927 -0.004205 0.860000
0.045218 0.010307 0.860000
-0.007221 0.010023 0.866000
0.007360 0.013524 0.862000
-0.041471 -0.005218 0.852000
-0.028964 -0.006373 0.866000
0.007086 -0.035847 0.872000
0.011145 -0.015405 0.853000
0.012327 0.038714 0.862000
0.032524 0.002847 0.852000
-0.031386 0.000754 0.864000
-0.029320 -0.010650 0.866000
0.038451 0.033073 0.836000
0.024601 0.034962 0.857000
0.029562 -0.013175 0.868000
0.000983 -0.047636 0.871000
-0.041909 -0.025827 0.861000
-0.040209 0.002154 0.855000
-0.002557 -0.019335 0.856000
0.018004 -0.022309 0.862000
0.007351 0.023431 0.861000
0.015430 0.012035 0.857000
-0.030640 -0.025176 0.863000
0.017608 0.033669 0.860000
0.019946 0.002503 0.854000
-0.010296 -0.041130 0.855000
-0.008899 -0.032371 0.856000
0.010163 0.018073 0.859000
0.003776 -0.027023 0.854000
-0.037614 0.000743 0.852000
0.012370 -0.030931 0.865000
-0.035380 -0.018492 0.866000
-0.031314 -0.032952 0.862000
0.018913 0.007432 0.855000
0.029426 -0.010626 0.864000
0.015857 0.036543 0.861000
-0.034498 0.004255 0.853000
0.034979 0.020030 0.852000
-0.008547 -0.029200 0.856000
-0.024658 0.003247 0.865000
0.029085 0.020077 0.854000
-0.024544 -0.026890 0.861000
0.037126 0.028128 0.853000
-0.000794 -0.021776 0.855000
0.038973 0.006728 0.855000
0.012682 0.041907 0.862000
-0.017831 0.011750 0.862000
0.015801 0.020171 0.858000
-0.014184 -0.039065 0.856000
-0.029895 -0.032597 0.862000
-0.031779 -0.001381 0.865000
0.009820 0.012431 0.860000
0.008060 -0.033268 0.861000
-0.027056 -0.029759 0.862000
-0.006425 -0.036908 0.855000
-0.027927 -0.001741 0.867000
0.039537 0.029147 0.852000
0.027647 0.012681 0.853000
0.021352 0.006721 0.854000
0.036381 0.032303 0.852000
0.001685 0.026327 0.863000
0.012976 0.001455 0.858000
0.007714 0.031973 0.862000
-0.020268 -0.027920 0.860000
0.037344 0.002867 0.858000
0.011875 -0.022831 0.855000
0.004836 -0.029869 0.855000
0.018518 -0.007331 0.853000
0.029153 0.033512 0.856000
-0.022063 -0.026181 0.861000
-0.033481 -0.032635 0.863000
0.022971 -0.016277 0.862000
-0.028409 -0.037831 0.860000
0.038090 0.018956 0.851000
0.029928 -0.005961 0.858000
-0.029219 0.005015 0.863000
0.024954 0.030729 0.857000
0.011903 -0.001369 0.857000
-0.041651 -0.019138 0.863000
-0.037831 -0.012418 0.865000
-0.016469 -0.002449 0.865000
0.000264 0.031336 0.864000
0.009134 0.034811 0.862000
-0.002919 -0.044505 0.859000
0.039187 0.024238 0.852000
0.006997 0.043630 0.861000
-0.006470 0.029101 0.861000
-0.030390 -0.007442 0.866000
-0.003292 0.028847 0.864000
0.015466 0.021255 0.859000
0.017628 0.025912 0.861000
-0.005735 -0.045459 0.857000
0.001317 -0.019664 0.855000
0.022537 0.024437 0.859000
0.003449 0.043934 0.860000
0.003803 -0.006683 0.860000
-0.014672 -0.006714 0.864000
-0.038544 -0.025591 0.865000
-0.008899 -0.031314 0.856000
-0.003605 -0.036513 0.854000
-0.029287 0.001823 0.865000
-0.034667 -0.017779 0.866000
-0.007577 0.012518 0.866000
0.003812 0.024168 0.862000
0.042018 0.001827 0.867000
0.036339 0.016854 0.851000
-0.031386 -0.023072 0.864000
-0.037519 -0.022769 0.866000
0.015077 0.012388 0.857000
-0.041871 -0.000660 0.853000
-0.005795 0.011092 0.866000
0.011341 -0.033539 0.868000
0.029788 0.022186 0.854000
-0.002228 0.017488 0.865000
0.020273 0.000744 0.853000
-0.039829 -0.018761 0.862000
0.041436 0.009192 0.855000
0.043495 0.003258 0.868000
-0.001872 0.016420 0.865000
-0.019674 0.003603 0.865000
-0.027862 -0.018826 0.865000
0.034587 0.010199 0.851000
-0.037525 0.003540 0.850000
-0.000091 -0.015478 0.857000
-0.041724 -0.002057 0.850000
0.049569 0.010403 0.868000
0.028349 -0.001362 0.853000
0.041388 0.010235 0.854000
-0.031205 -0.037787 0.859000
0.023980 -0.014116 0.860000
-0.012112 -0.023292 0.859000
-0.004308 -0.036864 0.854000
0.032218 0.036814 0.835000
0.025982 0.020476 0.856000
0.009112 -0.031460 0.860000
0.025218 0.014453 0.854000
0.006288 0.017407 0.861000
0.025510 0.000393 0.852000
0.013746 0.040843 0.862000
0.022184 -0.015514 0.859000
0.006997 0.017761 0.861000
0.005906 -0.033114 0.857000
0.029137 -0.012076 0.866000
0.039491 0.013352 0.851000
-0.019228 0.012091 0.861000
-0.012553 0.010011 0.865000
0.007661 -0.008413 0.856000
0.026593 -0.003820 0.853000
-0.029185 0.004655 0.862000
0.010528 0.021280 0.860000
0.003785 -0.014403 0.856000
-0.034427 -0.001373 0.860000
-0.019295 -0.021294 0.864000
-0.000091 -0.015125 0.857000
-0.005017 -0.034796 0.855000
-0.015684 -0.016259 0.861000
0.006251 -0.010175 0.856000
-0.001852 -0.040121 0.856000
0.044969 0.008557 0.862000
-0.038053 -0.001715 0.854000
0.026673 -0.015301 0.867000
0.008748 0.045650 0.859000
-0.030640 0.002174 0.863000
0.016488 0.015915 0.857000
-0.002584 0.014283 0.865000
0.017526 -0.018630 0.856000
0.009208 0.005050 0.869000
-0.013993 0.002538 0.866000
0.017628 0.028747 0.861000
0.007283 -0.020320 0.853000
0.040542 0.021758 0.851000
0.006237 -0.020696 0.854000
-0.020742 -0.000313 0.865000
0.042293 0.024910 0.851000
0.011958 0.043276 0.861000
0.018295 0.033630 0.859000
-0.031705 -0.029083 0.863000
0.023571 0.019465 0.858000
0.014742 0.019465 0.858000
0.033289 0.036514 0.836000
-0.002906 -0.027406 0.855000
-0.015062 -0.002809 0.866000
-0.029403 -0.040215 0.858000
-0.020718 -0.018093 0.864000
-0.018249 0.000755 0.865000
-0.004344 -0.047089 0.861000
-0.005407 -0.048506 0.861000
0.000974 0.028103 0.863000
-0.032822 -0.038608 0.846000
-0.002584 0.013927 0.865000
0.029436 -0.003121 0.854000
-0.006777 -0.041834 0.855000
0.026334 0.025057 0.856000
-0.018455 -0.034212 0.858000
0.000971 -0.010576 0.860000
0.015148 -0.025118 0.861000
-0.035257 -0.031925 0.863000
0.004171 0.014961 0.863000
0.009775 -0.005595 0.856000
0.021830 0.020195 0.859000
-0.019605 -0.013439 0.862000
0.015838 0.035438 0.860000
-0.009660 -0.012360 0.861000
-0.032135 -0.018114 0.865000
0.024809 0.036862 0.852000
-0.029320 0.000399 0.866000
0.016939 0.026297 0.862000
-0.003281 0.034417 0.861000
-0.010320 -0.030292 0.857000
0.001323 -0.012332 0.859000
0.024809 0.037213 0.852000
0.000977 -0.043747 0.865000
0.023433 0.006362 0.853000
-0.024658 -0.004586 0.865000
0.002019 -0.027023 0.854000
-0.014333 0.008231 0.865000
-0.011786 -0.012360 0.861000
-0.037389 -0.030504 0.863000
-0.000801 -0.043596 0.862000
0.007714 0.027361 0.862000
-0.001870 0.027780 0.864000
0.016527 0.021962 0.859000
0.018561 0.010599 0.855000
-0.024544 -0.030079 0.861000
-0.015684 -0.019448 0.861000
-0.039783 -0.029016 0.861000
-0.011026 -0.027823 0.857000
-0.023974 -0.017779 0.866000
0.006658 0.037693 0.863000
0.014035 0.018759 0.858000
-0.029287 -0.018470 0.865000
0.014456 0.031973 0.862000
-0.001512 0.022775 0.863000
0.003073 -0.022102 0.854000
0.014793 0.031936 0.861000
0.006588 -0.024914 0.854000
-0.004339 -0.014116 0.860000
0.037672 0.033337 0.834000
0.001667 -0.025265 0.854000
-0.009262 -0.027470 0.857000
0.019571 -0.010490 0.853000
0.017962 0.022342 0.860000
-0.039921 -0.020583 0.864000
-0.011759 -0.022231 0.859000
-0.011909 -0.044358 0.870000
-0.037076 -0.029117 0.864000
0.036496 -0.002089 0.863000
-0.003989 0.033353 0.861000
0.042591 0.008860 0.857000
0.021011 -0.023205 0.869000
0.026718 0.032493 0.857000
0.014896 -0.029218 0.867000
0.017485 0.002503 0.854000
0.030879 0.030658 0.855000
-0.021330 -0.030752 0.860000
0.023024 -0.018093 0.864000
-0.026082 -0.005654 0.865000
-0.009003 0.007171 0.866000
-0.003614 -0.022858 0.856000
0.017234 -0.021524 0.859000
0.012638 0.010649 0.859000
0.041894 0.028030 0.850000
0.018316 0.035085 0.860000
0.006251 -0.009823 0.856000
0.036904 0.003213 0.856000
0.000975 0.015689 0.864000
-0.019651 0.007155 0.864000
-0.036999 -0.000309 0.854000
0.004882 0.041956 0.863000
-0.002554 -0.036204 0.855000
-0.005076 0.017488 0.865000
0.015857 0.036897 0.861000
0.025510 -0.000309 0.852000
0.040732 0.008488 0.855000
-0.001157 0.024551 0.863000
-0.008596 -0.013069 0.861000
-0.009381 0.001472 0.868000
0.011944 0.006414 0.860000
-0.031386 -0.021294 0.864000
-0.017161 -0.003513 0.864000
-0.021759 -0.014520 0.863000
0.005213 -0.035312 0.859000
-0.005369 -0.041130 0.855000
-0.039612 -0.022742 0.865000
0.005534 -0.026320 0.854000
0.027263 0.007406 0.852000
-0.011731 -0.031350 0.857000
0.004831 -0.025968 0.854000
0.002384 -0.010918 0.859000
0.041565 0.002891 0.865000
-0.007204 0.021023 0.864000
0.030420 0.009861 0.852000
0.022158 0.026175 0.858000
-0.018186 -0.012020 0.862000
-0.036239 -0.004564 0.861000
-0.000794 -0.027054 0.855000
-0.005768 -0.009537 0.862000
0.030879 -0.003125 0.855000
0.035847 0.002156 0.856000
-0.016709 -0.030363 0.859000
-0.016412 -0.009891 0.862000
0.042830 0.001474 0.869000
0.006980 -0.004554 0.859000
0.022731 0.003553 0.853000
0.000262 -0.037303 0.856000
0.026211 0.003549 0.852000
0.011563 -0.026796 0.858000
-0.001516 0.017844 0.865000
-0.037920 0.004245 0.851000
0.003095 -0.005267 0.860000
0.014117 0.027748 0.863000
-0.011745 -0.026796 0.858000
-0.016057 0.017782 0.862000
-0.019960 -0.036500 0.862000
0.008687 -0.021023 0.853000
0.029368 0.010211 0.852000
0.039841 0.018606 0.851000
-0.007851 -0.027470 0.857000
0.014389 0.017699 0.858000
0.016041 -0.030070 0.871000
0.017134 -0.016126 0.854000
-0.039321 0.002844 0.851000
-0.001850 -0.028110 0.855000
-0.012070 -0.038712 0.856000
0.007723 0.042666 0.863000
-0.003622 -0.016555 0.858000
0.013650 -0.000310 0.856000
-0.003610 -0.039371 0.855000
-0.003962 -0.028110 0.855000
-0.025577 -0.035354 0.860000
0.034277 0.007406 0.852000
-0.008888 -0.036908 0.855000
0.031778 -0.011774 0.870000
-0.018165 0.012091 0.861000
-0.002940 0.013215 0.865000
0.032524 0.003198 0.852000
-0.005788 0.008943 0.865000
-0.028964 -0.009581 0.866000
-0.017102 -0.018030 0.861000
0.027614 0.004601 0.852000
0.024487 0.006713 0.853000
-0.011498 0.002894 0.866000
0.010857 -0.002430 0.858000
-0.028964 -0.007442 0.866000
-0.022904 0.001825 0.866000
0.008051 0.015617 0.860000
0.016469 0.008850 0.856000
-0.010344 -0.018342 0.859000
0.007714 0.028780 0.862000
-0.035339 -0.021318 0.865000
0.020951 -0.004867 0.852000
-0.008972 -0.007772 0.863000
-0.009003 0.005033 0.866000
0.015007 -0.010490 0.853000
0.003776 -0.023156 0.854000
-0.001523 -0.048957 0.869000
-0.019273 -0.024466 0.863000
-0.038810 -0.010258 0.863000
0.027614 0.005302 0.852000
0.015857 0.032290 0.861000
0.042944 0.009566 0.857000
0.010163 0.014891 0.859000
-0.008940 -0.013408 0.860000
0.005207 -0.009139 0.858000
0.023812 -0.009097 0.854000
0.035680 0.018627 0.852000
0.024487 -0.006277 0.853000
-0.006832 0.031618 0.862000
0.018231 0.012021 0.856000
0.004910 -0.041398 0.868000
0.023812 0.011290 0.854000
0.009820 0.021988 0.860000
-0.005748 -0.014453 0.859000
0.011354 -0.034651 0.869000
0.017134 -0.001364 0.854000
0.015820 0.021962 0.859000
-0.027798 -0.025176 0.863000
-0.013188 -0.016948 0.860000
0.031822 0.015121 0.852000
-0.002554 -0.027054 0.855000
0.009843 0.028425 0.862000
0.026656 0.020453 0.855000
0.000619 0.020289 0.863000
0.030527 0.027491 0.855000
-0.036449 -0.012789 0.866000
0.001320 -0.038052 0.857000
-0.030320 0.005377 0.864000
0.034583 0.034024 0.834000
0.015394 0.001098 0.855000
0.022864 0.024056 0.858000
0.017608 0.038270 0.860000
-0.002557 -0.024267 0.856000
-0.016747 -0.027953 0.861000
0.033576 0.016523 0.852000
0.003812 0.018846 0.862000
-0.011365 -0.036598 0.856000
-0.028284 -0.000314 0.867000
0.006281 -0.004559 0.860000
0.005885 -0.022805 0.854000
-0.031459 -0.011363 0.866000
0.014003 0.000042 0.856000
0.031860 0.020405 0.853000
0.001316 -0.032295 0.854000
0.016841 0.015210 0.857000
-0.007897 0.026297 0.862000
-0.036763 -0.024879 0.865000
-0.018830 -0.032484 0.859000
0.033210 0.035397 0.834000
-0.042874 -0.003815 0.852000
0.020976 -0.009788 0.853000
-0.037162 -0.011007 0.866000
-0.033203 -0.018470 0.865000
0.002035 -0.040001 0.861000
0.023109 -0.009448 0.854000
-0.014604 -0.019779 0.860000
-0.010061 -0.003517 0.865000
-0.028864 0.005015 0.863000
-0.038188 -0.019182 0.865000
0.005934 0.021305 0.861000
-0.023563 0.005021 0.864000
-0.034547 -0.003154 0.863000
0.004521 0.027716 0.862000
-0.013542 -0.014116 0.860000
0.041348 0.029290 0.846000
-0.026469 -0.016353 0.866000
-0.016039 -0.016613 0.861000
0.011262 0.040133 0.862000
0.032913 0.001446 0.853000
-0.029643 -0.017046 0.865000
-0.036449 -0.009937 0.866000
0.027614 -0.001711 0.852000
0.038016 0.032994 0.834000
0.005934 0.022368 0.861000
0.004479 -0.020344 0.854000
0.008405 0.019156 0.860000
-0.021098 0.004315 0.865000
0.010516 0.000042 0.859000
-0.001852 -0.021449 0.856000
-0.007851 -0.023590 0.857000
-0.014604 -0.016594 0.860000
0.003106 0.040535 0.863000
0.026913 0.005302 0.852000
-0.015702 -0.024792 0.862000
0.013634 -0.003829 0.855000
-0.024162 -0.035000 0.860000
0.035868 -0.003517 0.865000
-0.023946 -0.007078 0.865000
-0.010405 0.018179 0.864000
-0.040586 -0.021979 0.863000
-0.002906 -0.039371 0.855000
0.046797 0.010343 0.863000
0.040542 0.021057 0.851000
-0.017852 -0.025176 0.863000
-0.033954 -0.016709 0.866000
0.003109 0.037737 0.864000
-0.008626 0.023157 0.864000
-0.002560 -0.016536 0.857000
-0.013250 0.016756 0.864000
0.014690 0.000394 0.855000
-0.000793 -0.031592 0.854000
-0.033443 -0.001022 0.862000
-0.037345 -0.031178 0.862000
0.022520 -0.023285 0.872000
-0.005426 0.019957 0.864000
0.035764 0.031325 0.854000
-0.027316 -0.040969 0.859000
0.035269 0.033681 0.834000
-0.024601 -0.023400 0.863000
0.028448 0.030341 0.856000
-0.024841 -0.038848 0.859000
-0.003957 -0.035458 0.854000
0.038791 0.011600 0.851000
-0.017042 -0.037390 0.858000
-0.026639 -0.039955 0.860000
-0.021073 -0.005647 0.864000
0.002059 -0.046202 0.871000
-0.027830 -0.021649 0.864000
-0.034890 0.002854 0.854000
0.008079 0.039114 0.863000
-0.009316 -0.010601 0.862000
-0.028442 -0.037167 0.861000
0.044238 0.028313 0.848000
-0.004720 0.009299 0.865000
0.002747 0.041197 0.862000
-0.002936 0.027780 0.864000
0.002387 -0.010576 0.860000
-0.001852 -0.023210 0.856000
0.027231 0.036118 0.851000
0.011145 -0.014703 0.853000
0.010933 -0.031606 0.864000
-0.039829 -0.009537 0.862000
-0.014267 -0.025827 0.861000
0.016762 -0.006628 0.853000
-0.034147 0.004957 0.853000
0.006604 -0.030609 0.856000
0.036424 0.031288 0.853000
-0.018228 -0.003869 0.864000
-0.018852 -0.036415 0.860000
0.024954 0.033904 0.857000
-0.007933 0.006815 0.866000
0.021000 0.039409 0.854000
0.025982 0.020124 0.856000
0.005592 0.035207 0.863000
0.021000 0.006721 0.854000
-0.012819 -0.026827 0.859000
-0.011051 -0.020463 0.859000
0.033926 0.006354 0.852000
-0.035217 -0.032597 0.862000
0.032638 0.031010 0.855000
-0.004324 -0.020768 0.857000
-0.021454 -0.019894 0.865000
-0.030636 -0.039630 0.853000
0.014338 -0.002069 0.855000
0.017547 0.018031 0.857000
-0.034587 -0.029828 0.864000
-0.011129 0.000399 0.865000
-0.041248 -0.018761 0.862000
0.033615 0.034448 0.853000
0.040544 0.004320 0.866000
-0.027506 -0.014554 0.865000
-0.028409 -0.039247 0.860000
0.010565 0.040180 0.863000
0.012356 -0.030184 0.864000
-0.020315 0.011396 0.862000
0.023896 0.029319 0.857000
-0.029540 0.004300 0.862000
-0.000091 0.040087 0.861000
0.048106 0.012800 0.861000
0.017878 0.013078 0.856000
0.008004 -0.010515 0.855000
-0.031669 0.001462 0.862000
0.018800 -0.023838 0.866000
-0.023808 -0.032168 0.860000
0.030573 0.036558 0.837000
0.002373 -0.033037 0.855000
-0.031779 -0.015978 0.865000
0.004526 0.014961 0.863000
-0.013158 -0.029621 0.858000
0.023571 0.023349 0.858000
0.029988 -0.013922 0.870000
-0.000794 -0.036556 0.855000
-0.014316 -0.007425 0.864000
-0.000092 0.012561 0.869000
0.007643 -0.017532 0.854000
-0.008888 -0.041130 0.855000
-0.016393 0.015281 0.861000
0.021805 0.026175 0.858000
-0.013280 0.005033 0.866000
-0.002225 0.027424 0.864000
0.032486 0.008098 0.851000
-0.006785 -0.031314 0.856000
0.027965 0.000042 0.852000
0.021327 -0.010139 0.853000
-0.012509 0.019556 0.862000
0.032600 0.026052 0.854000
0.002747 0.024877 0.862000
-0.035530 -0.003501 0.861000
0.024458 -0.001010 0.852000
0.003473 -0.041303 0.866000
0.032562 0.019351 0.853000
0.023245 0.021962 0.859000
-0.024330 0.000043 0.866000
0.017920 -0.020086 0.858000
-0.002581 0.028491 0.864000
-0.003262 -0.024620 0.856000
-0.012197 0.015351 0.865000
0.010882 0.003582 0.860000
0.035988 0.016154 0.851000
-0.028574 -0.017402 0.865000
-0.005029 -0.020768 0.857000
0.026944 0.008117 0.853000
-0.008636 0.017132 0.865000
-0.011772 -0.015178 0.860000
0.004865 -0.004913 0.860000
0.002757 -0.040899 0.865000
-0.008537 -0.045001 0.855000
-0.038348 -0.032998 0.845000
-0.001870 0.039515 0.864000
-0.031423 -0.018114 0.865000
-0.021404 -0.014520 0.863000
0.002057 -0.045791 0.870000
0.028666 0.006354 0.852000
0.006611 -0.008776 0.857000
-0.031816 -0.012432 0.866000
0.024896 -0.009107 0.855000
0.015709 -0.007331 0.853000
-0.000091 0.041504 0.861000
0.009400 -0.024211 0.854000
0.017983 0.024140 0.861000
0.039092 0.031659 0.835000
0.011550 -0.002074 0.857000
0.034006 0.026755 0.854000
-0.034311 -0.006017 0.866000
0.033225 0.004951 0.852000
0.034006 0.026052 0.854000
0.019922 -0.000660 0.853000
-0.001157 0.022775 0.863000
-0.026825 -0.018135 0.866000
0.012270 0.017346 0.858000
0.025396 -0.012346 0.860000
-0.023974 0.000043 0.866000
-0.000447 0.013200 0.864000
-0.008537 -0.040427 0.855000
-0.023863 -0.024083 0.862000
0.031472 0.002146 0.852000
-0.006433 -0.044349 0.856000
0.042781 0.002544 0.868000
-0.016412 -0.025502 0.862000
0.003077 -0.018257 0.855000
-0.041072 -0.003461 0.851000
0.006980 -0.005614 0.859000
0.013037 0.026297 0.862000
0.030991 -0.011389 0.868000
-0.025756 -0.016353 0.866000
-0.009671 -0.010956 0.862000
0.008346 -0.013314 0.854000
0.003816 0.031655 0.863000
0.027711 0.034177 0.855000
0.013021 0.036897 0.861000
0.043044 0.014419 0.852000
0.040187 0.003251 0.866000
0.024487 0.007064 0.853000
-0.018874 0.012091 0.861000
0.019355 0.033630 0.859000
0.009081 -0.005249 0.857000
-0.005735 -0.022179 0.857000
-0.014350 0.001825 0.866000
-0.006144 0.008943 0.865000
0.034006 0.032731 0.854000
-0.002584 0.015351 0.865000
-0.032491 -0.017046 0.865000
0.025570 -0.008042 0.854000
0.017837 -0.000309 0.854000
0.006244 -0.015441 0.855000
-0.007915 0.021379 0.864000
0.025861 0.001094 0.852000
-0.034862 -0.003150 0.862000
-0.007568 0.005739 0.865000
0.019709 -0.018342 0.859000
-0.025043 -0.001739 0.866000
-0.010748 0.025972 0.863000
0.025891 -0.005575 0.853000
-0.000090 -0.035852 0.855000
-0.005721 -0.034796 0.855000
0.027679 0.016914 0.854000
-0.009003 0.011805 0.866000
-0.032695 0.001106 0.861000
-0.008888 -0.040075 0.855000
0.022029 0.001095 0.853000
0.014019 0.013446 0.857000
0.025630 0.026114 0.856000
-0.005017 -0.037963 0.855000
0.026043 -0.010199 0.858000
0.030844 0.036470 0.835000
0.001683 0.021684 0.862000
-0.016469 0.005739 0.865000
-0.031459 -0.009224 0.866000
0.019992 0.013783 0.856000
-0.004715 0.019601 0.864000
0.000264 0.024551 0.863000
-0.022012 -0.035666 0.859000
-0.002936 0.031692 0.864000
-0.004349 0.031973 0.862000
-0.012879 0.018158 0.863000
0.025042 -0.012700 0.860000
0.018209 0.007784 0.855000
0.036031 0.018277 0.852000
-0.008920 -0.020793 0.858000
0.011262 0.036230 0.862000
0.031472 0.011965 0.852000
-0.014250 -0.021195 0.860000
0.021377 0.013766 0.855000
-0.012789 -0.034877 0.857000
0.005182 -0.018938 0.854000
0.015520 0.030199 0.862000
-0.015630 -0.034918 0.858000
-0.031103 -0.013145 0.866000
0.043344 0.025611 0.851000
-0.010393 0.021354 0.863000
0.029753 0.013383 0.853000
-0.025992 -0.025147 0.862000
0.043746 0.015471 0.852000
-0.013495 -0.035583 0.857000
-0.040586 -0.017007 0.863000
-0.001867 0.022065 0.863000
-0.023234 0.003603 0.865000
0.003080 -0.014755 0.856000
0.001685 0.025972 0.863000
0.011917 -0.000311 0.858000
-0.024870 -0.039955 0.860000
-0.025962 -0.033977 0.861000
0.018648 0.031862 0.859000
-0.006080 -0.045054 0.856000
-0.017181 0.002535 0.865000
-0.001872 0.014995 0.865000
-0.000447 0.020999 0.863000
0.010092 -0.020320 0.853000
-0.020718 0.006088 0.864000
0.008759 0.017740 0.860000
-0.026255 -0.041323 0.859000
-0.010773 -0.001381 0.865000
0.013730 0.042213 0.861000
0.016060 -0.009788 0.853000
0.032600 0.000042 0.854000
0.019603 -0.025739 0.870000
0.016585 0.025942 0.862000
0.007985 -0.020320 0.853000
-0.030355 -0.017046 0.865000
0.039141 0.018255 0.851000
0.002038 0.024168 0.862000
0.011631 0.030234 0.863000
-0.004671 -0.025677 0.856000
0.007714 0.011396 0.862000
-0.028997 -0.002455 0.867000
0.030739 -0.013221 0.871000
-0.033876 -0.003158 0.864000
0.014472 0.028813 0.863000
-0.022522 -0.001025 0.865000
-0.012211 0.005746 0.866000
0.025159 0.000393 0.852000
-0.027701 -0.039247 0.860000
-0.018476 -0.030009 0.859000
0.010920 0.040535 0.863000
0.016211 0.023785 0.861000
0.031276 -0.009581 0.866000
-0.025253 -0.029725 0.861000
0.011145 -0.015054 0.853000
-0.036806 -0.012432 0.866000
-0.009615 -0.029939 0.857000
0.017294 -0.023018 0.862000
-0.023891 -0.022335 0.863000
0.010103 -0.011909 0.854000
0.024458 0.000393 0.852000
0.010908 0.034102 0.862000
0.009610 -0.038762 0.873000
-0.005070 0.023513 0.864000
0.041401 0.030466 0.840000
-0.020694 0.011054 0.863000
-0.013542 -0.026505 0.860000
0.042894 0.009907 0.856000
0.015358 -0.006979 0.853000
0.000264 0.019578 0.863000
0.036775 0.006010 0.853000
0.022891 0.020548 0.859000
0.004479 -0.025265 0.854000
-0.004704 0.031264 0.862000
0.040192 0.015453 0.851000
-0.006463 -0.013762 0.860000
0.018913 0.010599 0.855000
-0.026608 -0.040616 0.859000
0.037379 -0.003169 0.867000
0.005940 0.009977 0.862000
-0.013589 0.017447 0.863000
0.032286 0.029602 0.855000
0.000975 0.032403 0.864000
0.019288 0.014135 0.856000
-0.015028 0.012133 0.864000
0.000261 -0.021424 0.855000
-0.031314 -0.034017 0.862000
0.031582 0.027843 0.855000
-0.039921 -0.025205 0.864000
0.000261 -0.027023 0.854000
0.005267 -0.040327 0.868000
0.021729 0.012359 0.855000
0.034285 -0.003147 0.861000
-0.000443 -0.015478 0.857000
0.038791 0.017205 0.851000
0.034237 0.011250 0.851000
0.017506 0.005321 0.855000
-0.029083 -0.039909 0.859000
-0.021810 -0.000669 0.865000
0.039841 0.012651 0.851000
-0.001514 0.032047 0.864000
0.013746 0.041197 0.862000
0.042994 0.024910 0.851000
-0.007129 -0.034444 0.855000
0.029788 -0.002418 0.854000
-0.030746 -0.011363 0.866000
0.012227 -0.004884 0.855000
0.041153 0.029498 0.842000
-0.002205 -0.020744 0.856000
-0.006433 -0.027086 0.856000
-0.039968 -0.022386 0.865000
0.030598 -0.004896 0.857000
-0.009327 0.023485 0.863000
0.005592 0.014250 0.863000
-0.005029 -0.019710 0.857000
-0.042569 -0.001019 0.860000
0.032990 0.029954 0.855000
0.021703 0.006018 0.854000
-0.012924 0.002894 0.866000
0.030879 0.029250 0.855000
0.011249 0.025912 0.861000
0.008414 0.010674 0.861000
0.019002 0.029387 0.859000
0.039491 0.015103 0.851000
0.027391 0.028932 0.856000
0.019946 0.004260 0.854000
-0.027182 -0.006729 0.866000
0.000964 -0.029835 0.854000
0.031934 -0.001717 0.855000
0.033655 0.028513 0.854000
0.008697 -0.012963 0.854000
-0.015757 0.007519 0.865000
0.024515 0.014805 0.854000
-0.016095 0.011066 0.864000
0.010870 0.020548 0.859000
0.037784 0.024238 0.852000
-0.031264 -0.041288 0.851000
-0.012894 0.016401 0.864000
-0.014621 -0.013069 0.861000
-0.036010 -0.030539 0.864000
0.020770 0.020195 0.859000
0.005885 -0.020344 0.854000
0.009112 0.002166 0.860000
0.037672 0.031964 0.834000
0.024192 0.017285 0.855000
-0.017517 0.009644 0.864000
-0.010773 0.016776 0.865000
0.003077 -0.019312 0.855000
-0.037519 -0.016353 0.866000
-0.017181 0.003247 0.865000
0.010163 0.014538 0.859000
-0.008185 -0.044297 0.855000
0.018561 -0.016145 0.855000
-0.006848 0.020312 0.864000
-0.008567 -0.019027 0.858000
-0.011841 -0.002093 0.865000
0.023245 0.020902 0.859000
-0.037432 -0.028761 0.864000
-0.034983 -0.022742 0.865000
0.038538 -0.003176 0.869000
0.035988 0.010900 0.851000
0.004526 0.014250 0.863000
-0.028442 -0.033623 0.861000
-0.014300 -0.008127 0.863000
-0.003281 0.033708 0.861000
-0.021429 -0.004936 0.864000
0.015358 -0.006628 0.853000
0.047618 0.009655 0.865000
-0.008951 0.026620 0.861000
0.004171 0.015316 0.863000
0.034006 0.027810 0.854000
0.019992 0.016249 0.856000
0.030527 -0.003477 0.855000
0.032990 0.031362 0.855000
0.013698 0.020548 0.859000
-0.023808 -0.033938 0.860000
-0.011759 -0.018342 0.859000
-0.001859 -0.014453 0.859000
-0.000090 -0.028780 0.854000
-0.016767 -0.012375 0.862000
0.004558 -0.042161 0.869000
-0.001509 -0.009880 0.861000
-0.006433 -0.043645 0.856000
0.018540 -0.000661 0.854000
0.030455 0.014085 0.853000
-0.033126 -0.031215 0.863000
-0.016825 0.003247 0.865000
0.008069 0.012815 0.862000
0.002725 -0.021072 0.855000
-0.028023 -0.039909 0.859000
-0.036508 -0.003140 0.859000
0.016117 0.042672 0.856000
-0.015702 -0.008827 0.862000
0.025982 0.021886 0.856000
0.004848 -0.011245 0.857000
-0.018940 -0.022716 0.864000
0.005657 -0.043433 0.873000
0.005213 -0.008796 0.859000
-0.023234 -0.006010 0.865000
0.034709 0.032731 0.854000
-0.014333 -0.004942 0.865000
0.036073 0.025671 0.853000
-0.028218 0.003247 0.865000
0.010174 0.003228 0.860000
-0.010320 -0.028881 0.857000
0.010844 -0.027470 0.857000
0.014690 -0.021072 0.855000
0.036732 0.007757 0.852000
-0.002551 -0.031943 0.854000
0.001671 -0.016516 0.856000
-0.006470 0.030164 0.861000
0.031194 -0.000661 0.854000
0.016802 -0.017553 0.855000
-0.005413 -0.007763 0.862000
-0.025607 -0.033977 0.861000
-0.028964 0.001825 0.866000
-0.026732 0.005726 0.863000
-0.024274 -0.021649 0.864000
0.003109 0.035603 0.864000
0.000975 0.034537 0.864000
0.009752 -0.011206 0.854000
-0.021454 0.003603 0.865000
-0.004013 0.013587 0.866000
-0.002906 -0.029869 0.855000
0.019243 -0.014720 0.854000
0.039141 0.014403 0.851000
0.003106 0.028458 0.863000
-0.016336 -0.035978 0.858000
-0.036051 -0.024523 0.865000
0.030955 -0.010662 0.867000
-0.017852 -0.022690 0.863000
0.030527 0.030306 0.855000
-0.031103 -0.008512 0.866000
0.037126 0.028831 0.853000
-0.017477 0.012460 0.862000
-0.018896 -0.012375 0.862000
0.025570 0.016562 0.854000
0.013267 -0.007339 0.854000
-0.030600 -0.041337 0.852000
0.027355 -0.013858 0.866000
-0.020291 0.009965 0.861000
-0.015383 0.012133 0.864000
-0.036806 -0.019204 0.866000
0.028315 0.005302 0.852000
-0.017497 -0.023755 0.863000
0.004882 0.030589 0.863000
0.024249 0.032493 0.857000
0.018540 -0.014720 0.854000
-0.005053 0.033708 0.861000
0.026211 0.003899 0.852000
-0.006151 0.011805 0.866000
0.040685 0.009532 0.854000
0.012341 0.030589 0.863000
-0.029677 0.001112 0.866000
-0.014689 -0.003517 0.865000
-0.002225 0.023513 0.864000
0.034006 0.028513 0.854000
0.022354 -0.001010 0.852000
-0.007490 -0.045759 0.856000
0.029017 0.002497 0.852000
-0.003292 0.030980 0.864000
-0.002554 -0.030221 0.855000
0.010882 0.012077 0.860000
-0.001149 -0.040168 0.857000
0.032588 -0.006351 0.863000
0.024107 0.036862 0.852000
0.027965 0.008809 0.852000
-0.000091 -0.016516 0.856000
0.004215 -0.044819 0.872000
-0.001146 -0.028110 0.855000
0.035956 0.034024 0.834000
0.002035 -0.006336 0.861000
-0.023153 -0.023728 0.862000
-0.037119 -0.025235 0.865000
0.012313 0.042922 0.861000
0.006665 0.008577 0.864000
0.022485 0.018031 0.857000
0.035635 -0.006030 0.868000
0.012961 0.043780 0.857000
0.006642 0.024494 0.861000
0.016431 -0.000661 0.854000
0.004882 0.034497 0.863000
0.011631 0.027748 0.863000
0.039279 0.008126 0.854000
0.005534 -0.027374 0.854000
-0.027150 -0.015266 0.865000
-0.016039 -0.013424 0.861000
-0.013542 -0.021903 0.860000
-0.003648 0.023868 0.864000
-0.028997 -0.001741 0.867000
0.023433 0.003904 0.853000
-0.003966 -0.021449 0.856000
-0.027766 -0.030469 0.862000
0.015077 0.012740 0.857000
0.016880 0.040701 0.859000
0.037740 0.017555 0.851000
-0.001861 -0.013408 0.860000
0.014690 -0.001013 0.855000
0.028666 0.001094 0.852000
-0.011064 -0.014824 0.860000
-0.039210 -0.027339 0.864000
-0.018562 -0.024111 0.863000
0.003473 -0.041659 0.866000
-0.018498 -0.027920 0.860000
0.040853 0.002891 0.865000
0.009123 0.007130 0.861000
-0.003648 0.019957 0.864000
-0.041958 -0.021244 0.862000
-0.016001 -0.029302 0.859000
0.021627 -0.019894 0.865000
-0.011471 -0.006358 0.864000
-0.018455 -0.034918 0.858000
0.006288 0.020950 0.861000
-0.040184 -0.019471 0.862000
0.028666 0.009159 0.852000
-0.001867 0.022775 0.863000
0.042293 0.026311 0.851000
0.004882 0.016382 0.863000
-0.002906 -0.039019 0.855000
-0.028574 -0.014198 0.865000
0.005940 0.030199 0.862000
-0.001848 -0.033349 0.854000
0.010844 -0.003132 0.857000
0.034760 -0.004225 0.864000
0.031340 -0.004195 0.858000
-0.009359 0.012161 0.866000
0.007985 -0.019267 0.853000
-0.025577 -0.038539 0.860000
0.000965 -0.034796 0.855000
0.020678 -0.024306 0.870000
0.001693 0.012532 0.867000
-0.007162 -0.015867 0.859000
0.007054 -0.038183 0.868000
-0.015259 -0.038405 0.857000
-0.032467 -0.037611 0.855000
0.029051 -0.002767 0.853000
0.029085 0.019023 0.854000
0.026365 0.031435 0.857000
-0.021785 -0.009203 0.864000
0.003820 0.040582 0.864000
0.007317 -0.008070 0.857000
-0.036647 0.000042 0.854000
0.015113 -0.023645 0.859000
-0.000091 -0.008817 0.861000
0.002722 -0.031592 0.854000
-0.014333 0.010011 0.865000
-0.032491 -0.020250 0.865000
0.022705 -0.002413 0.852000
0.031225 0.036170 0.836000
-0.024985 -0.011692 0.864000
-0.017142 -0.008837 0.863000
0.020392 0.030765 0.858000
0.019617 0.009192 0.855000
-0.032885 -0.014214 0.866000
0.011889 -0.025324 0.856000
-0.038499 -0.016671 0.864000
-0.015348 -0.023018 0.862000
-0.000803 -0.045119 0.864000
0.015430 0.014151 0.857000
-0.030995 -0.027663 0.863000
-0.026701 -0.026211 0.862000
-0.021355 0.007484 0.861000
-0.031459 -0.010294 0.866000
0.002019 -0.024914 0.854000
-0.010760 -0.007781 0.864000
0.036266 -0.003878 0.866000
-0.007154 -0.016555 0.858000
-0.001509 -0.011297 0.861000
0.015077 0.008155 0.857000
0.018188 -0.000309 0.854000
0.002035 0.043630 0.861000
0.028767 -0.004884 0.855000
0.013345 0.021255 0.859000
0.029368 0.003198 0.852000
0.029368 0.010562 0.852000
0.007714 0.028425 0.862000
0.017874 -0.029061 0.873000
0.013954 -0.015054 0.853000
-0.021073 -0.008492 0.864000
0.018980 0.039241 0.858000
-0.040846 -0.026890 0.861000
0.030734 0.006347 0.851000
-0.037744 -0.008127 0.863000
-0.028121 -0.029404 0.862000
-0.013158 -0.028209 0.858000
0.036623 -0.000314 0.866000
-0.027957 -0.042285 0.857000
-0.031816 -0.011363 0.866000
-0.028541 0.003243 0.864000
-0.021098 0.002535 0.865000
0.016450 0.004617 0.855000
-0.030355 -0.013130 0.865000
-0.001503 -0.015496 0.858000
0.007326 -0.007020 0.858000
0.011847 -0.014001 0.853000
0.014439 0.032645 0.861000
0.042375 0.002184 0.867000
0.029171 -0.012447 0.867000
0.015412 0.004975 0.856000
0.034628 0.019329 0.852000
-0.011498 0.001112 0.866000
-0.023590 -0.005654 0.865000
-0.029964 -0.022361 0.864000
-0.009240 -0.038315 0.855000
-0.010061 0.017844 0.865000
0.041565 0.003247 0.865000
0.008779 0.033392 0.862000
0.012298 0.008184 0.860000
-0.008261 -0.007772 0.863000
0.005547 -0.032018 0.856000
0.022511 0.025468 0.858000
-0.026825 -0.006017 0.866000
0.017254 0.034377 0.860000
0.021777 -0.023617 0.871000
0.002722 -0.027023 0.854000
0.035722 0.005659 0.853000
0.015130 -0.024027 0.860000
0.017174 0.011316 0.856000
-0.010673 -0.031350 0.857000
0.019571 -0.003469 0.853000
-0.026438 -0.019182 0.865000
-0.012112 -0.020817 0.859000
-0.014976 -0.027244 0.861000
-0.007498 -0.023238 0.857000
0.012696 0.030945 0.863000
0.018359 -0.021954 0.862000
0.017547 0.019089 0.857000
0.035988 0.016504 0.851000
-0.011116 -0.006714 0.864000
-0.008616 0.024551 0.863000
-0.028218 -0.011350 0.865000
-0.032209 -0.006380 0.867000
-0.014283 -0.024792 0.862000
0.011972 0.038714 0.862000
0.020951 -0.004166 0.852000
-0.013280 0.002894 0.866000
0.019002 0.030448 0.859000
0.019288 0.014839 0.856000
0.022705 -0.005218 0.852000
0.035722 0.023213 0.853000
-0.028218 -0.012062 0.865000
0.047673 0.009310 0.866000
0.026242 0.007415 0.853000
-0.025696 -0.011337 0.864000
0.005940 0.009622 0.862000
-0.018186 0.011396 0.862000
0.009455 0.017366 0.859000
-0.030033 -0.001027 0.866000
-0.025726 -0.013486 0.865000
-0.031742 -0.022361 0.864000
0.005243 0.040937 0.864000
-0.003639 -0.047144 0.862000
0.004479 -0.023156 0.854000
0.017485 -0.000661 0.854000
0.019594 0.001097 0.854000
0.008708 -0.027406 0.855000
0.001330 0.024196 0.863000
0.042894 0.024000 0.856000
0.002035 0.043276 0.861000
-0.023207 -0.007781 0.864000
0.002021 -0.022128 0.855000
-0.006493 0.024935 0.864000
-0.024330 0.001825 0.866000
-0.003635 -0.012715 0.861000
-0.001512 0.023841 0.863000
-0.018207 -0.021624 0.863000
0.010127 -0.005595 0.856000
0.025570 0.015156 0.854000
0.006704 -0.038585 0.869000
-0.013265 -0.004942 0.865000
0.030527 0.029954 0.855000
0.016979 -0.024850 0.864000
0.027039 0.026466 0.856000
-0.004671 -0.043645 0.856000
0.006588 -0.018938 0.854000
-0.001512 0.021354 0.863000
0.020649 0.039409 0.854000
-0.004715 0.026358 0.864000
-0.040277 -0.000308 0.849000
0.040239 0.024939 0.852000
-0.029354 -0.001385 0.867000
0.029051 0.011979 0.853000
0.008779 0.043681 0.862000
-0.042074 -0.002407 0.850000
0.007697 0.021634 0.860000
0.015007 -0.013299 0.853000
-0.001498 -0.025647 0.855000
0.018869 -0.008735 0.853000
-0.005788 0.016776 0.865000
-0.016747 -0.016613 0.861000
-0.011129 0.010367 0.865000
0.017899 -0.019005 0.857000
0.011563 -0.001370 0.858000
-0.010296 -0.040427 0.855000
0.005940 0.027006 0.862000
0.035020 0.022511 0.853000
-0.013188 -0.022257 0.860000
0.021197 -0.018406 0.862000
0.001331 0.013200 0.864000
0.028700 -0.001713 0.853000
0.019992 0.016953 0.856000
-0.011432 -0.011297 0.861000
-0.032923 -0.008165 0.867000
0.018188 -0.015072 0.854000
-0.022851 -0.012404 0.864000
-0.029929 -0.024466 0.863000
-0.008586 -0.013762 0.860000
-0.017456 -0.016259 0.861000
-0.011759 -0.023645 0.859000
-0.037345 -0.006698 0.862000
-0.000446 0.036940 0.862000
-0.014706 0.003607 0.866000
0.007326 -0.031740 0.858000
0.014372 0.012388 0.857000
0.009400 -0.023508 0.854000
0.004157 -0.004205 0.860000
0.045943 0.006823 0.867000
0.034277 0.018277 0.852000
0.010103 -0.012611 0.854000
0.020249 -0.023152 0.867000
-0.032847 -0.022030 0.865000
-0.041958 -0.023018 0.862000
-0.035613 -0.032280 0.863000
0.008708 -0.009811 0.855000
0.028700 0.011277 0.853000
-0.029860 -0.035749 0.861000
0.035288 0.010550 0.851000
0.035412 0.028161 0.854000
-0.034231 -0.025205 0.864000
0.002741 -0.009160 0.860000
0.004882 0.042311 0.863000
0.014422 0.023758 0.860000
-0.004676 -0.018652 0.857000
-0.008636 0.018556 0.865000
-0.008261 0.024906 0.863000
0.019220 -0.000660 0.853000
0.025660 0.032493 0.857000
0.034628 0.015471 0.852000
0.012227 -0.004533 0.855000
-0.029677 -0.006017 0.866000
0.012341 0.032010 0.863000
-0.004329 -0.016555 0.858000
-0.009251 -0.031314 0.856000
0.035537 0.001101 0.857000
0.005243 0.039159 0.864000
0.022891 0.019841 0.859000
-0.030995 -0.026597 0.863000
-0.012466 -0.024706 0.859000
-0.017395 -0.033506 0.858000
0.033225 0.013017 0.852000
0.015556 -0.026628 0.864000
-0.014655 -0.008482 0.863000
0.037565 0.004969 0.855000
-0.025370 -0.008858 0.865000
-0.028508 -0.023755 0.863000
0.019024 0.037208 0.860000
-0.040722 -0.003461 0.851000
-0.005420 0.029169 0.863000
-0.040941 -0.024466 0.863000
0.005940 0.029135 0.862000
0.032874 0.013017 0.852000
0.000619 0.021710 0.863000
0.004882 0.035207 0.863000
0.003109 0.032758 0.864000
-0.010049 -0.007425 0.864000
-0.022444 0.006074 0.862000
0.020297 0.003909 0.854000
-0.028608 -0.004591 0.866000
0.000620 0.036315 0.864000
0.020133 -0.019825 0.862000
-0.003605 -0.034052 0.854000
-0.004314 -0.037963 0.855000
-0.013265 0.011079 0.865000
-0.005721 -0.031277 0.855000
-0.004334 -0.045919 0.859000
-0.033876 -0.027339 0.864000
0.016154 0.020877 0.858000
0.019922 -0.002767 0.853000
-0.007551 -0.009548 0.863000
-0.011498 0.007528 0.866000
0.030598 -0.011019 0.867000
0.040542 0.022458 0.851000
0.011034 -0.036565 0.872000
-0.009660 0.026266 0.861000
0.017154 0.008136 0.855000
-0.031779 -0.020606 0.865000
-0.018455 -0.035271 0.858000
-0.009305 0.025557 0.861000
0.007768 -0.037826 0.868000
0.034317 0.020756 0.853000
0.022406 -0.010151 0.854000
-0.008888 -0.045001 0.855000
0.047562 0.010355 0.864000
-0.039921 -0.021294 0.864000
0.008346 -0.012260 0.854000
0.010553 0.033747 0.862000
0.030455 0.019351 0.853000
0.019617 0.007080 0.855000
-0.005721 -0.037259 0.855000
-0.002575 -0.046079 0.862000
0.003425 -0.022102 0.854000
-0.003281 -0.012006 0.861000
-0.001870 0.025291 0.864000
0.020915 -0.020962 0.865000
0.019946 0.002151 0.854000
-0.002225 0.032403 0.864000
-0.034350 -0.011376 0.867000
0.037672 0.032651 0.834000
0.020062 0.027266 0.859000
-0.008576 -0.015514 0.859000
0.030069 0.007406 0.852000
-0.034667 -0.013858 0.866000
0.018648 0.029741 0.859000
-0.024687 -0.016353 0.866000
-0.003989 0.034417 0.861000
0.017174 0.012021 0.856000
-0.035571 -0.003860 0.862000
0.016880 0.021255 0.859000
0.004511 0.044995 0.860000
0.042337 0.007467 0.859000
-0.027766 -0.026211 0.862000
0.030770 0.001445 0.852000
-0.027150 -0.008502 0.865000
-0.016670 -0.036994 0.857000
0.017334 -0.024139 0.864000
-0.026082 -0.010994 0.865000
-0.001153 -0.043141 0.860000
0.019922 -0.004522 0.853000
0.029788 0.035191 0.854000
0.024192 0.015174 0.855000
0.029471 0.027139 0.855000
-0.018940 -0.004580 0.864000
0.025839 -0.014165 0.863000
0.003812 0.019201 0.862000
0.006295 0.014943 0.862000
0.008697 -0.014369 0.854000
-0.001158 0.029558 0.864000
0.003803 0.044641 0.860000
0.039888 0.024589 0.852000
0.037648 -0.001737 0.865000
-0.028251 0.001468 0.866000
-0.035421 -0.010662 0.867000
-0.034667 -0.019204 0.866000
0.021049 0.017306 0.856000
-0.000091 -0.018630 0.856000
-0.021073 0.005377 0.864000
0.011223 0.018781 0.859000
-0.010773 0.012147 0.865000
-0.008586 -0.014470 0.860000
0.024458 -0.004166 0.852000
-0.012819 -0.020463 0.859000
0.006627 -0.033191 0.859000
-0.033954 0.002159 0.857000
-0.020694 -0.023400 0.863000
0.014422 0.042518 0.860000
0.001316 -0.024562 0.854000
-0.008194 -0.046111 0.856000
0.008434 0.039469 0.863000
0.029823 0.027843 0.855000
0.039491 0.017555 0.851000
-0.007212 0.007163 0.865000
-0.023808 -0.036769 0.860000
0.026913 -0.001010 0.852000
-0.011013 -0.034837 0.856000
0.024867 -0.008745 0.854000
-0.005023 -0.028847 0.856000
0.043238 0.001833 0.870000
0.004532 0.040582 0.864000
-0.037700 -0.007408 0.862000
0.008069 0.032683 0.862000
-0.001148 -0.017573 0.856000
0.020250 -0.005218 0.852000
0.003820 0.040226 0.864000
0.005182 -0.022102 0.854000
-0.025756 0.000043 0.866000
0.030175 0.029954 0.855000
-0.021429 -0.016315 0.864000
-0.021049 -0.012389 0.863000
0.033615 0.023916 0.853000
-0.026794 -0.014198 0.865000
0.033926 0.013718 0.852000
0.026562 0.004951 0.852000
-0.005035 -0.015496 0.858000
-0.025726 -0.007078 0.865000
-0.025282 -0.026211 0.862000
-0.023590 -0.003873 0.865000
-0.035613 -0.030859 0.863000
-0.004003 -0.049031 0.864000
-0.015045 -0.003873 0.865000
0.001331 0.018534 0.864000
0.006588 -0.026320 0.854000
-0.009240 -0.038667 0.855000
0.020062 0.035751 0.859000
-0.010061 0.015708 0.865000
0.006704 -0.038942 0.869000
0.022511 0.031472 0.858000
0.004532 0.039871 0.864000
-0.011365 -0.035541 0.856000
-0.028948 -0.041482 0.855000
-0.004354 0.030945 0.863000
0.033926 0.015121 0.852000
0.023082 0.002149 0.853000
-0.040021 -0.002060 0.851000
0.033342 0.000042 0.855000
-0.005082 0.015013 0.866000
-0.036466 -0.033153 0.858000
0.023218 0.035003 0.858000
0.010541 0.026620 0.861000
0.008769 0.013509 0.861000
0.024809 -0.001711 0.852000
-0.004704 -0.009182 0.862000
0.007360 0.029490 0.862000
-0.017436 -0.028274 0.860000
0.005553 -0.010539 0.857000
-0.002926 -0.012006 0.861000
0.004887 0.038804 0.864000
-0.033203 -0.019538 0.865000
0.013666 0.013446 0.857000
-0.023835 -0.031142 0.861000
0.002021 -0.033740 0.855000
-0.003614 -0.024267 0.856000
0.026687 0.029284 0.856000
0.002754 0.038804 0.864000
-0.031067 -0.014198 0.865000
-0.002551 -0.033701 0.854000
0.002747 0.025232 0.862000
-0.030995 -0.025531 0.863000
0.012213 -0.010151 0.854000
0.005182 -0.017884 0.854000
-0.006493 0.018890 0.864000
-0.029354 -0.002098 0.867000
-0.018228 -0.003158 0.864000
0.011972 0.035876 0.862000
-0.040846 -0.027244 0.861000
0.007300 -0.013330 0.855000
0.008346 -0.024211 0.854000
0.006932 -0.021725 0.853000
0.010443 -0.020672 0.853000
-0.034943 -0.026983 0.864000
0.023218 -0.013730 0.858000
0.036775 0.030586 0.853000
0.019243 0.001097 0.854000
0.012593 -0.002424 0.856000
0.036031 0.019679 0.852000
0.042694 0.015121 0.852000
0.032638 0.033121 0.855000
-0.037076 -0.029473 0.864000
-0.035298 -0.030895 0.864000
0.025570 0.011290 0.854000
0.010467 -0.006996 0.855000
-0.025370 -0.009214 0.865000
-0.031031 -0.024494 0.864000
0.002722 -0.025617 0.854000
-0.005017 -0.034444 0.855000
-0.015757 0.009655 0.865000
-0.011432 0.022014 0.861000
-0.026112 -0.018492 0.866000
0.042644 0.025961 0.851000
0.000263 -0.009160 0.860000
0.025189 0.007766 0.853000
-0.001848 -0.031240 0.854000
-0.012775 -0.037303 0.856000
0.021703 0.005666 0.854000
0.027841 -0.008796 0.859000
0.031121 0.002146 0.852000
-0.040893 -0.021244 0.862000
-0.008567 -0.022205 0.858000
-0.015757 0.003959 0.865000
-0.037162 -0.022056 0.866000
0.016762 -0.008384 0.853000
-0.023808 -0.034646 0.860000
0.031822 0.012315 0.852000
0.003812 0.020620 0.862000
-0.003292 0.021379 0.864000
0.017254 0.023050 0.860000
0.021320 -0.021724 0.867000
0.017858 0.007080 0.855000
0.039141 0.013702 0.851000
0.024573 -0.010879 0.856000
-0.039345 -0.032959 0.844000
-0.006485 -0.007061 0.863000
-0.009359 0.006459 0.866000
0.038654 0.031105 0.848000
0.000264 0.013556 0.864000
0.024896 0.016582 0.855000
0.009123 0.025203 0.861000
0.022784 0.013415 0.855000
-0.015045 0.006451 0.865000
-0.006785 -0.044349 0.856000
0.023896 0.034257 0.857000
-0.024898 -0.030433 0.861000
-0.026993 -0.038893 0.860000
0.016079 -0.004527 0.854000
