0.021398 -0.029825 0.885000
0.035278 -0.012818 0.868000
0.000265 -0.019606 0.868000
-0.023422 -0.002469 0.872000
0.011445 0.006533 0.876000
-0.037779 -0.006776 0.872000
-0.036385 0.022680 0.873000
-0.022984 -0.018198 0.869000
-0.047057 0.014024 0.871000
-0.010501 -0.009647 0.872000
-0.036933 -0.018556 0.869000
-0.009783 0.021218 0.872000
0.035319 -0.008541 0.869000
0.012814 -0.008561 0.871000
-0.023699 -0.015337 0.869000
-0.026962 0.029033 0.859000
-0.015132 -0.010341 0.870000
-0.016942 -0.007485 0.871000
0.022597 0.021291 0.875000
0.029440 0.020571 0.875000
0.002448 -0.028998 0.882000
0.050231 -0.007995 0.849000
-0.013794 0.015547 0.876000
-0.045316 0.015835 0.872000
0.003874 0.018071 0.876000
0.025032 0.024807 0.872000
0.019104 -0.028207 0.880000
-0.035145 -0.022490 0.869000
0.014914 -0.021035 0.868000
0.021727 -0.011045 0.869000
0.049532 -0.007646 0.849000
-0.040476 0.011941 0.876000
-0.014757 -0.023563 0.869000
-0.038497 -0.003905 0.872000
0.035202 0.021651 0.875000
-0.035543 -0.023948 0.870000
-0.006553 -0.026157 0.872000
-0.029332 0.005097 0.877000
0.043088 -0.015301 0.867000
-0.039483 -0.023590 0.870000
0.041386 -0.029063 0.884000
-0.000806 -0.018534 0.868000
-0.033792 -0.011787 0.871000
0.039208 -0.009960 0.868000
0.020773 0.011554 0.874000
-0.027761 -0.026546 0.873000
0.034083 0.014792 0.874000
0.034921 -0.022464 0.868000
-0.019115 -0.002110 0.872000
0.040153 0.019805 0.873000
-0.028577 0.013023 0.876000
-0.029265 -0.002838 0.875000
0.011328 -0.019227 0.867000
-0.038541 0.000402 0.873000
0.000629 0.015204 0.877000
0.046657 -0.014231 0.867000
-0.034947 0.000402 0.873000
-0.016660 0.009767 0.875000
0.014982 0.024448 0.872000
0.048385 -0.016353 0.866000
-0.018376 -0.007844 0.871000
-0.029298 0.000404 0.876000
0.042424 0.015762 0.868000
-0.007603 -0.015694 0.869000
0.009250 -0.008580 0.873000
-0.023089 0.001840 0.873000
-0.023037 -0.009636 0.871000
0.039748 0.009016 0.872000
-0.010501 0.021218 0.872000
-0.041823 0.002561 0.874000
-0.015830 -0.015694 0.869000
-0.044082 0.012302 0.876000
0.024730 0.014792 0.874000
0.011393 0.023372 0.872000
0.003160 0.009800 0.878000
-0.024414 -0.016052 0.869000
-0.019181 -0.027327 0.875000
0.016758 -0.005693 0.871000
0.034961 -0.006395 0.869000
0.003138 0.022295 0.872000
0.026437 0.000043 0.871000
0.013562 -0.004628 0.873000
0.024203 -0.016391 0.868000
0.006016 -0.006065 0.873000
-0.028610 0.005097 0.877000
0.044516 -0.013160 0.867000
-0.025934 -0.005699 0.872000
0.013953 0.002564 0.875000
-0.037528 -0.029757 0.883000
-0.012998 -0.009636 0.871000
0.039253 -0.006753 0.869000
-0.027888 0.020618 0.877000
0.014982 -0.005340 0.872000
0.037022 -0.016729 0.867000
-0.019901 0.014088 0.875000
-0.046192 0.012288 0.875000
-0.007296 -0.026967 0.875000
-0.034009 -0.030588 0.886000
0.029800 0.021651 0.875000
0.037022 -0.018870 0.867000
0.003501 -0.008940 0.873000
-0.020307 0.021340 0.877000
0.008532 -0.005706 0.873000
-0.016961 -0.026157 0.872000
0.016343 -0.016748 0.868000
-0.021005 0.016628 0.876000
-0.050415 0.007784 0.855000
-0.009467 0.001485 0.876000
0.035481 0.008307 0.873000
-0.020862 -0.013206 0.870000
-0.009839 0.009789 0.877000
-0.031243 -0.028932 0.880000
0.048891 -0.006955 0.850000
-0.016244 -0.004264 0.872000
-0.028479 -0.026546 0.873000
-0.031786 -0.027327 0.875000
-0.018334 -0.021775 0.869000
0.006339 -0.022464 0.868000
-0.020480 -0.017483 0.869000
-0.048849 -0.005693 0.871000
0.000266 -0.013548 0.869000
0.033364 0.012633 0.874000
-0.046034 0.016552 0.872000
-0.002593 -0.019963 0.868000
0.034482 0.020211 0.875000
0.029080 0.019490 0.875000
-0.024057 -0.016410 0.869000
-0.019181 0.012288 0.875000
-0.043571 -0.002472 0.873000
0.046765 -0.002461 0.869000
-0.012698 -0.002838 0.875000
-0.027665 -0.013922 0.870000
-0.046393 -0.007853 0.872000
-0.017976 -0.018198 0.869000
-0.009794 -0.008580 0.873000
0.012888 0.005451 0.876000
-0.028249 0.008345 0.877000
-0.022678 -0.025768 0.871000
0.033453 -0.017799 0.867000
0.047068 -0.009246 0.868000
0.031925 0.014792 0.874000
-0.023195 0.020618 0.877000
-0.020910 -0.004264 0.872000
-0.043721 0.011581 0.876000
0.042424 0.014690 0.868000
0.033042 0.011928 0.875000
0.025750 0.003273 0.872000
-0.016244 0.025884 0.872000
0.010626 -0.022107 0.868000
0.036643 0.021291 0.875000
0.017535 0.010115 0.874000
0.034881 -0.019940 0.867000
0.010293 -0.010699 0.870000
0.022416 -0.013533 0.868000
-0.025994 -0.000676 0.874000
0.007822 0.021627 0.874000
-0.042493 -0.003191 0.873000
0.009282 0.015907 0.876000
-0.005094 -0.016748 0.868000
0.024588 -0.008899 0.869000
0.027775 -0.014962 0.868000
-0.023341 -0.015694 0.869000
0.027743 -0.016015 0.867000
0.009992 0.020931 0.875000
0.045230 0.001470 0.867000
-0.023726 -0.024664 0.870000
-0.015579 0.023092 0.875000
-0.001528 -0.009647 0.872000
-0.027888 0.018813 0.877000
0.022597 0.019490 0.875000
0.018614 0.011914 0.874000
0.008210 0.014121 0.877000
0.045282 -0.012104 0.868000
-0.017261 -0.016410 0.869000
0.044261 0.001474 0.869000
-0.009761 -0.024664 0.870000
-0.031137 0.019174 0.877000
-0.022448 0.018431 0.876000
-0.045780 0.001122 0.874000
-0.023781 -0.004982 0.872000
-0.027715 -0.028304 0.883000
-0.021702 0.013728 0.875000
0.048418 -0.003824 0.854000
-0.051239 -0.002074 0.857000
0.024593 -0.028635 0.882000
0.022545 0.007948 0.873000
-0.027166 0.020618 0.877000
0.038136 -0.022821 0.868000
0.010626 -0.015319 0.868000
-0.015115 -0.013548 0.869000
-0.048243 0.005433 0.873000
0.022237 0.022732 0.875000
0.034524 -0.015658 0.867000
0.027248 0.009036 0.874000
0.018742 -0.028207 0.880000
0.010015 0.014121 0.877000
-0.003345 0.013414 0.878000
-0.019181 0.012648 0.875000
0.025032 0.002914 0.872000
0.012873 0.022011 0.875000
-0.025964 -0.026546 0.873000
0.028687 0.016590 0.874000
-0.022268 -0.015694 0.869000
-0.029814 0.024034 0.870000
0.007795 -0.010353 0.871000
-0.019765 -0.017483 0.869000
-0.031386 0.025646 0.864000
0.031565 0.000763 0.874000
0.035993 -0.023536 0.868000
0.030520 0.018770 0.875000
-0.025159 -0.014280 0.870000
-0.021936 -0.011415 0.870000
0.016114 0.019851 0.875000
-0.040070 0.016609 0.875000
-0.024915 0.023425 0.874000
-0.000450 -0.013548 0.869000
-0.008395 0.009789 0.877000
0.045943 -0.014231 0.867000
0.027418 -0.014247 0.868000
-0.033227 0.003645 0.875000
-0.047883 -0.001394 0.873000
0.045282 0.000757 0.868000
-0.007638 -0.008221 0.873000
-0.016299 0.014449 0.875000
-0.028773 -0.009278 0.871000
-0.009159 -0.028965 0.881000
-0.004379 -0.018892 0.868000
0.027999 0.011928 0.875000
-0.012005 0.011594 0.877000
0.022747 -0.018513 0.867000
0.032247 -0.000676 0.873000
-0.037061 -0.005699 0.872000
-0.033189 -0.000676 0.874000
-0.045472 0.013008 0.875000
0.008659 -0.030223 0.886000
-0.035902 -0.016070 0.870000
-0.020169 -0.007127 0.871000
0.014330 0.009417 0.876000
-0.018038 -0.004264 0.872000
-0.000813 0.019490 0.875000
-0.018313 -0.020321 0.868000
0.030486 0.014432 0.874000
0.029800 0.022732 0.875000
-0.045981 0.015099 0.871000
-0.027276 -0.023563 0.869000
0.037551 0.024062 0.871000
0.025478 0.023452 0.875000
0.037910 -0.025410 0.871000
0.012527 0.014826 0.876000
-0.023395 -0.007844 0.871000
0.022186 0.009385 0.873000
-0.006590 0.009067 0.877000
0.001351 0.010872 0.877000
0.016362 -0.010687 0.869000
-0.035902 -0.023948 0.870000
-0.004384 -0.013191 0.869000
0.017415 -0.015676 0.868000
-0.026683 0.023758 0.873000
-0.029098 -0.011057 0.870000
-0.027697 -0.008561 0.871000
0.040994 -0.009960 0.868000
0.018996 0.016609 0.875000
-0.010465 -0.014979 0.869000
-0.024057 -0.015694 0.869000
0.012829 -0.025798 0.872000
0.012139 -0.004274 0.874000
-0.028545 -0.002118 0.875000
-0.027991 -0.015694 0.869000
-0.017659 -0.007844 0.871000
0.017874 0.005073 0.873000
-0.037103 0.001480 0.873000
0.032284 0.017670 0.874000
-0.036870 0.012662 0.876000
-0.016679 0.016628 0.876000
-0.027464 0.000403 0.875000
0.035676 -0.008183 0.869000
0.032247 0.000043 0.873000
-0.025194 0.029741 0.859000
-0.003311 -0.013191 0.869000
0.018486 -0.021392 0.868000
-0.026384 0.012288 0.875000
-0.010561 0.006901 0.877000
0.036876 0.024089 0.872000
-0.037420 -0.003546 0.872000
-0.047219 0.010115 0.874000
-0.045420 0.004360 0.874000
0.038671 0.005785 0.872000
-0.011991 0.013744 0.876000
0.029800 0.023452 0.875000
0.014248 0.024062 0.871000
-0.006880 -0.017463 0.868000
-0.014499 0.022011 0.875000
0.004210 -0.011070 0.871000
0.017813 -0.008193 0.870000
-0.042231 0.016249 0.875000
-0.019181 0.014088 0.875000
-0.041056 -0.002831 0.873000
0.014982 -0.005699 0.872000
0.014931 -0.010687 0.869000
0.005316 0.016628 0.876000
0.025989 -0.012818 0.868000
0.048541 -0.001357 0.850000
-0.001891 -0.005712 0.874000
-0.004384 -0.023563 0.869000
-0.030530 -0.015354 0.870000
0.037961 -0.030325 0.889000
-0.013668 -0.021750 0.868000
-0.028545 0.022732 0.875000
0.041853 0.010439 0.871000
-0.002964 0.021936 0.872000
-0.032867 0.002564 0.875000
-0.029064 -0.021775 0.869000
0.040590 -0.018156 0.867000
0.015985 -0.013533 0.868000
0.047371 -0.012090 0.867000
0.001340 -0.024306 0.870000
-0.006590 0.009789 0.877000
0.007849 0.015925 0.877000
0.049882 -0.005898 0.849000
0.025750 0.002555 0.872000
0.002071 0.018071 0.876000
0.011752 0.024448 0.872000
-0.022984 -0.021775 0.869000
-0.036260 -0.012490 0.870000
0.042472 0.018284 0.869000
-0.049711 0.007080 0.855000
-0.005815 -0.016052 0.869000
0.026528 0.011554 0.874000
-0.008756 0.010511 0.877000
-0.011167 -0.019249 0.868000
0.027186 -0.001393 0.872000
-0.023808 0.002558 0.873000
0.035481 0.010822 0.873000
0.029766 0.015871 0.874000
0.042018 -0.014945 0.867000
-0.032904 0.013744 0.876000
-0.032867 0.005085 0.875000
-0.010885 -0.005353 0.874000
-0.018397 -0.002469 0.872000
0.011445 0.007975 0.876000
0.002773 -0.025022 0.870000
-0.001521 -0.016391 0.868000
-0.002608 0.021242 0.873000
0.033135 -0.022821 0.868000
0.016835 0.015529 0.875000
-0.018940 0.027424 0.864000
0.040731 -0.025022 0.870000
-0.034707 0.014826 0.876000
-0.018059 0.002918 0.873000
0.041352 -0.011032 0.868000
0.013826 -0.018513 0.867000
0.010015 0.012316 0.877000
0.012167 0.006894 0.876000
-0.001898 0.014482 0.877000
-0.022678 -0.007127 0.871000
0.030881 0.023812 0.875000
-0.048681 0.010046 0.868000
-0.030137 -0.021059 0.869000
-0.021220 -0.024306 0.870000
-0.048546 0.005068 0.872000
-0.039437 -0.023205 0.869000
0.004610 0.009811 0.879000
0.024258 -0.002464 0.870000
0.016078 -0.000316 0.873000
0.002785 -0.005712 0.874000
0.048084 -0.006737 0.867000
0.009957 0.024089 0.872000
-0.029625 -0.005719 0.875000
-0.018961 0.027100 0.865000
-0.026291 -0.028700 0.884000
0.040153 0.015134 0.873000
0.008561 0.018792 0.876000
0.007437 -0.010353 0.871000
0.033810 -0.019940 0.867000
-0.029456 0.024034 0.870000
-0.050474 0.008145 0.856000
-0.011283 0.009789 0.877000
-0.034707 0.018792 0.876000
-0.007595 -0.022107 0.868000
0.004553 -0.017820 0.868000
-0.037420 -0.004982 0.872000
0.031565 0.000043 0.874000
0.030057 -0.025798 0.872000
0.008850 -0.013906 0.869000
-0.048187 0.009374 0.872000
-0.021986 -0.026157 0.872000
0.023955 0.006862 0.872000
0.030916 -0.026998 0.876000
-0.047774 0.014383 0.871000
0.001710 0.016989 0.876000
-0.043521 -0.007135 0.872000
-0.043212 -0.000676 0.873000
0.011698 -0.018177 0.868000
0.023542 -0.025022 0.870000
-0.052490 0.001825 0.866000
-0.029064 -0.018556 0.869000
-0.050708 0.002503 0.854000
0.004595 0.018071 0.876000
0.038538 -0.005680 0.869000
-0.041775 0.019087 0.873000
-0.014025 -0.020678 0.868000
0.037853 -0.027421 0.878000
-0.016961 -0.004982 0.872000
-0.014025 -0.021035 0.868000
-0.031137 0.010150 0.877000
-0.037995 -0.028111 0.877000
-0.010897 0.019490 0.875000
-0.013668 -0.020321 0.868000
-0.030207 0.023703 0.871000
-0.027307 0.024392 0.870000
-0.017618 -0.022490 0.869000
-0.036149 0.016989 0.876000
-0.050474 -0.001367 0.856000
-0.034509 -0.025768 0.871000
-0.019474 -0.003905 0.872000
-0.046859 0.012274 0.874000
-0.015579 0.007966 0.875000
-0.035748 0.019130 0.875000
-0.043931 -0.001035 0.873000
0.018909 0.000043 0.871000
-0.044957 -0.005340 0.872000
0.023488 -0.022821 0.868000
0.001347 -0.006072 0.874000
0.024314 0.026243 0.872000
0.015610 -0.020297 0.867000
-0.039304 0.003281 0.874000
-0.007952 -0.021392 0.868000
-0.005099 -0.014979 0.869000
-0.040245 -0.025410 0.871000
-0.007665 0.015547 0.876000
0.028720 0.007966 0.875000
-0.024223 0.011207 0.875000
0.029988 -0.007119 0.870000
-0.047111 0.015476 0.872000
-0.044341 0.004720 0.874000
0.013248 0.005451 0.876000
0.007488 0.010150 0.877000
-0.045727 -0.003909 0.873000
0.026049 -0.005686 0.870000
0.019179 -0.021011 0.867000
0.028327 0.006518 0.874000
-0.009128 0.006187 0.878000
-0.017320 0.025166 0.872000
0.034167 -0.021724 0.867000
0.038301 -0.028207 0.880000
-0.033986 0.012302 0.876000
0.046407 -0.001388 0.869000
-0.003719 -0.028965 0.881000
0.027903 -0.000675 0.872000
0.007813 -0.008580 0.873000
0.003843 -0.014621 0.869000
0.023211 0.001477 0.871000
0.043596 0.000759 0.870000
0.028880 -0.009614 0.869000
-0.033625 0.015907 0.876000
-0.038541 0.018368 0.873000
-0.007254 -0.012848 0.870000
0.009566 -0.023563 0.869000
-0.010810 -0.020321 0.868000
-0.005551 -0.029791 0.884000
0.029528 -0.021724 0.867000
-0.022626 -0.021059 0.869000
-0.038722 -0.020702 0.869000
0.012111 -0.008212 0.872000
-0.002238 -0.013906 0.869000
0.043701 0.004315 0.865000
-0.016262 0.001121 0.873000
0.040824 0.008298 0.872000
0.041853 0.007930 0.871000
-0.026732 0.026682 0.863000
-0.038313 0.015186 0.876000
-0.021603 -0.006051 0.871000
-0.023341 -0.018198 0.869000
-0.040430 0.006526 0.875000
-0.026949 -0.014996 0.870000
0.023104 -0.021368 0.867000
0.020366 0.004709 0.872000
0.019334 0.012274 0.874000
0.018844 -0.015676 0.868000
0.002068 0.020571 0.875000
-0.030565 -0.011070 0.871000
0.024889 -0.019940 0.867000
0.021827 0.011541 0.873000
-0.016981 -0.001035 0.873000
0.000267 -0.009647 0.872000
-0.028217 0.015907 0.876000
-0.024057 -0.023563 0.869000
0.049415 -0.011543 0.853000
-0.015597 0.017349 0.876000
0.027030 -0.017799 0.867000
0.006750 -0.005359 0.875000
-0.028153 0.026327 0.863000
0.043395 0.005389 0.866000
-0.016188 -0.016052 0.869000
-0.032469 -0.001036 0.874000
-0.033265 0.014826 0.876000
-0.037103 -0.000316 0.873000
0.018930 0.003273 0.872000
0.023515 -0.007468 0.869000
-0.021293 0.000762 0.873000
0.030951 -0.027389 0.877000
0.037022 -0.020654 0.867000
0.028360 0.007966 0.875000
-0.037039 -0.028932 0.880000
-0.037231 0.014826 0.876000
-0.022652 -0.011774 0.870000
0.039748 -0.025798 0.872000
0.031925 0.013713 0.874000
0.045177 0.001825 0.866000
-0.016262 -0.002113 0.873000
0.014674 0.004005 0.875000
-0.006983 -0.028965 0.881000
0.037637 0.011900 0.873000
-0.023754 -0.007485 0.871000
0.030555 -0.026998 0.876000
0.025118 0.019851 0.875000
0.020249 -0.019940 0.867000
-0.022704 -0.001751 0.872000
0.025118 0.019130 0.875000
-0.032641 -0.021775 0.869000
0.020007 0.004350 0.872000
0.022520 0.005427 0.872000
-0.014155 0.012662 0.876000
0.010340 -0.004274 0.874000
0.011445 0.014826 0.876000
-0.017420 0.020257 0.877000
0.022135 0.025137 0.871000
-0.024972 0.014105 0.876000
-0.011631 0.003649 0.876000
0.008850 -0.023921 0.869000
-0.011895 -0.023563 0.869000
0.040015 -0.000315 0.870000
-0.039214 0.018347 0.872000
-0.012338 -0.001757 0.875000
-0.026203 -0.018913 0.869000
-0.019924 0.016989 0.876000
0.031669 -0.019227 0.867000
0.009197 -0.017463 0.868000
0.042424 0.011475 0.868000
0.045586 -0.015301 0.867000
0.015271 -0.015319 0.868000
0.016456 0.012993 0.874000
0.031637 0.011220 0.876000
-0.037231 0.016268 0.876000
0.022237 0.020931 0.875000
0.038312 0.006144 0.872000
-0.039034 0.011220 0.876000
-0.030172 -0.013564 0.870000
0.017535 0.012993 0.874000
-0.028577 0.002928 0.876000
-0.045009 0.000402 0.873000
0.031205 0.002561 0.874000
0.047728 -0.014231 0.867000
0.032383 -0.019227 0.867000
-0.014499 0.012288 0.875000
-0.011964 -0.003914 0.874000
0.006719 -0.010712 0.871000
-0.035024 -0.030155 0.884000
0.021702 -0.013890 0.868000
-0.025957 -0.030189 0.885000
-0.033037 -0.012132 0.870000
0.016399 -0.006410 0.871000
0.008191 -0.026967 0.875000
-0.014122 -0.001396 0.874000
-0.052674 -0.006483 0.881000
0.019311 0.006511 0.873000
-0.038673 0.015547 0.876000
0.037910 0.002194 0.871000
-0.023726 -0.012490 0.870000
0.046300 -0.013160 0.867000
0.027608 0.016590 0.874000
0.030634 -0.011389 0.868000
-0.029951 -0.006072 0.874000
-0.037692 -0.014280 0.870000
-0.006215 0.018770 0.875000
-0.028251 0.025349 0.866000
0.030555 0.009417 0.876000
-0.042279 0.012662 0.876000
-0.028938 0.002928 0.876000
0.014248 -0.007844 0.871000
0.039877 -0.019940 0.867000
0.013937 -0.003554 0.874000
-0.035666 0.021242 0.873000
-0.004379 -0.017820 0.868000
0.026857 0.008307 0.873000
0.013173 -0.008202 0.871000
-0.002981 -0.027750 0.877000
-0.015526 0.025525 0.872000
-0.035067 0.011941 0.876000
-0.028512 -0.005712 0.874000
-0.015757 -0.030189 0.885000
0.023928 0.002194 0.871000
-0.016923 -0.012848 0.870000
-0.011232 -0.007502 0.873000
-0.020151 -0.030588 0.886000
0.044465 0.006102 0.866000
-0.011631 0.013023 0.876000
0.047014 0.000400 0.867000
0.018508 -0.011045 0.869000
0.035278 -0.011032 0.868000
-0.025663 0.011928 0.875000
-0.004054 0.019490 0.875000
0.015000 -0.004269 0.873000
-0.017976 -0.015337 0.869000
0.024701 0.009745 0.873000
0.046711 -0.007817 0.868000
-0.049038 0.004330 0.868000
0.040234 -0.019227 0.867000
-0.029298 0.000764 0.876000
0.017792 -0.012118 0.869000
0.027608 0.010835 0.874000
-0.036108 0.010847 0.875000
0.008840 -0.021392 0.868000
0.041805 0.000401 0.870000
0.025032 0.026243 0.872000
-0.016884 -0.019606 0.868000
0.012180 0.012316 0.877000
0.028327 0.004720 0.874000
0.044261 0.000401 0.869000
0.023088 -0.028207 0.880000
0.027186 0.002914 0.872000
-0.024140 -0.026157 0.872000
-0.018821 0.009767 0.875000
-0.009435 -0.008940 0.873000
-0.022652 -0.011057 0.870000
-0.050767 0.006025 0.855000
-0.029677 0.025349 0.866000
0.025362 -0.000315 0.871000
-0.045316 -0.004623 0.872000
-0.009034 -0.022848 0.869000
0.039479 0.016231 0.874000
0.032321 0.007966 0.875000
-0.005135 0.019851 0.875000
0.024560 -0.013175 0.868000
-0.026918 -0.022848 0.869000
-0.026444 0.019535 0.877000
-0.027011 -0.007853 0.872000
0.040590 -0.020297 0.867000
-0.045420 0.013713 0.874000
-0.027729 -0.008212 0.872000
-0.038855 -0.007494 0.872000
0.031742 -0.024278 0.869000
-0.002981 0.014843 0.877000
0.016114 0.012648 0.875000
-0.034907 -0.006776 0.872000
-0.033075 -0.011429 0.871000
-0.032432 -0.006424 0.873000
0.028720 0.010487 0.875000
0.022186 0.009745 0.873000
-0.043931 -0.002113 0.873000
0.036643 0.021651 0.875000
0.040373 -0.002464 0.870000
-0.003311 -0.023205 0.869000
0.049398 -0.015622 0.865000
-0.045727 -0.001753 0.873000
-0.008736 0.019851 0.875000
0.043903 -0.005322 0.869000
0.004224 -0.026576 0.874000
0.028720 0.019130 0.875000
-0.033947 0.005085 0.875000
0.025720 -0.002466 0.871000
0.009197 -0.018177 0.868000
-0.022268 -0.016410 0.869000
0.031925 0.001842 0.874000
-0.011270 0.003288 0.876000
-0.009180 -0.029394 0.883000
0.039923 -0.012104 0.868000
0.041709 -0.012104 0.868000
-0.026639 0.029775 0.860000
-0.023037 -0.008561 0.871000
0.026169 0.012993 0.874000
0.028880 -0.008541 0.869000
-0.038497 0.019065 0.872000
0.031529 -0.004628 0.873000
0.048573 -0.004930 0.863000
0.004563 -0.025022 0.870000
-0.035666 0.023039 0.873000
0.048948 0.000392 0.851000
-0.021659 -0.031022 0.888000
0.015628 -0.016391 0.868000
-0.019541 0.010127 0.875000
0.034803 0.018389 0.874000
-0.037649 -0.021775 0.869000
-0.038225 0.004000 0.874000
-0.028740 -0.012848 0.870000
0.012055 -0.022821 0.868000
-0.006236 0.011969 0.878000
-0.033792 -0.011429 0.871000
-0.001889 0.021242 0.873000
0.050058 -0.012231 0.852000
-0.001889 -0.007143 0.873000
-0.045420 0.001482 0.874000
-0.017360 0.004720 0.874000
0.019311 0.010104 0.873000
0.010971 -0.019227 0.867000
0.042521 0.001117 0.870000
0.035122 0.009745 0.873000
-0.037334 -0.013922 0.870000
0.016587 -0.028602 0.881000
0.040871 0.016571 0.873000
-0.000454 0.010511 0.877000
-0.038811 -0.008919 0.871000
0.016114 0.012288 0.875000
0.035237 -0.019940 0.867000
0.031961 0.019851 0.875000
-0.020169 -0.007844 0.871000
-0.022011 0.000043 0.873000
-0.013700 -0.012490 0.870000
-0.030888 -0.014280 0.870000
0.036834 0.004345 0.871000
0.010737 0.011233 0.877000
0.037866 -0.001389 0.870000
0.042163 0.002191 0.870000
-0.026053 0.016268 0.876000
-0.030495 -0.017840 0.869000
0.020436 0.019851 0.875000
-0.035266 -0.003546 0.872000
0.022545 0.010463 0.873000
-0.030495 -0.020702 0.869000
0.023845 -0.015676 0.868000
-0.018460 0.014088 0.875000
0.028230 -0.005334 0.871000
0.017535 0.008677 0.874000
0.012499 -0.003194 0.874000
-0.023095 -0.030987 0.887000
-0.007961 -0.016767 0.869000
0.024258 -0.006402 0.870000
0.023818 -0.017442 0.867000
-0.022112 0.020618 0.877000
-0.016923 -0.009267 0.870000
-0.030530 -0.014996 0.870000
-0.004026 -0.022848 0.869000
-0.034867 -0.009636 0.871000
0.001360 -0.029394 0.883000
0.028847 -0.014604 0.868000
0.012456 -0.008561 0.871000
-0.020645 0.016268 0.876000
0.038896 -0.008541 0.869000
0.034524 -0.016372 0.867000
-0.041197 0.015547 0.876000
-0.001900 0.013414 0.878000
0.001337 -0.018177 0.868000
0.018486 -0.015676 0.868000
-0.015579 0.005805 0.875000
-0.037377 -0.025410 0.871000
-0.003711 -0.028175 0.879000
-0.004796 0.008726 0.879000
-0.022037 0.007957 0.874000
0.022391 -0.019583 0.867000
-0.019429 -0.012848 0.870000
0.014640 -0.003191 0.873000
0.031312 -0.021368 0.867000
0.045282 -0.010675 0.868000
0.025061 0.024476 0.873000
-0.049452 -0.002461 0.869000
-0.023835 0.007238 0.874000
0.031745 -0.027814 0.879000
-0.039437 -0.018913 0.869000
-0.032061 0.026682 0.863000
0.010293 -0.025022 0.870000
0.024314 0.024807 0.872000
-0.044598 -0.007494 0.872000
0.002064 0.021602 0.873000
0.045282 -0.012818 0.868000
0.030486 0.017670 0.874000
0.012167 0.014105 0.876000
-0.000453 0.017349 0.876000
-0.002950 -0.022464 0.868000
-0.021578 -0.010341 0.870000
0.036792 -0.001747 0.870000
0.038851 -0.012461 0.868000
-0.023195 0.018813 0.877000
-0.029659 0.015547 0.876000
0.005657 -0.007502 0.873000
-0.025634 0.001122 0.874000
-0.002608 -0.007502 0.873000
-0.015167 0.025166 0.872000
0.026704 -0.012818 0.868000
0.001339 -0.015337 0.869000
0.010626 -0.017820 0.868000
0.021877 0.017690 0.875000
-0.030415 0.006901 0.877000
-0.044700 -0.007871 0.874000
0.037235 0.005068 0.872000
0.034083 0.011195 0.874000
0.010984 -0.014604 0.868000
-0.015202 -0.026936 0.874000
0.002052 -0.022464 0.868000
0.000629 0.010511 0.877000
0.027248 0.016950 0.874000
0.036643 0.020571 0.875000
0.011445 0.015547 0.876000
-0.025274 0.001842 0.874000
-0.039702 -0.031127 0.891000
-0.012712 0.018071 0.876000
-0.007379 -0.030189 0.885000
0.012413 -0.013890 0.868000
-0.019474 -0.002469 0.872000
0.018150 -0.009256 0.869000
0.025838 0.020931 0.875000
0.037680 0.016590 0.874000
0.025779 0.024836 0.873000
-0.040245 -0.008561 0.871000
0.012097 -0.009278 0.871000
-0.049409 0.002881 0.862000
-0.009457 -0.000677 0.875000
0.008483 -0.014604 0.868000
0.015103 -0.028175 0.879000
0.025661 -0.007826 0.869000
-0.025188 -0.009636 0.871000
-0.049208 -0.003900 0.871000
-0.013434 0.009417 0.876000
-0.022678 -0.030189 0.885000
0.021877 0.021291 0.875000
-0.013778 -0.000317 0.875000
0.029440 0.017690 0.875000
0.024342 0.007589 0.873000
0.029919 -0.014604 0.868000
-0.041197 0.015186 0.876000
0.033810 -0.017442 0.867000
-0.025634 0.003281 0.874000
-0.038811 -0.009636 0.871000
0.029339 0.025525 0.872000
0.043903 0.002189 0.869000
0.013430 -0.030657 0.888000
0.026528 0.009756 0.874000
-0.022652 -0.012848 0.870000
-0.032791 -0.003550 0.873000
-0.034827 -0.024664 0.870000
-0.050356 0.000745 0.854000
-0.017039 0.022758 0.876000
-0.043311 0.008326 0.875000
-0.002964 -0.026157 0.872000
-0.025845 -0.017840 0.869000
0.014982 0.025166 0.872000
0.031925 0.003281 0.874000
-0.034268 0.005079 0.874000
0.011098 0.010150 0.877000
-0.002981 0.009789 0.877000
0.031634 -0.029858 0.886000
-0.026233 -0.013206 0.870000
0.023131 -0.013175 0.868000
-0.036870 0.015907 0.876000
0.027092 -0.007826 0.869000
-0.020291 0.028038 0.861000
0.041757 -0.006395 0.869000
0.040637 -0.011389 0.868000
0.028980 -0.004264 0.872000
-0.013073 0.010860 0.876000
-0.042086 -0.007135 0.872000
-0.000807 -0.013548 0.869000
0.043802 -0.016015 0.867000
0.019558 -0.014962 0.868000
0.016078 0.000402 0.873000
0.036434 -0.003180 0.870000
0.027903 0.000043 0.872000
0.029919 -0.012104 0.868000
-0.015097 -0.018534 0.868000
-0.020621 0.009407 0.875000
0.006368 -0.009647 0.872000
0.030991 -0.013890 0.868000
0.047783 -0.007102 0.868000
-0.041009 0.019065 0.872000
0.031348 -0.014604 0.868000
0.021492 0.023425 0.874000
0.031241 0.006526 0.875000
-0.019541 0.010847 0.875000
0.034167 -0.020654 0.867000
0.019648 0.005068 0.872000
0.014896 -0.020297 0.867000
-0.037506 0.004720 0.874000
-0.003681 -0.010365 0.872000
0.033685 0.002918 0.873000
0.030916 0.011220 0.876000
0.017175 0.013353 0.874000
0.024258 -0.006760 0.870000
0.048029 -0.016353 0.866000
0.015394 0.015169 0.875000
-0.002620 0.014482 0.877000
0.009610 -0.005347 0.873000
0.039611 -0.007468 0.869000
-0.017300 -0.007127 0.871000
0.026468 0.025166 0.872000
-0.048187 -0.004623 0.872000
0.008512 -0.010712 0.871000
0.023211 -0.002108 0.871000
-0.023890 -0.027358 0.876000
-0.025663 0.006165 0.875000
-0.043571 -0.003550 0.873000
-0.031101 0.011581 0.876000
0.019289 0.003632 0.872000
0.045692 0.000401 0.869000
0.023900 -0.006044 0.870000
0.021060 0.025137 0.871000
0.009577 -0.024664 0.870000
-0.010165 0.020547 0.874000
-0.026918 -0.017483 0.869000
0.024730 0.016590 0.874000
0.032966 0.000402 0.873000
-0.018481 0.017349 0.876000
0.030634 -0.022464 0.868000
-0.043261 0.001482 0.874000
-0.023699 -0.021417 0.869000
0.023678 0.019490 0.875000
-0.008756 0.007623 0.877000
0.024010 0.013353 0.874000
-0.046393 -0.004623 0.872000
-0.031926 0.024006 0.869000
0.001712 0.014843 0.877000
-0.025487 -0.019271 0.869000
0.030810 0.025195 0.873000
0.018150 -0.012475 0.869000
0.002412 -0.014979 0.869000
-0.036067 0.006518 0.874000
-0.006951 0.014843 0.877000
-0.006904 -0.025768 0.871000
-0.046087 -0.003550 0.873000
0.008135 -0.013906 0.869000
0.008135 -0.013548 0.869000
-0.027824 -0.003558 0.875000
-0.012281 -0.025768 0.871000
0.005683 0.010511 0.877000
-0.036870 0.014105 0.876000
-0.019901 0.013728 0.875000
0.023477 -0.028240 0.881000
0.049112 -0.009514 0.860000
0.030126 0.016950 0.874000
0.031529 -0.003909 0.873000
0.046765 -0.003176 0.869000
0.002434 0.011233 0.877000
-0.035347 0.006158 0.874000
-0.027809 -0.030588 0.886000
0.032321 0.023812 0.875000
-0.024223 0.011568 0.875000
-0.017300 0.026930 0.871000
-0.034469 -0.013206 0.870000
-0.044082 0.010499 0.876000
-0.023808 0.024117 0.873000
0.022034 -0.020297 0.867000
-0.014499 0.003645 0.875000
-0.045675 -0.004623 0.872000
-0.049867 -0.007477 0.870000
-0.024772 -0.022132 0.869000
0.032284 0.000763 0.874000
-0.014432 -0.025768 0.871000
0.005676 0.016989 0.876000
-0.037018 -0.008561 0.871000
-0.020503 -0.011774 0.870000
0.000268 0.011233 0.877000
-0.048187 -0.005340 0.872000
-0.009457 0.019490 0.875000
-0.031859 0.008345 0.877000
-0.012712 0.013383 0.876000
-0.031926 -0.016767 0.869000
0.039434 0.020524 0.873000
0.000268 0.018792 0.876000
0.008210 0.011955 0.877000
-0.019787 -0.011774 0.870000
-0.025274 0.023425 0.874000
-0.037291 -0.020344 0.869000
0.034643 -0.004612 0.870000
0.032644 0.002561 0.874000
0.004574 0.023730 0.872000
-0.015544 -0.001035 0.873000
-0.024195 0.004720 0.874000
0.009912 -0.022464 0.868000
-0.049695 -0.003882 0.867000
0.011563 -0.029825 0.885000
0.010269 -0.014604 0.868000
0.011712 -0.013191 0.869000
0.031601 0.019490 0.875000
0.021060 0.000402 0.871000
0.039657 -0.025022 0.870000
0.018952 0.023758 0.873000
-0.013700 -0.013206 0.870000
-0.016564 -0.010341 0.870000
0.030486 0.014072 0.874000
0.017195 0.015889 0.875000
-0.035590 -0.028932 0.880000
-0.007312 0.014482 0.877000
0.021827 -0.026187 0.873000
0.017535 0.023425 0.874000
0.042375 -0.013517 0.867000
-0.015958 0.015907 0.876000
-0.025845 -0.018198 0.869000
-0.039936 -0.011184 0.880000
0.012858 -0.002115 0.874000
-0.034548 -0.005699 0.872000
0.016835 0.016970 0.875000
-0.013418 -0.000677 0.875000
-0.027634 -0.019271 0.869000
-0.005182 -0.029394 0.883000
-0.000093 0.012316 0.877000
-0.041558 0.011581 0.876000
-0.001535 0.018431 0.876000
0.003874 0.019152 0.876000
-0.034111 -0.012132 0.870000
0.037910 0.024062 0.871000
0.042830 0.017926 0.869000
0.028621 0.026602 0.872000
0.025809 0.012633 0.874000
0.002068 -0.026967 0.875000
-0.019268 -0.028537 0.879000
0.008154 -0.025410 0.871000
0.018844 -0.014604 0.868000
0.050231 -0.006248 0.849000
0.034603 -0.008541 0.869000
-0.026203 -0.022132 0.869000
-0.046499 0.002561 0.874000
0.043188 -0.008541 0.869000
-0.003669 -0.013906 0.869000
-0.020122 -0.015337 0.869000
0.024203 -0.022107 0.868000
0.009992 0.019851 0.875000
-0.037591 0.011581 0.876000
-0.020215 0.000043 0.873000
0.024314 0.003991 0.872000
0.023477 -0.027877 0.881000
0.020343 -0.002825 0.871000
0.019223 -0.011402 0.869000
0.042521 0.007204 0.870000
0.012888 0.006173 0.876000
-0.002596 -0.014264 0.869000
-0.011978 -0.001037 0.875000
0.004910 -0.020678 0.868000
0.034364 0.004350 0.872000
-0.035943 -0.008919 0.871000
-0.051059 0.003206 0.854000
-0.016583 0.025496 0.871000
-0.020145 -0.012490 0.870000
-0.026744 0.002204 0.875000
-0.028121 0.026651 0.862000
-0.036828 0.010487 0.875000
-0.044239 -0.006776 0.872000
-0.016679 0.018431 0.876000
0.023211 -0.000315 0.871000
-0.037692 -0.024306 0.870000
0.038664 -0.028207 0.880000
-0.020354 -0.028537 0.879000
0.034842 0.021651 0.875000
0.012069 -0.011402 0.869000
0.001712 0.014482 0.877000
0.006390 0.020931 0.875000
-0.011167 -0.018534 0.868000
0.042163 0.011859 0.870000
0.029954 -0.024278 0.869000
0.036665 -0.018870 0.867000
0.009293 0.011594 0.877000
0.034443 0.018389 0.874000
0.013485 -0.017105 0.868000
-0.028217 0.000043 0.876000
-0.013684 -0.017840 0.869000
-0.009065 0.021218 0.872000
-0.030530 -0.014280 0.870000
-0.010177 0.000043 0.875000
-0.048793 0.011859 0.870000
-0.036744 0.019805 0.873000
0.013158 -0.009983 0.870000
-0.011578 -0.008571 0.872000
0.009293 0.015564 0.877000
-0.024140 -0.002828 0.872000
0.042424 0.013618 0.868000
0.040684 -0.004607 0.869000
-0.023476 0.005799 0.874000
0.024342 0.024476 0.873000
-0.043571 0.000762 0.873000
-0.011991 0.005091 0.876000
0.018930 0.002196 0.872000
-0.025517 -0.013922 0.870000
-0.000450 -0.014621 0.869000
0.008182 0.021627 0.874000
-0.051652 -0.002783 0.858000
0.038312 0.006503 0.872000
-0.011022 -0.030189 0.885000
-0.029625 -0.004999 0.875000
-0.011737 -0.029791 0.884000
-0.018503 0.021701 0.877000
0.031348 -0.011389 0.868000
-0.038629 0.006526 0.875000
0.035522 0.017310 0.874000
-0.048379 0.010773 0.869000
-0.012338 -0.002118 0.875000
-0.015579 0.009767 0.875000
-0.021005 0.014105 0.876000
0.029919 -0.014962 0.868000
0.041542 0.009016 0.872000
-0.040024 0.003281 0.874000
-0.013668 -0.018534 0.868000
0.033249 -0.005334 0.871000
-0.033714 -0.022132 0.869000
-0.027496 0.005812 0.876000
-0.006880 -0.022107 0.868000
0.018909 -0.002108 0.871000
0.011752 0.024089 0.872000
0.016719 -0.010687 0.869000
0.035202 0.022011 0.875000
-0.020480 -0.015694 0.869000
0.032966 0.002199 0.873000
0.011341 -0.017105 0.868000
0.040731 0.022244 0.870000
-0.041103 0.001482 0.874000
-0.049237 0.007467 0.859000
0.015718 -0.002831 0.873000
-0.018756 -0.000316 0.872000
0.038760 0.020188 0.874000
-0.009478 0.004014 0.877000
-0.016504 -0.030588 0.886000
0.040590 -0.017442 0.867000
-0.004384 -0.014621 0.869000
-0.010910 0.005091 0.876000
0.033608 -0.004976 0.871000
0.029885 -0.017799 0.867000
-0.018080 0.004360 0.874000
-0.017955 0.026122 0.868000
0.015646 -0.011402 0.869000
0.029596 -0.007826 0.869000
-0.028740 -0.023948 0.870000
-0.026918 -0.019986 0.869000
-0.017400 0.018431 0.876000
-0.031786 0.001844 0.875000
0.005683 0.014482 0.877000
-0.014859 0.013728 0.875000
0.020030 0.007948 0.873000
-0.018017 -0.006768 0.871000
0.018192 -0.001032 0.871000
-0.014515 0.018071 0.876000
-0.020238 0.009036 0.874000
0.041089 0.022602 0.870000
-0.008395 0.008706 0.877000
-0.018460 0.013728 0.875000
0.010026 -0.027782 0.878000
0.021467 0.008307 0.873000
0.028165 -0.009256 0.869000
0.009935 -0.025022 0.870000
-0.003315 -0.012490 0.870000
0.008840 -0.019606 0.868000
0.040684 -0.006037 0.869000
-0.017281 -0.013206 0.870000
0.038224 -0.025022 0.870000
-0.021627 -0.001393 0.872000
-0.013357 -0.008202 0.871000
0.048948 -0.008014 0.851000
0.017415 -0.014247 0.868000
0.019915 -0.012461 0.868000
0.037866 -0.024664 0.870000
-0.049944 -0.001372 0.859000
0.017495 0.025166 0.872000
-0.022062 0.013008 0.875000
-0.030776 0.018813 0.877000
0.003513 0.018071 0.876000
0.020796 0.016609 0.875000
0.004553 -0.017463 0.868000
0.024917 -0.022107 0.868000
-0.033548 0.002561 0.874000
0.024175 -0.021368 0.867000
0.024701 -0.026187 0.873000
0.019289 0.003991 0.872000
-0.039709 0.007606 0.875000
-0.010860 0.021577 0.872000
0.029766 0.015152 0.874000
-0.028971 0.005458 0.877000
-0.007621 -0.025768 0.871000
-0.001898 0.014843 0.877000
-0.032506 0.004005 0.875000
-0.014139 0.022011 0.875000
0.011712 -0.011760 0.869000
0.003856 0.023372 0.872000
0.005267 -0.019606 0.868000
0.012097 -0.008561 0.871000
0.038985 -0.025410 0.871000
-0.035509 -0.028143 0.878000
0.002437 0.013414 0.878000
0.034564 -0.023179 0.868000
0.023184 -0.025022 0.870000
0.045334 -0.006395 0.869000
-0.028442 -0.029031 0.883000
0.036200 0.008667 0.873000
0.014691 0.010139 0.876000
-0.029693 0.020257 0.877000
-0.032867 0.003645 0.875000
0.029562 -0.014962 0.868000
0.032777 -0.013890 0.868000
0.035951 -0.022081 0.867000
0.032420 -0.014604 0.868000
-0.005094 -0.017105 0.868000
-0.019100 -0.031022 0.888000
-0.013794 0.019152 0.876000
-0.041727 -0.003905 0.872000
-0.004791 0.013053 0.878000
0.036919 0.011541 0.873000
0.013233 0.016970 0.875000
0.041853 0.002194 0.871000
-0.011644 0.006901 0.877000
0.037022 -0.015658 0.867000
-0.006880 -0.018177 0.868000
-0.030179 0.028005 0.860000
-0.018562 0.027748 0.863000
0.039657 0.000043 0.870000
-0.003694 0.019851 0.875000
-0.016206 -0.025022 0.870000
0.018996 0.019130 0.875000
-0.004036 -0.011429 0.871000
0.019536 -0.020297 0.867000
-0.031859 0.007984 0.877000
-0.025159 -0.011415 0.870000
-0.016225 -0.008561 0.871000
0.040280 -0.013533 0.868000
0.012250 -0.028998 0.882000
0.002782 -0.007862 0.873000
-0.020480 -0.022848 0.869000
0.003152 0.018431 0.876000
-0.011525 -0.021392 0.868000
-0.005457 -0.014979 0.869000
-0.021220 -0.013206 0.870000
-0.033831 0.023372 0.872000
0.013578 -0.001755 0.874000
-0.022652 -0.012132 0.870000
0.034842 0.020931 0.875000
0.043188 0.003620 0.869000
0.039923 -0.010675 0.868000
-0.031604 -0.016070 0.870000
-0.029625 -0.004639 0.875000
0.033249 -0.025410 0.871000
-0.010810 -0.017820 0.868000
-0.004399 -0.010365 0.872000
-0.010235 -0.028570 0.880000
-0.024829 -0.008202 0.871000
-0.029422 -0.016410 0.869000
-0.023116 0.007957 0.874000
0.013485 -0.016034 0.868000
0.046049 -0.005680 0.869000
-0.028447 -0.007494 0.872000
0.035278 -0.013175 0.868000
0.038356 0.013697 0.873000
0.017854 0.000402 0.872000
-0.039709 0.007966 0.875000
0.000981 -0.014979 0.869000
-0.034947 -0.026546 0.873000
-0.000092 -0.015694 0.869000
-0.032692 -0.028932 0.880000
-0.014399 -0.023563 0.869000
0.038356 0.012978 0.873000
-0.035428 0.018071 0.876000
0.026857 0.005073 0.873000
0.048084 -0.008521 0.867000
-0.023863 0.012288 0.875000
-0.011964 -0.005353 0.874000
0.023928 -0.001032 0.871000
-0.039079 -0.022132 0.869000
0.031601 0.020571 0.875000
-0.034102 -0.028537 0.879000
-0.021986 -0.003546 0.872000
-0.001538 -0.027782 0.878000
-0.020910 -0.003905 0.872000
0.036308 -0.021724 0.867000
0.014691 0.008696 0.876000
0.022826 -0.003180 0.870000
0.020413 0.023425 0.874000
-0.026794 0.026032 0.865000
0.048441 -0.006380 0.867000
-0.007647 -0.007511 0.874000
-0.009117 0.013760 0.877000
-0.048132 0.013307 0.871000
0.007902 -0.029394 0.883000
0.027839 -0.024664 0.870000
0.035202 0.020931 0.875000
-0.039573 -0.006058 0.872000
-0.035789 0.018071 0.876000
-0.023917 0.020257 0.877000
-0.010200 0.006541 0.877000
0.014623 -0.006058 0.872000
-0.017059 0.021340 0.877000
-0.033625 0.009778 0.876000
0.003856 -0.009647 0.872000
-0.027379 0.027329 0.861000
0.007054 -0.020678 0.868000
0.043188 -0.017483 0.869000
-0.027316 0.028680 0.859000
-0.016622 -0.001035 0.873000
-0.048546 0.006862 0.872000
0.030845 0.000043 0.874000
-0.022087 0.014105 0.876000
-0.031462 0.015907 0.876000
0.037215 -0.028207 0.880000
0.022852 0.001477 0.871000
0.030160 0.012648 0.875000
0.032420 -0.012818 0.868000
-0.027527 0.020257 0.877000
-0.004404 -0.008221 0.873000
-0.033265 0.013744 0.876000
0.024677 -0.029825 0.885000
0.031348 -0.023536 0.868000
0.035441 0.003273 0.872000
-0.015848 -0.012132 0.870000
0.004967 0.013414 0.878000
-0.033075 0.023703 0.871000
-0.023116 0.004720 0.874000
-0.019924 0.023479 0.876000
-0.048546 0.004709 0.872000
0.014215 -0.023563 0.869000
0.024231 -0.010329 0.869000
0.045028 -0.001031 0.870000
0.044976 -0.005322 0.869000
0.027839 -0.025022 0.870000
0.024367 -0.030257 0.887000
-0.023726 -0.013564 0.870000
0.006368 -0.009288 0.872000
-0.030415 0.009789 0.877000
-0.030380 0.022037 0.876000
0.033096 -0.021011 0.867000
0.027775 -0.013890 0.868000
0.008932 0.014482 0.877000
-0.032283 -0.020344 0.869000
-0.026024 0.009407 0.875000
0.047371 -0.016372 0.867000
0.035522 0.014072 0.874000
0.040153 0.018009 0.873000
0.012055 -0.018177 0.868000
0.040234 -0.018156 0.867000
-0.030846 -0.028537 0.879000
-0.007638 -0.009658 0.873000
-0.000807 -0.022848 0.869000
0.037003 0.019130 0.875000
0.033453 -0.018870 0.867000
-0.040476 0.015186 0.876000
0.019558 -0.022821 0.868000
0.040419 0.001118 0.871000
-0.019159 0.009036 0.874000
-0.011167 -0.021392 0.868000
0.016493 -0.026998 0.876000
-0.047165 0.012260 0.873000
-0.000092 -0.007143 0.873000
-0.049753 -0.005316 0.868000
-0.042493 0.000402 0.873000
-0.035266 -0.004264 0.872000
0.001695 -0.017105 0.868000
-0.024555 0.003281 0.874000
-0.048906 -0.008698 0.885000
0.016777 -0.001751 0.872000
-0.018418 0.003277 0.873000
-0.033869 -0.026546 0.873000
0.027608 0.014432 0.874000
-0.030207 -0.025410 0.871000
0.012055 -0.022464 0.868000
-0.017380 0.011207 0.875000
0.032681 0.020211 0.875000
-0.031101 -0.027719 0.876000
-0.044290 -0.000316 0.873000
0.033402 0.019490 0.875000
0.009208 -0.013548 0.869000
-0.046192 0.008686 0.875000
-0.028217 0.013744 0.876000
-0.031822 0.012302 0.876000
0.002434 0.012316 0.877000
-0.005099 -0.022848 0.869000
-0.036108 0.019130 0.875000
-0.020981 0.009767 0.875000
0.004239 0.011594 0.877000
0.024314 0.004350 0.872000
0.028165 -0.010329 0.869000
-0.042804 -0.004264 0.872000
-0.001169 -0.026157 0.872000
0.029238 -0.023921 0.869000
0.022135 0.001118 0.871000
-0.031822 0.013383 0.876000
-0.010107 -0.016767 0.869000
0.036159 -0.025798 0.872000
-0.008696 -0.025410 0.871000
0.026468 0.002555 0.872000
0.027418 -0.012461 0.868000
0.028523 -0.008183 0.869000
-0.031390 -0.003914 0.874000
-0.048658 -0.008230 0.874000
0.002054 -0.013906 0.869000
-0.016169 -0.020678 0.868000
0.044619 -0.005680 0.869000
0.020678 -0.007119 0.870000
-0.034660 -0.030155 0.884000
-0.051302 -0.005291 0.864000
0.036707 -0.013175 0.868000
-0.026053 0.017710 0.876000
0.012097 0.023703 0.871000
-0.026713 -0.000676 0.874000
-0.023449 0.000043 0.873000
-0.036385 0.001480 0.873000
-0.015167 0.024807 0.872000
-0.017914 0.027131 0.866000
-0.012712 0.004730 0.876000
0.005322 0.014482 0.877000
0.022212 0.012993 0.874000
0.033723 0.014072 0.874000
0.008247 -0.028602 0.881000
-0.009024 -0.018892 0.868000
0.008932 0.015925 0.877000
-0.003698 -0.027358 0.876000
0.030486 -0.000317 0.874000
0.015985 -0.014604 0.868000
-0.022011 -0.026546 0.873000
-0.020192 -0.002828 0.872000
-0.023449 0.002558 0.873000
0.048418 -0.003473 0.854000
0.028490 -0.023179 0.868000
0.019581 -0.007826 0.869000
0.021827 0.011182 0.873000
-0.033189 0.022346 0.874000
-0.009381 -0.020678 0.868000
-0.042639 0.012302 0.876000
-0.027307 -0.013206 0.870000
-0.048243 0.005792 0.873000
0.022389 -0.028602 0.881000
-0.030853 -0.019986 0.869000
0.014330 0.010139 0.876000
0.033004 0.006878 0.874000
-0.032641 -0.023205 0.869000
0.004950 0.020571 0.875000
0.026796 -0.002108 0.871000
-0.018627 0.026775 0.866000
0.012902 0.010511 0.877000
0.019892 -0.019940 0.867000
-0.024858 -0.003546 0.872000
0.039565 -0.023536 0.868000
-0.050409 -0.006380 0.867000
-0.031462 0.011941 0.876000
-0.014515 0.006173 0.876000
-0.049828 0.009566 0.857000
0.006758 0.019152 0.876000
-0.001887 -0.010006 0.872000
0.004595 0.016628 0.876000
-0.024611 0.016268 0.876000
0.019558 -0.023179 0.868000
-0.023089 0.001480 0.873000
0.034803 0.012993 0.874000
0.033135 -0.011746 0.868000
-0.036260 -0.023590 0.870000
-0.030533 0.026943 0.860000
-0.020862 -0.012490 0.870000
-0.027856 0.014826 0.876000
0.041608 -0.028240 0.881000
0.026498 0.005073 0.873000
-0.006605 -0.028175 0.879000
-0.002246 -0.026157 0.872000
-0.037463 0.020883 0.873000
0.006346 -0.013906 0.869000
0.021443 0.006144 0.872000
-0.036576 -0.020702 0.869000
-0.029332 0.018813 0.877000
-0.005152 0.012691 0.878000
-0.012253 -0.016410 0.869000
-0.036468 0.006886 0.875000
-0.010465 -0.014264 0.869000
0.013593 0.018050 0.875000
0.002462 -0.030622 0.887000
0.032383 -0.019583 0.867000
-0.029320 0.025349 0.866000
-0.032942 0.018452 0.877000
-0.027824 -0.001757 0.875000
0.006449 -0.029394 0.883000
0.009676 0.008726 0.879000
-0.022756 0.005079 0.874000
-0.038989 -0.027327 0.875000
-0.024195 0.005799 0.874000
0.013547 0.024807 0.872000
0.027639 0.022011 0.875000
0.015664 -0.008551 0.870000
0.026049 -0.025022 0.870000
0.028947 0.026213 0.871000
-0.039124 -0.015354 0.870000
-0.043212 -0.003550 0.873000
-0.030172 -0.013922 0.870000
-0.015236 0.016989 0.876000
0.000268 0.015564 0.877000
0.011034 0.024089 0.872000
-0.016961 -0.002110 0.872000
0.029766 0.024864 0.874000
0.003537 -0.028998 0.882000
0.009261 0.021986 0.874000
0.011766 -0.004987 0.873000
0.038127 -0.026998 0.876000
-0.030172 -0.013206 0.870000
0.016815 0.014792 0.874000
-0.011991 0.002207 0.876000
0.016700 -0.013175 0.868000
-0.039573 -0.007853 0.872000
-0.009761 -0.024306 0.870000
0.042163 0.013292 0.870000
0.008483 -0.020678 0.868000
-0.027665 -0.013564 0.870000
-0.036870 0.018071 0.876000
0.030669 -0.008899 0.869000
-0.012683 -0.003554 0.874000
0.042879 0.000759 0.870000
-0.044082 0.013023 0.876000
-0.012611 -0.015337 0.869000
-0.020284 0.016268 0.876000
0.021852 0.012993 0.874000
0.013874 -0.008909 0.870000
0.012427 -0.011760 0.869000
-0.003707 0.009078 0.878000
0.032034 -0.027389 0.877000
0.040234 -0.019940 0.867000
0.004239 0.010872 0.877000
-0.032073 -0.006065 0.873000
-0.033433 -0.025768 0.871000
0.003513 0.019152 0.876000
-0.008319 -0.016052 0.869000
-0.036786 0.006158 0.874000
0.018213 0.003273 0.872000
0.005316 0.018071 0.876000
-0.022345 -0.004264 0.872000
-0.006180 -0.012848 0.870000
0.015376 0.000763 0.874000
0.039208 -0.011032 0.868000
-0.023169 0.015547 0.876000
0.022391 -0.018513 0.867000
0.033135 -0.023179 0.868000
0.022034 -0.019227 0.867000
-0.029693 0.006180 0.877000
-0.019833 -0.004264 0.872000
0.039344 0.003986 0.871000
-0.017618 -0.014979 0.869000
-0.007279 0.020524 0.873000
-0.037018 -0.012146 0.871000
0.033646 0.001479 0.872000
-0.025663 0.006526 0.875000
0.015628 -0.016034 0.868000
-0.024140 -0.002469 0.872000
0.040015 -0.003538 0.870000
-0.028249 0.006541 0.877000
0.043395 0.006815 0.866000
-0.043981 0.004720 0.874000
0.009912 -0.021392 0.868000
0.034763 0.006870 0.873000
-0.020622 0.029775 0.860000
0.032284 0.002561 0.874000
0.049398 -0.013486 0.865000
-0.049810 -0.007110 0.869000
-0.000454 0.015204 0.877000
0.044976 0.000401 0.869000
-0.021553 -0.022490 0.869000
-0.037420 -0.005699 0.872000
-0.030276 -0.007502 0.873000
0.009555 -0.019963 0.868000
-0.000452 -0.007143 0.873000
-0.026591 -0.012490 0.870000
0.015700 -0.003905 0.872000
0.001348 0.019851 0.875000
0.012470 -0.025798 0.872000
-0.009839 0.006901 0.877000
-0.022984 -0.022490 0.869000
-0.033317 -0.030987 0.887000
-0.010922 0.009428 0.877000
0.026199 0.023092 0.875000
-0.019946 0.019896 0.877000
-0.021053 -0.028143 0.878000
0.007522 -0.028602 0.881000
-0.015866 -0.008561 0.871000
-0.021911 -0.019629 0.869000
0.039119 0.015511 0.874000
-0.015885 -0.004623 0.872000
-0.043000 0.013744 0.876000
-0.023726 -0.024306 0.870000
0.020319 -0.003180 0.870000
0.034524 -0.019940 0.867000
0.038180 -0.005680 0.869000
0.024758 0.020211 0.875000
0.028651 -0.029427 0.884000
0.027608 0.011195 0.874000
0.029440 0.020931 0.875000
-0.033908 0.002202 0.874000
0.029562 -0.013890 0.868000
-0.027856 0.010860 0.876000
0.005657 -0.007862 0.873000
0.038760 0.018389 0.874000
0.020122 -0.027389 0.877000
0.045586 -0.014945 0.867000
0.025478 0.017690 0.875000
-0.012625 -0.010699 0.870000
-0.023399 0.029000 0.858000
0.028687 0.013713 0.874000
0.008840 -0.018177 0.868000
-0.008347 -0.026157 0.872000
0.050819 -0.012597 0.853000
0.028295 0.000043 0.873000
0.008571 0.012677 0.877000
-0.030565 -0.025051 0.871000
-0.017039 0.021676 0.876000
0.028947 -0.005693 0.871000
0.040153 0.011541 0.873000
0.025661 -0.009972 0.869000
-0.004785 0.014482 0.877000
-0.028872 -0.006072 0.874000
-0.002984 0.012330 0.878000
-0.012712 0.015547 0.876000
-0.035508 -0.030987 0.887000
0.023955 0.026243 0.872000
-0.036828 0.019130 0.875000
0.003874 0.017349 0.876000
-0.019765 -0.022490 0.869000
-0.002259 0.009428 0.877000
0.038356 0.010104 0.873000
0.030520 0.007966 0.875000
0.038671 0.006503 0.872000
-0.016299 0.010127 0.875000
0.013248 0.006533 0.876000
-0.028023 -0.012490 0.870000
-0.024084 -0.024664 0.870000
0.029440 0.012288 0.875000
-0.017720 0.007957 0.874000
-0.018142 -0.027750 0.877000
-0.016981 0.000043 0.873000
-0.029298 0.016989 0.876000
-0.005476 -0.010365 0.872000
-0.017360 0.005799 0.874000
-0.025546 -0.007485 0.871000
0.026528 0.011195 0.874000
-0.032867 0.005445 0.875000
-0.017000 0.004360 0.874000
0.005631 -0.013906 0.869000
-0.017300 -0.006410 0.871000
0.007127 0.011233 0.877000
-0.002611 -0.006432 0.874000
0.036517 0.005068 0.872000
-0.009478 0.006901 0.877000
-0.012239 -0.019606 0.868000
-0.039619 -0.001753 0.873000
-0.028773 -0.009636 0.871000
0.023690 -0.030691 0.889000
-0.033189 0.002202 0.874000
-0.036260 -0.015354 0.870000
0.006390 0.019490 0.875000
-0.038006 -0.021059 0.869000
0.024314 0.006503 0.872000
-0.008405 0.011246 0.878000
0.012427 -0.024278 0.869000
-0.027135 0.005091 0.876000
0.030991 -0.012818 0.868000
-0.009086 -0.003554 0.874000
0.020436 0.020571 0.875000
0.028654 0.000762 0.873000
0.027030 -0.016729 0.867000
0.017515 0.003996 0.873000
0.016114 0.009407 0.875000
-0.020957 0.009036 0.874000
0.039565 -0.011746 0.868000
0.028621 -0.002828 0.872000
0.028720 0.006526 0.875000
0.031205 0.015871 0.874000
-0.034786 -0.028143 0.878000
0.005292 0.022295 0.872000
-0.047111 -0.003905 0.872000
0.012042 -0.019227 0.867000
-0.030888 -0.012132 0.870000
-0.034787 -0.017483 0.869000
-0.012625 -0.011057 0.870000
0.003869 0.019851 0.875000
-0.005099 -0.023921 0.869000
-0.011909 -0.025022 0.870000
0.038112 -0.029427 0.884000
-0.030020 0.015186 0.876000
0.048140 -0.005673 0.868000
0.033492 -0.014247 0.868000
0.016738 -0.025022 0.870000
0.045744 -0.002464 0.870000
-0.014399 -0.017125 0.869000
0.019961 -0.025022 0.870000
0.021345 -0.016391 0.868000
0.040153 0.015493 0.873000
0.017435 -0.024278 0.869000
0.034443 0.014432 0.874000
0.020576 -0.028602 0.881000
-0.035789 0.013383 0.876000
-0.050063 0.007080 0.855000
-0.032904 0.008336 0.876000
0.015017 0.000763 0.874000
0.006735 -0.006424 0.873000
-0.026918 -0.021775 0.869000
0.018486 -0.017105 0.868000
-0.029098 -0.013206 0.870000
0.014314 0.021291 0.875000
0.037379 -0.021368 0.867000
0.020366 0.003273 0.872000
-0.015508 -0.008202 0.871000
-0.044442 0.011941 0.876000
0.029440 0.019130 0.875000
-0.013794 0.012662 0.876000
0.029171 -0.016015 0.867000
0.049183 -0.007646 0.849000
0.007777 -0.012118 0.869000
0.042521 0.006846 0.870000
0.014590 -0.009267 0.870000
-0.012408 -0.028570 0.880000
0.002766 -0.022821 0.868000
-0.009828 0.018431 0.876000
-0.027496 0.012662 0.876000
0.004910 -0.019606 0.868000
-0.024251 0.016628 0.876000
-0.049475 0.007097 0.857000
0.035522 0.014792 0.874000
-0.032073 0.023039 0.873000
0.024758 0.018410 0.875000
0.033810 -0.019227 0.867000
-0.045727 -0.003191 0.873000
-0.006545 -0.025410 0.871000
0.011085 0.008696 0.876000
-0.023449 -0.000316 0.873000
-0.020981 0.012288 0.875000
-0.010922 0.007262 0.877000
0.022084 -0.009614 0.869000
0.026919 0.021651 0.875000
0.028262 -0.002110 0.872000
-0.048187 -0.006417 0.872000
