0.011833 -0.006461 0.878000
0.017156 -0.014329 0.873000
0.013578 -0.010389 0.874000
-0.031822 0.022397 0.876000
0.011793 -0.023005 0.875000
0.015736 -0.021900 0.874000
0.016188 0.025006 0.879000
0.010700 -0.022260 0.874000
-0.051896 -0.003887 0.868000
0.037193 -0.004617 0.871000
0.006051 0.025339 0.878000
0.012208 -0.002851 0.879000
-0.024361 -0.017704 0.880000
-0.028861 -0.034252 0.896000
-0.009839 -0.023780 0.877000
0.016456 -0.009669 0.874000
-0.020904 0.019028 0.887000
0.000269 -0.010436 0.878000
0.029868 0.028559 0.877000
0.026650 0.018835 0.878000
0.012236 0.015635 0.881000
0.022212 -0.004993 0.874000
-0.026172 -0.016255 0.880000
0.041042 -0.011402 0.869000
0.013985 0.027115 0.877000
-0.017579 0.014978 0.885000
0.043188 -0.010329 0.869000
-0.029666 0.009901 0.887000
-0.006628 0.019646 0.882000
-0.002632 -0.006846 0.881000
-0.032587 0.002234 0.887000
0.039702 0.021194 0.871000
-0.022499 -0.023807 0.878000
-0.006951 -0.013673 0.877000
0.034325 -0.006410 0.871000
0.008993 0.014944 0.883000
-0.018629 0.022576 0.883000
0.022700 0.022836 0.879000
0.017293 0.020326 0.880000
0.035202 -0.022285 0.875000
0.010506 -0.028464 0.888000
0.014412 0.022162 0.881000
0.043596 -0.004970 0.870000
0.022177 -0.026972 0.887000
-0.016103 0.003318 0.884000
0.026437 -0.018598 0.871000
-0.036075 -0.010132 0.883000
0.014691 -0.006447 0.876000
0.007176 0.010946 0.883000
0.040061 0.000043 0.871000
-0.020810 -0.029394 0.883000
0.033569 -0.011415 0.870000
0.022186 -0.007502 0.873000
0.009969 -0.017563 0.873000
0.024426 0.009057 0.876000
-0.021826 -0.011184 0.880000
-0.015289 -0.011895 0.879000
-0.003736 0.013157 0.885000
0.024454 0.009789 0.877000
0.012194 -0.006100 0.878000
0.017977 0.012330 0.878000
0.004950 -0.014362 0.875000
0.015376 -0.011108 0.874000
-0.018587 -0.007571 0.881000
-0.029268 0.019735 0.886000
-0.022912 0.022862 0.880000
-0.022782 0.024892 0.875000
0.040067 -0.023111 0.879000
-0.004064 -0.012590 0.877000
0.004229 -0.013642 0.875000
-0.008025 -0.021589 0.876000
-0.004082 -0.007934 0.881000
-0.038385 0.000773 0.886000
0.041542 0.002196 0.872000
-0.004780 -0.021229 0.876000
0.035202 0.012648 0.875000
-0.019608 -0.025252 0.878000
-0.023999 -0.015893 0.880000
0.017854 -0.019337 0.872000
-0.046044 0.012807 0.886000
0.012584 0.000406 0.880000
-0.033341 0.021725 0.878000
0.002092 -0.028004 0.885000
0.013263 -0.006093 0.877000
-0.029666 0.009536 0.887000
0.018930 -0.013595 0.872000
0.035359 -0.017861 0.870000
0.008629 0.011310 0.883000
-0.030235 -0.033402 0.893000
0.019422 0.015221 0.878000
0.021302 -0.025339 0.881000
0.033927 -0.011774 0.870000
0.010798 0.015653 0.882000
-0.022886 -0.026005 0.879000
-0.009906 -0.002500 0.883000
0.026796 -0.012863 0.871000
0.024730 0.000043 0.874000
-0.027080 0.000408 0.886000
0.020986 -0.025760 0.883000
-0.019742 0.008776 0.884000
-0.029334 0.002602 0.888000
0.025868 0.006894 0.876000
-0.032550 -0.031317 0.886000
0.003509 -0.022645 0.875000
-0.005170 -0.006483 0.881000
-0.031527 0.005526 0.888000
0.014758 0.007649 0.880000
-0.011750 0.004415 0.885000
-0.025086 0.022499 0.880000
-0.024723 -0.014806 0.880000
0.018017 0.019964 0.880000
0.031456 -0.008202 0.871000
-0.017638 -0.030291 0.888000
-0.018524 -0.020555 0.878000
0.021229 -0.024168 0.878000
-0.026053 0.023839 0.876000
0.027671 0.002207 0.876000
0.005748 -0.028432 0.887000
0.011085 -0.023753 0.876000
0.010798 0.010208 0.882000
0.014741 -0.000318 0.879000
-0.039070 -0.004692 0.885000
-0.049716 0.000768 0.880000
-0.007752 -0.029129 0.886000
0.008571 0.024588 0.877000
0.002426 -0.020821 0.874000
-0.013148 0.021437 0.881000
-0.037249 -0.003235 0.885000
-0.028936 0.007710 0.887000
0.020366 -0.013595 0.872000
0.041399 -0.017125 0.869000
-0.012115 0.002593 0.885000
-0.028571 0.017932 0.887000
-0.034413 0.016837 0.887000
-0.012843 0.004050 0.885000
0.011873 0.018536 0.881000
-0.023063 0.026961 0.872000
-0.008846 0.011348 0.886000
-0.026927 -0.012648 0.881000
-0.029625 0.023452 0.875000
0.014412 0.007658 0.881000
0.049999 -0.007718 0.857000
0.018572 -0.014672 0.872000
0.039839 0.014072 0.874000
0.013671 0.004752 0.880000
0.018359 0.016685 0.879000
0.002817 0.010595 0.884000
-0.026351 0.005514 0.886000
-0.007015 0.009878 0.885000
0.035481 -0.021156 0.873000
0.044057 0.007163 0.865000
-0.026015 0.014282 0.887000
-0.020786 -0.001408 0.882000
0.002817 0.013506 0.884000
0.040373 0.018663 0.870000
-0.030658 -0.009416 0.884000
0.041901 0.005068 0.872000
-0.005862 -0.018345 0.876000
-0.012101 0.018599 0.884000
-0.045051 0.001871 0.888000
-0.027111 0.012821 0.887000
-0.007337 -0.027121 0.880000
0.020168 -0.024558 0.879000
-0.013541 -0.003954 0.883000
-0.035752 -0.005778 0.884000
-0.013207 0.010607 0.885000
0.031098 -0.008919 0.871000
0.023291 -0.001755 0.874000
0.030486 -0.002835 0.874000
0.002811 0.018920 0.882000
0.021827 -0.008221 0.873000
-0.012380 -0.015495 0.878000
-0.014582 -0.010098 0.880000
0.029474 0.000043 0.876000
-0.024417 -0.008306 0.882000
0.023264 -0.007862 0.873000
-0.035548 0.013932 0.888000
0.005663 -0.019742 0.874000
0.031673 0.016647 0.877000
-0.003719 -0.006846 0.881000
0.017293 0.022862 0.880000
-0.002269 -0.006121 0.881000
-0.022499 -0.024530 0.878000
0.012236 0.019261 0.881000
0.004229 -0.015443 0.875000
0.026589 0.030329 0.876000
0.016188 0.011620 0.879000
0.029698 -0.005340 0.872000
-0.034582 -0.014114 0.882000
-0.031785 -0.005056 0.885000
0.015120 0.017791 0.880000
-0.028773 -0.029361 0.882000
-0.026715 -0.030588 0.886000
0.021350 -0.025760 0.883000
-0.017559 0.006229 0.884000
0.014741 -0.001042 0.879000
-0.005193 0.014249 0.885000
-0.048123 -0.010144 0.884000
-0.030133 -0.032191 0.890000
0.015341 -0.018620 0.872000
-0.006620 -0.009022 0.881000
0.016059 -0.018261 0.872000
-0.013904 -0.028667 0.883000
0.034723 -0.020414 0.872000
0.024871 0.026453 0.879000
0.019082 0.017409 0.879000
0.039793 0.011541 0.873000
0.016512 -0.001401 0.877000
0.016950 -0.025701 0.881000
0.036159 -0.001034 0.872000
0.010352 -0.010401 0.875000
-0.021149 -0.001772 0.882000
0.029541 0.027507 0.878000
0.012584 0.001854 0.880000
0.030346 -0.017861 0.870000
-0.002629 0.021413 0.880000
-0.018907 -0.026728 0.879000
0.028360 0.029574 0.875000
0.014033 0.018515 0.880000
0.004263 0.020735 0.882000
0.010700 -0.012187 0.874000
-0.032330 -0.025310 0.880000
0.011472 0.024978 0.878000
0.014161 -0.028098 0.888000
0.041901 0.002914 0.872000
-0.024752 -0.013010 0.881000
0.047898 -0.004862 0.851000
0.027999 0.000043 0.875000
0.043422 -0.023526 0.881000
-0.003698 -0.014379 0.876000
0.014624 -0.029760 0.894000
-0.014910 -0.015134 0.878000
0.019334 -0.005712 0.874000
0.002078 -0.009001 0.879000
0.014049 0.012372 0.881000
0.032137 -0.013206 0.870000
0.040153 0.006511 0.873000
0.013309 0.003303 0.880000
-0.028174 -0.004697 0.886000
-0.009200 0.013157 0.885000
-0.015376 0.004046 0.884000
-0.004807 -0.008296 0.881000
0.030951 0.017369 0.877000
-0.011347 -0.006854 0.882000
-0.015633 -0.025252 0.878000
0.015376 -0.009669 0.874000
-0.001174 -0.015100 0.876000
0.046603 -0.001739 0.866000
-0.043954 0.007354 0.888000
-0.021975 0.016818 0.886000
-0.033720 0.014663 0.888000
-0.000831 -0.031232 0.894000
-0.006293 0.012078 0.886000
-0.021634 0.019393 0.887000
0.042682 0.008241 0.866000
0.030229 0.019896 0.877000
0.036559 0.005073 0.873000
-0.033856 -0.015566 0.882000
-0.014995 -0.002137 0.883000
-0.044899 -0.008698 0.885000
-0.008816 -0.004318 0.883000
-0.010212 -0.014050 0.878000
-0.006350 -0.031600 0.894000
0.026620 0.010150 0.877000
-0.032587 0.006615 0.887000
0.027279 -0.022645 0.875000
0.032173 -0.018957 0.871000
0.000994 -0.006838 0.880000
-0.033720 0.016856 0.888000
0.001356 0.022137 0.880000
-0.009575 0.010984 0.886000
0.019896 -0.026123 0.883000
-0.014300 0.009514 0.885000
-0.025448 -0.017704 0.880000
-0.026746 0.014282 0.887000
-0.003001 0.017125 0.883000
-0.043954 0.005892 0.888000
-0.008836 0.012792 0.885000
-0.011657 -0.024891 0.878000
-0.016850 0.013885 0.885000
-0.005551 0.014961 0.884000
-0.032367 -0.019537 0.881000
-0.014648 0.019691 0.884000
0.033762 0.006526 0.875000
-0.005533 -0.027514 0.881000
-0.014235 0.021800 0.881000
-0.053325 -0.003887 0.868000
-0.031162 0.015394 0.888000
-0.022730 0.018663 0.887000
0.044312 -0.003896 0.870000
0.045692 -0.008541 0.869000
-0.027080 0.010619 0.886000
0.018254 -0.008230 0.874000
0.025391 -0.009647 0.872000
-0.009489 -0.025252 0.878000
-0.025200 0.002227 0.884000
0.039119 0.014072 0.874000
0.033325 -0.021516 0.873000
0.033155 0.022810 0.878000
-0.012422 -0.007934 0.881000
0.028785 0.028559 0.877000
0.015718 -0.013251 0.873000
-0.009532 -0.007580 0.882000
-0.045782 0.006257 0.888000
0.000268 -0.016883 0.875000
-0.016049 -0.005396 0.881000
0.022618 -0.028162 0.890000
-0.014978 -0.004676 0.882000
0.006023 -0.016504 0.874000
0.025089 -0.001036 0.874000
-0.021610 0.013172 0.886000
0.033723 -0.021900 0.874000
0.010712 -0.023365 0.875000
-0.028346 -0.019877 0.880000
0.024314 -0.010006 0.872000
0.013671 0.000768 0.880000
-0.020470 0.008776 0.884000
0.017615 0.013053 0.878000
-0.029599 -0.008334 0.885000
0.032173 -0.008561 0.871000
-0.050758 -0.006424 0.873000
-0.030796 0.017222 0.888000
-0.033530 -0.030121 0.883000
0.027671 0.001485 0.876000
-0.015739 0.006957 0.884000
-0.000821 0.014961 0.884000
0.047122 -0.005322 0.869000
0.000998 0.012050 0.884000
0.028457 0.018835 0.878000
-0.029964 -0.008334 0.885000
-0.034464 0.021027 0.879000
-0.003736 0.013885 0.885000
-0.045416 0.001871 0.888000
0.035122 0.002558 0.873000
0.016418 -0.017543 0.872000
0.029698 -0.004982 0.872000
0.034803 -0.021900 0.874000
-0.003766 -0.030795 0.892000
-0.012087 -0.004681 0.883000
0.005000 0.015689 0.884000
0.005023 -0.028829 0.888000
0.034763 0.001840 0.873000
-0.036438 -0.010859 0.883000
-0.047191 0.005885 0.887000
-0.027983 -0.026759 0.880000
-0.005176 -0.027546 0.882000
-0.008462 0.016780 0.884000
0.017655 0.020326 0.880000
0.027903 -0.021132 0.872000
0.036559 0.002918 0.873000
-0.020128 0.012792 0.885000
0.021566 0.027115 0.877000
0.021852 -0.004633 0.874000
-0.024864 0.007693 0.885000
0.002453 0.012050 0.884000
0.011873 0.021437 0.881000
-0.028708 -0.026397 0.880000
-0.036927 0.002596 0.886000
-0.028708 -0.017704 0.880000
0.012613 0.010934 0.882000
-0.034503 -0.023861 0.880000
-0.039390 -0.009780 0.884000
-0.035468 0.002596 0.886000
-0.037443 -0.024976 0.881000
-0.033720 0.014298 0.888000
0.009643 -0.009691 0.876000
0.043238 -0.003538 0.870000
-0.047813 -0.004692 0.885000
0.008256 -0.026457 0.882000
-0.012843 0.004415 0.885000
-0.024361 -0.016255 0.880000
0.009698 0.019624 0.881000
0.023596 -0.019337 0.872000
0.013203 -0.017204 0.873000
0.032247 -0.002831 0.873000
0.015754 -0.006439 0.875000
0.033966 -0.008919 0.871000
-0.020015 -0.009736 0.880000
-0.013857 -0.009011 0.880000
-0.022601 -0.002861 0.882000
-0.024444 -0.001047 0.883000
0.011873 0.022525 0.881000
-0.044220 -0.004697 0.886000
0.017655 0.024673 0.880000
-0.039524 0.004790 0.887000
-0.016831 0.006229 0.884000
-0.036843 -0.030519 0.884000
0.003181 -0.027608 0.884000
-0.031821 -0.001415 0.886000
-0.016448 0.000770 0.883000
-0.045051 0.004795 0.888000
0.030264 0.008716 0.878000
0.025750 -0.007494 0.872000
0.040153 0.011541 0.873000
-0.017963 0.015724 0.886000
-0.011463 -0.031127 0.891000
0.023291 -0.000676 0.874000
-0.035024 -0.006505 0.884000
-0.022991 -0.001774 0.883000
-0.049159 0.004405 0.883000
-0.012073 -0.006491 0.882000
-0.041396 0.007354 0.888000
0.022983 -0.023392 0.876000
0.007102 -0.015065 0.874000
-0.036034 -0.015566 0.882000
-0.016411 -0.005033 0.881000
0.024673 -0.012160 0.872000
0.000272 -0.029195 0.888000
-0.035548 0.015029 0.888000
-0.012128 0.008796 0.886000
0.025362 -0.014655 0.871000
0.025957 0.023559 0.879000
0.019422 0.011246 0.878000
-0.052968 -0.004244 0.868000
0.029440 0.030294 0.875000
-0.012005 -0.017644 0.877000
-0.031785 -0.005784 0.885000
0.018699 0.026062 0.878000
-0.036075 0.020032 0.883000
-0.010657 0.004050 0.885000
-0.022213 -0.007209 0.881000
-0.029334 0.001140 0.888000
-0.017519 -0.002135 0.882000
0.039969 -0.012475 0.869000
-0.029828 -0.015548 0.881000
-0.031999 0.026571 0.871000
-0.003395 -0.030394 0.891000
-0.013857 -0.027483 0.880000
0.007539 0.015671 0.883000
0.042732 0.009321 0.867000
-0.011697 0.021437 0.881000
-0.036314 -0.025310 0.880000
0.033117 0.015925 0.877000
-0.017963 0.019371 0.886000
0.012947 0.002579 0.880000
0.038413 -0.026726 0.891000
-0.027476 0.019028 0.887000
-0.003038 -0.031232 0.894000
0.026827 -0.007135 0.872000
0.010847 -0.000686 0.886000
-0.019422 0.014630 0.886000
-0.018885 -0.019832 0.878000
0.034882 0.015547 0.876000
-0.012465 -0.029063 0.884000
-0.032697 -0.032557 0.890000
-0.029466 -0.014098 0.881000
0.012961 0.014910 0.881000
0.016531 0.007632 0.878000
-0.001895 -0.015100 0.876000
-0.026202 -0.028240 0.881000
0.025420 -0.003191 0.873000
0.038715 0.006511 0.873000
-0.034621 0.019669 0.883000
0.028489 0.012706 0.879000
-0.022653 0.006229 0.884000
-0.035308 0.020009 0.882000
-0.014203 -0.026728 0.879000
-0.014664 0.010607 0.885000
0.023291 -0.002115 0.874000
0.007462 -0.019742 0.874000
-0.049964 -0.006100 0.878000
0.030195 0.000404 0.876000
0.003545 0.013506 0.884000
0.012976 0.013112 0.882000
-0.019720 0.004041 0.883000
-0.001190 0.008815 0.888000
-0.041937 -0.010871 0.884000
-0.029466 -0.016999 0.881000
0.034882 0.016989 0.876000
-0.019334 -0.003587 0.882000
-0.012087 -0.005044 0.883000
-0.030167 -0.032594 0.891000
-0.048850 -0.003595 0.884000
-0.022860 -0.022000 0.878000
0.033211 -0.010699 0.870000
0.007462 -0.021180 0.874000
-0.035063 -0.000321 0.885000
0.034285 -0.011057 0.870000
0.013263 -0.024502 0.877000
0.011161 -0.026457 0.882000
-0.021488 -0.028602 0.881000
0.039969 -0.009614 0.869000
0.013686 0.022525 0.881000
0.021467 -0.021875 0.873000
-0.021851 0.022888 0.881000
0.028489 0.014515 0.879000
0.020820 0.004370 0.876000
-0.022448 0.024560 0.876000
0.016317 -0.027306 0.886000
0.038582 -0.006760 0.870000
0.022052 -0.025367 0.882000
0.035359 -0.018935 0.870000
0.029412 -0.025818 0.885000
-0.036479 -0.030519 0.884000
0.019039 0.010150 0.877000
0.002426 -0.020101 0.874000
0.016931 0.024310 0.880000
0.025927 -0.023807 0.878000
-0.011022 0.012792 0.885000
-0.031243 -0.027121 0.880000
0.019783 0.013414 0.878000
-0.001178 -0.010086 0.879000
-0.023460 0.017567 0.887000
0.035841 0.002558 0.873000
-0.041256 -0.009063 0.885000
0.019738 0.001846 0.876000
0.016170 0.002934 0.878000
-0.000457 0.016761 0.883000
-0.015358 -0.000320 0.883000
-0.048541 -0.004327 0.885000
-0.032729 -0.027152 0.881000
-0.013327 -0.031932 0.893000
0.028588 -0.013938 0.871000
-0.014171 -0.020531 0.877000
0.010447 0.014581 0.883000
0.011047 -0.016485 0.873000
0.016531 0.005464 0.878000
0.040512 0.007229 0.873000
0.038084 0.015529 0.875000
0.022339 0.020665 0.879000
0.038606 -0.025876 0.887000
-0.032952 0.004060 0.887000
0.034922 0.024949 0.877000
0.034643 -0.012848 0.870000
0.037046 0.017349 0.876000
0.047316 -0.004591 0.866000
0.015500 0.021800 0.881000
-0.021776 -0.020555 0.878000
-0.028015 -0.028602 0.881000
-0.017195 0.011323 0.884000
0.012527 -0.023753 0.876000
-0.020060 -0.028635 0.882000
-0.020692 -0.023807 0.878000
-0.007665 -0.023392 0.876000
-0.003728 0.018942 0.883000
-0.021197 0.004774 0.884000
-0.004455 0.018215 0.883000
-0.011764 0.009160 0.886000
0.007867 0.023921 0.879000
0.035359 -0.008193 0.870000
-0.035308 -0.015203 0.882000
0.030987 0.009800 0.878000
0.018317 0.004014 0.877000
-0.045679 -0.006885 0.886000
0.015034 -0.008240 0.875000
-0.036927 -0.000321 0.886000
0.032358 0.006894 0.876000
0.026888 -0.002475 0.874000
-0.021245 0.015724 0.886000
-0.034699 -0.030918 0.885000
-0.001176 -0.012229 0.877000
0.009720 0.012037 0.883000
0.037363 0.012288 0.875000
0.024482 0.027507 0.878000
-0.044320 0.006988 0.888000
-0.043393 -0.011235 0.884000
0.027217 -0.005706 0.873000
0.024038 0.001484 0.875000
-0.022314 0.010243 0.885000
-0.014648 -0.029063 0.884000
-0.002977 -0.023032 0.876000
0.011873 0.021800 0.881000
0.037551 -0.002825 0.871000
-0.008025 -0.019426 0.876000
-0.009128 -0.025252 0.878000
-0.020128 0.013157 0.885000
-0.032077 -0.009405 0.883000
0.047954 -0.006270 0.852000
0.036643 0.014449 0.875000
0.004995 0.010946 0.883000
0.003529 -0.007200 0.880000
-0.025086 -0.016980 0.880000
0.010435 0.016016 0.882000
0.025061 -0.021875 0.873000
-0.037486 -0.019559 0.882000
0.033381 -0.024333 0.884000
-0.027259 -0.026034 0.880000
0.001367 0.009536 0.887000
-0.012422 0.019987 0.881000
0.019126 -0.025339 0.881000
-0.034257 -0.011949 0.883000
-0.017078 -0.023446 0.878000
0.011779 -0.021900 0.874000
-0.045679 -0.005791 0.886000
0.032756 0.018452 0.877000
-0.025986 0.006608 0.886000
0.040326 -0.012833 0.869000
-0.033894 -0.010859 0.883000
-0.015994 -0.017302 0.878000
0.017254 0.009439 0.878000
0.001359 0.020009 0.882000
-0.045730 0.013186 0.887000
0.000270 0.020372 0.882000
-0.017428 -0.033146 0.896000
0.009720 0.013127 0.883000
-0.030881 -0.023499 0.880000
0.019289 -0.015390 0.872000
-0.041303 -0.002144 0.886000
0.028095 0.017028 0.878000
-0.022550 -0.013358 0.880000
-0.034907 0.024448 0.872000
-0.024544 -0.034775 0.900000
0.038084 0.016970 0.875000
0.029988 -0.014996 0.870000
-0.051176 -0.009310 0.874000
0.033745 -0.025061 0.884000
-0.028740 -0.016636 0.881000
-0.038255 -0.011586 0.883000
-0.000459 0.009171 0.887000
-0.041303 -0.001780 0.886000
-0.023354 -0.029394 0.883000
-0.047556 0.005885 0.887000
-0.019764 0.010971 0.885000
0.044610 -0.023943 0.883000
-0.038429 0.004425 0.887000
0.024509 0.019941 0.879000
0.017490 -0.028528 0.890000
-0.032330 -0.024586 0.880000
-0.013826 -0.016580 0.878000
-0.013480 -0.011534 0.879000
-0.038342 -0.006149 0.885000
0.030022 -0.020032 0.871000
-0.045416 0.003699 0.888000
0.037150 -0.009983 0.870000
0.022571 -0.002475 0.874000
-0.045314 -0.005426 0.886000
0.012670 -0.027670 0.886000
0.038538 -0.015337 0.869000
-0.029268 -0.005061 0.886000
-0.011750 0.003322 0.885000
0.046407 -0.002461 0.869000
0.015844 0.020688 0.880000
-0.018885 -0.023446 0.878000
-0.028571 -0.002877 0.887000
-0.011671 -0.012257 0.879000
0.004626 0.020009 0.882000
-0.024943 0.024172 0.875000
-0.021900 0.001497 0.883000
-0.015704 0.022550 0.882000
0.029936 0.011982 0.879000
0.033117 0.015564 0.877000
-0.013526 -0.028272 0.882000
-0.027259 -0.018066 0.880000
0.020915 0.022137 0.880000
0.019039 0.005819 0.877000
0.043126 -0.021565 0.875000
-0.016467 0.009140 0.884000
0.025233 0.026815 0.879000
0.016550 0.014515 0.879000
0.005728 0.013870 0.884000
0.037866 -0.019293 0.870000
0.015034 -0.007520 0.875000
-0.017214 0.013885 0.885000
0.022700 0.021388 0.879000
0.010761 -0.002851 0.879000
-0.010235 -0.010460 0.880000
-0.027841 0.014647 0.887000
-0.011335 -0.008659 0.881000
0.037767 0.022037 0.876000
0.037508 -0.008551 0.870000
-0.013464 -0.017302 0.878000
0.000270 0.012050 0.884000
0.043646 0.004703 0.871000
-0.001926 -0.029993 0.890000
-0.027259 -0.020239 0.880000
0.003900 0.018920 0.882000
-0.023744 0.004410 0.884000
-0.029761 -0.024196 0.879000
0.000270 0.014597 0.884000
-0.012465 0.018236 0.884000
0.040637 -0.015676 0.868000
-0.015615 -0.023419 0.877000
0.006789 -0.005389 0.880000
0.023651 -0.000676 0.874000
-0.029103 -0.016274 0.881000
-0.013480 -0.011895 0.879000
0.002789 -0.023005 0.875000
0.032681 0.002564 0.875000
-0.009117 -0.017283 0.877000
0.027373 0.017028 0.878000
0.028588 -0.012504 0.871000
0.038180 -0.011045 0.869000
0.006500 -0.029261 0.890000
0.020796 -0.023365 0.875000
0.014001 -0.003932 0.878000
0.008629 0.016398 0.883000
-0.023556 0.023866 0.877000
0.020122 0.010150 0.877000
-0.024920 0.015742 0.887000
-0.036238 0.006250 0.887000
-0.036075 -0.011586 0.883000
0.015017 -0.022260 0.874000
0.005728 0.014597 0.884000
-0.030431 0.001140 0.888000
-0.019014 0.007320 0.884000
0.031673 0.020618 0.877000
0.032793 0.026062 0.878000
-0.048232 0.001138 0.886000
0.012570 -0.001404 0.879000
-0.021512 -0.028998 0.882000
0.013969 -0.007168 0.876000
-0.017841 -0.011184 0.880000
0.041901 0.002555 0.872000
0.014395 0.004752 0.880000
-0.046356 0.009878 0.885000
0.039839 0.014432 0.874000
-0.016869 0.016818 0.886000
-0.013572 0.002958 0.885000
-0.048123 -0.010871 0.884000
0.012599 0.014548 0.881000
-0.013464 -0.015857 0.878000
0.048123 -0.000662 0.855000
-0.029466 -0.016636 0.881000
0.037508 -0.009625 0.870000
0.031493 -0.004623 0.872000
0.034200 0.019896 0.877000
-0.027634 0.026510 0.869000
0.011098 -0.008259 0.877000
0.025653 -0.024976 0.881000
-0.049716 -0.001043 0.880000
0.029339 -0.007135 0.872000
-0.022163 -0.019493 0.879000
-0.033242 -0.004327 0.885000
0.030175 -0.026212 0.886000
-0.024135 0.006600 0.885000
0.012584 -0.025672 0.880000
-0.018524 -0.022000 0.878000
0.044976 -0.004607 0.869000
-0.021439 -0.019131 0.879000
-0.034503 -0.026397 0.880000
0.004961 -0.025224 0.877000
-0.036760 -0.018470 0.882000
-0.006943 -0.020868 0.876000
-0.009918 0.001499 0.884000
0.038896 -0.012118 0.869000
0.026498 -0.004628 0.873000
-0.024723 -0.014444 0.880000
-0.042761 -0.001415 0.886000
-0.042445 0.002234 0.887000
0.016569 0.022862 0.880000
0.001712 -0.025224 0.877000
0.027279 0.000043 0.875000
-0.031318 0.024089 0.872000
0.035400 -0.007485 0.871000
-0.041396 0.006988 0.888000
0.018678 0.005458 0.877000
-0.044635 0.000044 0.887000
-0.032841 -0.007233 0.884000
0.040373 -0.006760 0.870000
0.010785 0.018536 0.881000
-0.035067 0.022037 0.876000
-0.032004 -0.016999 0.881000
-0.036479 -0.008688 0.884000
-0.030157 -0.021688 0.880000
-0.030431 0.006257 0.888000
-0.012115 0.001865 0.885000
0.046934 0.006406 0.859000
-0.022314 0.010971 0.885000
-0.035549 0.022112 0.879000
0.014049 0.011647 0.881000
0.014049 -0.025701 0.881000
0.018930 -0.017902 0.872000
-0.015584 -0.033146 0.896000
0.023759 -0.024168 0.878000
0.021640 0.024310 0.880000
-0.039159 0.003695 0.887000
0.009687 -0.003578 0.880000
0.005334 -0.026005 0.879000
0.003905 -0.027213 0.883000
0.010037 0.024283 0.879000
0.012858 -0.012547 0.874000
0.019716 -0.002478 0.875000
-0.008117 0.010254 0.886000
-0.036843 -0.007597 0.884000
0.038127 0.021315 0.876000
0.021777 -0.017881 0.871000
0.042238 -0.022749 0.879000
0.032071 0.022087 0.878000
0.039748 0.004350 0.872000
-0.020400 -0.009747 0.881000
0.008580 0.024978 0.878000
0.038268 -0.003183 0.871000
0.033569 -0.010341 0.870000
0.000270 0.009867 0.884000
0.007184 -0.027244 0.884000
0.032137 -0.011415 0.870000
0.024786 -0.023392 0.876000
0.011793 -0.010041 0.875000
0.013324 0.013097 0.881000
-0.028936 -0.002512 0.887000
0.015120 0.012720 0.880000
-0.049466 0.004037 0.882000
-0.046147 0.002602 0.888000
-0.014582 -0.027483 0.880000
0.018930 -0.020055 0.872000
-0.037656 0.015724 0.886000
0.011060 -0.014346 0.874000
-0.036968 0.006250 0.887000
0.034763 0.028069 0.873000
-0.047449 -0.006877 0.885000
0.007462 -0.014705 0.874000
-0.013936 0.009514 0.885000
-0.020516 0.016454 0.886000
-0.038342 -0.003599 0.885000
-0.015271 -0.015495 0.878000
-0.037806 -0.023888 0.881000
0.030987 0.008355 0.878000
0.022879 -0.013595 0.872000
0.025233 0.023559 0.879000
-0.027507 -0.031388 0.888000
0.000268 -0.023753 0.876000
-0.012087 -0.005771 0.883000
0.000989 -0.023753 0.876000
-0.050816 0.001482 0.874000
-0.022163 -0.017322 0.879000
0.015826 0.014153 0.879000
-0.030031 -0.002147 0.887000
-0.029136 -0.029361 0.882000
-0.022938 -0.009384 0.881000
-0.011710 -0.006491 0.882000
0.044656 0.006384 0.856000
0.020099 -0.023753 0.876000
-0.034738 0.004055 0.886000
0.029146 0.003653 0.877000
-0.004064 -0.014034 0.877000
-0.007717 -0.005765 0.882000
-0.005501 -0.020868 0.876000
-0.005862 -0.017263 0.876000
0.011148 0.019624 0.881000
-0.012493 0.007702 0.886000
0.020076 0.001484 0.875000
0.015844 0.018515 0.880000
0.010435 0.005852 0.882000
0.022161 -0.012518 0.872000
-0.009478 -0.018365 0.877000
-0.003342 -0.013312 0.877000
0.002445 -0.026789 0.881000
-0.021561 0.006593 0.884000
-0.013192 0.000771 0.884000
-0.050745 -0.011172 0.879000
-0.046096 0.009536 0.887000
-0.032624 0.013201 0.888000
-0.021245 0.016454 0.886000
0.024730 -0.022260 0.874000
0.019738 0.006173 0.876000
0.015754 -0.006079 0.875000
0.016569 0.019240 0.880000
-0.035628 -0.032557 0.890000
0.013339 -0.026094 0.882000
-0.010922 -0.023058 0.877000
-0.022525 -0.026005 0.879000
-0.044585 -0.003238 0.886000
0.033608 -0.005693 0.871000
-0.034865 -0.022775 0.880000
0.029541 0.007271 0.878000
-0.034621 -0.010859 0.883000
-0.008108 0.009150 0.885000
-0.012394 -0.010448 0.879000
-0.033417 -0.026759 0.880000
0.036559 0.004355 0.873000
-0.039479 -0.001415 0.886000
-0.012366 -0.018005 0.877000
0.034640 -0.023472 0.879000
0.012484 -0.015407 0.873000
0.005728 0.015689 0.884000
-0.035024 0.019327 0.884000
-0.036644 0.011739 0.888000
-0.017117 -0.008287 0.880000
0.005413 -0.030061 0.892000
-0.020106 0.009140 0.884000
0.004249 -0.009001 0.879000
-0.011322 0.021051 0.880000
0.032891 -0.019674 0.871000
0.041709 0.011118 0.868000
0.016188 0.013791 0.879000
0.001726 0.013142 0.884000
0.028095 0.010162 0.878000
-0.043982 -0.013232 0.896000
-0.044534 -0.007970 0.885000
-0.019290 -0.009736 0.880000
-0.025592 0.003322 0.885000
-0.012115 0.013885 0.885000
0.003958 -0.030898 0.895000
-0.002614 -0.018324 0.875000
0.034763 0.003277 0.873000
0.039389 -0.020414 0.872000
0.048588 -0.007718 0.857000
-0.047244 0.004064 0.888000
-0.037207 0.018236 0.884000
0.033364 -0.001396 0.874000
-0.036156 -0.003963 0.885000
0.036200 0.005433 0.873000
0.045282 -0.010675 0.868000
0.002451 0.017125 0.883000
-0.031893 0.004795 0.888000
0.004978 -0.005752 0.880000
0.031673 0.004375 0.877000
-0.015393 0.016435 0.885000
0.006835 0.010619 0.886000
0.015068 -0.003566 0.877000
-0.033530 -0.010496 0.883000
0.014395 0.006925 0.880000
0.035718 -0.018577 0.870000
-0.022678 0.007693 0.885000
-0.030881 -0.023137 0.880000
-0.027476 0.018297 0.887000
0.036792 -0.008193 0.870000
-0.016030 -0.008649 0.880000
0.037680 0.008677 0.874000
0.012570 -0.003574 0.879000
-0.004059 -0.017263 0.876000
0.034161 0.017710 0.876000
-0.011737 0.000407 0.884000
-0.027747 -0.009780 0.884000
-0.025592 0.006600 0.885000
0.031852 -0.021132 0.872000
-0.046773 0.009160 0.886000
-0.040299 0.012105 0.888000
-0.014548 -0.016580 0.878000
0.038084 0.018410 0.875000
0.016206 0.017429 0.880000
-0.012115 0.004415 0.885000
-0.048177 -0.005056 0.885000
0.016059 -0.018979 0.872000
-0.017175 -0.029031 0.883000
-0.022991 -0.000320 0.883000
0.011511 0.006208 0.881000
0.012961 0.005845 0.881000
-0.036644 0.009181 0.888000
-0.033026 -0.032155 0.889000
0.048460 0.001460 0.861000
-0.050514 -0.003918 0.875000
-0.034451 0.012105 0.888000
0.011511 -0.026064 0.881000
0.029146 0.028198 0.877000
0.041183 0.005785 0.872000
-0.011750 0.005872 0.885000
-0.008846 0.010254 0.886000
-0.043223 0.003699 0.888000
0.011511 0.015998 0.881000
0.027011 0.019557 0.878000
0.011072 -0.011121 0.875000
0.036366 0.021701 0.877000
-0.024140 0.027678 0.872000
-0.033792 0.025496 0.871000
-0.030762 0.010631 0.887000
-0.024752 -0.028240 0.881000
0.034723 -0.003187 0.872000
-0.011072 -0.030325 0.889000
-0.023754 0.025854 0.871000
0.030660 0.013068 0.879000
-0.024836 0.000044 0.884000
-0.026655 -0.009416 0.884000
0.012167 -0.008610 0.876000
-0.032587 0.008440 0.887000
-0.006258 0.020349 0.881000
0.006427 0.023224 0.880000
-0.026321 0.000408 0.885000
0.041805 -0.004970 0.870000
-0.014582 -0.009011 0.880000
-0.035468 0.001867 0.886000
-0.035548 0.012470 0.888000
-0.015739 0.020782 0.884000
-0.044270 -0.001051 0.887000
0.033042 0.006165 0.875000
-0.053325 0.001115 0.868000
-0.034621 -0.011949 0.883000
-0.005551 0.015325 0.884000
-0.039799 0.014614 0.885000
-0.034945 -0.014114 0.882000
0.030539 -0.024389 0.886000
0.001360 -0.027577 0.883000
0.016151 -0.002122 0.877000
0.036283 0.015529 0.875000
-0.040163 -0.004327 0.885000
0.036750 -0.015337 0.869000
-0.016374 -0.012257 0.879000
-0.026233 0.027257 0.870000
0.017874 -0.010377 0.873000
0.000271 -0.028400 0.886000
-0.009500 -0.026367 0.879000
-0.035952 0.022862 0.880000
-0.009929 0.005872 0.885000
0.046765 -0.007110 0.869000
0.000633 0.020009 0.882000
-0.017801 -0.019832 0.878000
-0.018650 -0.029427 0.884000
0.005663 -0.020821 0.874000
0.023371 0.009428 0.877000
0.024673 -0.011083 0.872000
-0.008053 -0.026728 0.879000
-0.050135 -0.012285 0.881000
-0.038429 0.004790 0.887000
-0.028539 -0.006520 0.886000
0.036366 0.024227 0.877000
0.012961 0.019624 0.881000
0.018380 0.022862 0.880000
0.020796 0.001124 0.875000
0.007858 0.024616 0.878000
0.008541 -0.015425 0.874000
0.041089 -0.007477 0.870000
0.034443 0.027742 0.874000
-0.014664 0.017892 0.885000
-0.030881 -0.027121 0.880000
0.017234 0.005458 0.877000
0.027871 -0.012504 0.871000
0.027734 0.027146 0.878000
0.033117 0.018813 0.877000
0.042781 -0.012461 0.868000
0.028947 -0.009636 0.871000
-0.037892 -0.013040 0.883000
-0.011022 0.004415 0.885000
-0.044685 0.006623 0.888000
0.024342 -0.021516 0.873000
-0.026685 -0.001778 0.885000
-0.027445 0.019735 0.886000
0.012236 0.005845 0.881000
0.017615 0.007993 0.878000
0.021802 -0.012877 0.872000
-0.039754 -0.010871 0.884000
-0.034778 0.010266 0.887000
0.015359 -0.013970 0.873000
0.023317 0.000763 0.875000
0.027871 -0.019315 0.871000
-0.010549 -0.021589 0.876000
0.032891 -0.006051 0.871000
-0.004138 -0.031197 0.893000
-0.000453 -0.014018 0.876000
-0.004445 -0.007571 0.881000
0.038896 -0.017840 0.869000
0.027766 0.011982 0.879000
0.032432 0.022810 0.878000
0.017635 0.014515 0.879000
0.026980 -0.023419 0.877000
-0.022617 -0.033921 0.897000
-0.008826 0.015325 0.884000
-0.040938 0.000044 0.886000
0.010761 -0.003574 0.879000
-0.017002 -0.032300 0.893000
-0.028313 -0.024196 0.879000
0.021977 0.017771 0.879000
-0.020060 -0.001408 0.882000
-0.001547 0.018215 0.883000
0.031348 0.012691 0.878000
0.008266 0.010583 0.883000
0.014758 0.013082 0.880000
-0.016322 -0.033146 0.896000
-0.011764 0.006608 0.886000
-0.047244 0.004430 0.888000
-0.027476 0.016107 0.887000
0.024342 -0.007862 0.873000
0.023928 -0.017523 0.871000
0.031169 -0.003909 0.873000
-0.006265 -0.006491 0.882000
0.007902 0.013490 0.883000
-0.031963 0.025466 0.870000
0.005334 -0.007554 0.879000
-0.031492 0.001504 0.887000
0.042521 -0.002105 0.870000
0.008256 0.017831 0.882000
-0.017801 -0.022361 0.878000
-0.032989 0.015029 0.888000
0.025204 0.017750 0.878000
-0.029499 -0.013025 0.882000
-0.050514 -0.004639 0.875000
-0.039524 0.004060 0.887000
0.036476 -0.007127 0.871000
-0.038775 -0.015059 0.895000
0.008972 0.021800 0.881000
0.008219 -0.008991 0.878000
0.017997 0.015238 0.879000
-0.042032 -0.001415 0.886000
-0.046408 -0.005791 0.886000
0.024730 -0.002475 0.874000
0.024093 0.011233 0.877000
-0.034723 -0.034214 0.895000
0.031709 0.023171 0.878000
0.027903 -0.006417 0.872000
-0.020470 0.004774 0.884000
-0.022576 -0.010472 0.881000
-0.051896 -0.005673 0.868000
0.045254 0.007072 0.854000
-0.001173 -0.022645 0.875000
0.046711 -0.008888 0.868000
0.033516 0.026062 0.878000
0.015376 -0.010389 0.874000
0.008590 -0.005745 0.879000
-0.047449 -0.009063 0.885000
0.012208 0.024644 0.879000
0.043287 0.002194 0.871000
0.036559 0.002558 0.873000
0.015103 0.002938 0.879000
-0.023328 -0.005765 0.882000
-0.000453 -0.020124 0.875000
0.036601 0.007597 0.874000
0.010810 0.013127 0.883000
0.003887 -0.009001 0.879000
-0.037613 0.016435 0.885000
-0.002664 -0.030795 0.892000
-0.024054 -0.008669 0.882000
0.023397 0.016305 0.878000
-0.042445 0.003329 0.887000
-0.030397 0.008440 0.887000
0.044261 -0.005322 0.869000
-0.026535 -0.027121 0.880000
0.035522 0.008317 0.874000
-0.049103 -0.010121 0.882000
0.028327 -0.002475 0.874000
-0.032367 -0.015911 0.881000
-0.035952 -0.024586 0.880000
0.012541 -0.006815 0.877000
0.017515 -0.012533 0.873000
0.007167 0.018557 0.882000
-0.005501 -0.019066 0.876000
0.047122 -0.004249 0.869000
-0.013936 0.013521 0.885000
-0.005533 -0.008659 0.881000
-0.002617 -0.015460 0.876000
0.044850 0.006713 0.853000
-0.001895 -0.015460 0.876000
0.020773 -0.002115 0.874000
0.042066 0.010760 0.868000
-0.045365 0.001139 0.887000
-0.024389 -0.011197 0.881000
-0.002646 -0.028764 0.886000
0.039702 -0.000674 0.871000
0.033569 -0.018935 0.870000
-0.024892 0.011348 0.886000
0.034122 0.011928 0.875000
-0.013118 -0.011895 0.879000
-0.027841 0.003695 0.887000
-0.011296 -0.014050 0.878000
-0.047191 0.007710 0.887000
0.004984 0.022525 0.881000
0.021443 -0.020055 0.872000
0.004253 -0.006838 0.880000
0.015826 0.011620 0.879000
0.022571 -0.003914 0.874000
0.030590 0.020257 0.877000
0.034763 -0.001035 0.873000
-0.010585 -0.026367 0.879000
-0.048177 0.006964 0.885000
-0.025535 -0.008679 0.883000
0.030951 0.006541 0.877000
0.011123 -0.003936 0.879000
-0.007735 0.016416 0.884000
-0.049410 -0.011922 0.881000
-0.030031 0.014282 0.887000
0.020915 0.025035 0.880000
0.000628 -0.020124 0.875000
0.014049 0.021075 0.881000
0.009346 0.017831 0.882000
-0.028378 -0.015548 0.881000
-0.015271 -0.025614 0.878000
0.017575 -0.002120 0.876000
0.022983 0.005091 0.876000
-0.046147 0.006988 0.888000
-0.045314 0.010619 0.886000
0.036834 -0.006410 0.871000
0.002434 -0.011507 0.877000
-0.012829 -0.002503 0.884000
0.020168 0.017409 0.879000
0.011148 0.004757 0.881000
0.013309 -0.025672 0.880000
0.040512 0.008307 0.873000
0.032137 -0.017503 0.870000
-0.021221 0.009150 0.885000
0.022675 0.017750 0.878000
-0.042127 0.009181 0.888000
-0.002256 -0.014739 0.876000
0.026827 -0.007853 0.872000
0.047142 -0.004156 0.850000
-0.006658 -0.029129 0.886000
-0.006244 -0.011534 0.879000
-0.009565 0.006964 0.885000
-0.022188 -0.027483 0.880000
-0.005558 0.009150 0.885000
0.003149 -0.015803 0.875000
-0.021610 0.020829 0.886000
0.018870 -0.026941 0.886000
0.037363 0.015169 0.875000
-0.034413 0.006980 0.887000
0.035563 0.011928 0.875000
-0.007691 -0.011895 0.879000
0.038937 -0.022723 0.878000
-0.022627 -0.001410 0.883000
0.022161 -0.014313 0.872000
0.041757 -0.008183 0.869000
0.042570 -0.000674 0.871000
-0.047395 0.009140 0.884000
-0.003719 -0.007571 0.881000
-0.015739 0.002954 0.884000
-0.015029 0.010971 0.885000
0.009282 -0.023753 0.876000
0.028720 0.030294 0.875000
-0.028092 -0.033845 0.895000
0.029339 -0.020773 0.872000
0.032034 0.019535 0.877000
0.015570 -0.026911 0.885000
-0.020857 -0.029825 0.885000
-0.034660 -0.007233 0.884000
0.033888 -0.014979 0.869000
-0.013936 0.010243 0.885000
0.008010 -0.030530 0.895000
-0.019630 -0.025643 0.879000
-0.027841 0.000409 0.887000
-0.007015 0.008786 0.885000
-0.051653 -0.010052 0.876000
-0.033287 -0.034621 0.896000
0.023759 0.017750 0.878000
0.042842 -0.024333 0.884000
-0.023248 -0.018407 0.879000
-0.037698 0.004060 0.887000
-0.022938 -0.009022 0.881000
0.033018 -0.023970 0.884000
-0.047406 -0.014000 0.898000
-0.002974 -0.020484 0.875000
0.027011 0.015582 0.878000
-0.003015 -0.029162 0.887000
0.015137 0.022888 0.881000
0.032644 -0.001755 0.874000
-0.025994 0.024504 0.874000
-0.022314 0.008057 0.885000
-0.029334 0.004795 0.888000
0.031456 -0.009636 0.871000
-0.024112 0.026930 0.871000
-0.034542 -0.019174 0.881000
-0.029533 -0.011223 0.883000
-0.024108 0.002954 0.884000
-0.021488 -0.008296 0.881000
0.028392 0.002567 0.876000
-0.016430 -0.002498 0.882000
-0.048123 -0.010508 0.884000
0.042929 0.002552 0.871000
-0.023798 0.014995 0.886000
0.000628 -0.014379 0.876000
0.036283 0.014088 0.875000
0.013671 0.014893 0.880000
-0.043491 -0.002144 0.886000
0.041399 -0.007826 0.869000
-0.037291 0.020100 0.886000
0.032853 -0.011057 0.870000
0.033608 -0.020032 0.871000
-0.015029 0.017892 0.885000
0.024148 0.019941 0.879000
0.008182 -0.020461 0.874000
0.018233 -0.021516 0.873000
-0.026504 -0.020940 0.879000
0.012947 0.001130 0.880000
0.009632 -0.022645 0.875000
0.011873 0.018174 0.881000
0.004647 -0.028035 0.886000
-0.051059 -0.002110 0.872000
0.028230 -0.019674 0.871000
0.027734 0.020641 0.878000
0.025233 0.021388 0.879000
0.013671 0.001130 0.880000
-0.023301 -0.008659 0.881000
0.038896 -0.015337 0.869000
-0.023890 0.024200 0.876000
0.035113 -0.027093 0.891000
0.041757 -0.009256 0.869000
0.013671 0.003665 0.880000
0.033530 -0.014979 0.869000
-0.028936 0.015377 0.887000
0.025537 0.027837 0.877000
-0.024829 0.025854 0.871000
-0.024836 -0.000684 0.884000
0.036792 -0.009983 0.870000
-0.034738 0.004420 0.886000
0.033955 -0.023861 0.880000
-0.021801 -0.016960 0.879000
0.015464 0.014515 0.879000
0.019829 0.023586 0.880000
-0.015668 -0.009374 0.880000
-0.034141 -0.021688 0.880000
-0.012843 0.003686 0.885000
0.000996 0.020009 0.882000
-0.054124 -0.006483 0.881000
0.011873 0.016361 0.881000
-0.022756 0.025224 0.874000
-0.008080 -0.007943 0.882000
0.018296 0.002567 0.876000
0.037278 0.005792 0.873000
0.021156 0.000043 0.875000
0.015718 -0.021516 0.873000
0.023211 -0.016089 0.871000
0.005000 0.015325 0.884000
-0.013572 0.016435 0.885000
-0.021173 0.003314 0.883000
-0.009117 -0.016561 0.877000
0.042961 -0.022749 0.879000
0.035676 -0.013548 0.869000
0.026950 0.005812 0.876000
-0.013572 0.010243 0.885000
-0.013088 -0.022697 0.877000
0.017293 0.019964 0.880000
-0.046461 0.000409 0.887000
-0.024417 -0.009032 0.882000
-0.030031 -0.002877 0.887000
0.027734 0.010162 0.878000
-0.015976 -0.022697 0.877000
0.027373 0.011246 0.878000
-0.028571 0.015377 0.887000
-0.023043 0.010243 0.885000
0.032728 -0.025847 0.886000
-0.006696 -0.030760 0.891000
0.029213 0.010173 0.879000
-0.023610 -0.020940 0.879000
-0.011034 0.010254 0.886000
0.040153 0.005792 0.873000
-0.027476 0.005155 0.887000
-0.048596 0.002961 0.886000
0.023010 0.010511 0.877000
0.029406 -0.022260 0.874000
0.035800 -0.002828 0.872000
-0.024444 -0.005408 0.883000
0.026589 0.006173 0.876000
0.032173 -0.019674 0.871000
0.036643 -0.021925 0.875000
0.033569 -0.013564 0.870000
0.006412 -0.008991 0.878000
0.034122 0.007966 0.875000
-0.023583 -0.022723 0.878000
-0.034047 0.005520 0.887000
-0.048541 -0.001413 0.885000
-0.002623 -0.011159 0.878000
-0.034621 -0.011586 0.883000
0.002440 -0.009725 0.879000
-0.014235 0.022162 0.881000
-0.047502 -0.002144 0.886000
-0.021101 -0.012633 0.880000
0.036241 0.008317 0.874000
0.013671 0.024310 0.880000
-0.024836 -0.001776 0.884000
0.042115 -0.008183 0.869000
0.018359 0.025368 0.879000
0.001710 -0.023392 0.876000
-0.033664 0.021701 0.877000
-0.049466 0.004763 0.882000
-0.026202 -0.028602 0.881000
-0.003008 0.011700 0.885000
-0.031421 -0.007241 0.885000
-0.004133 -0.030795 0.892000
-0.013572 0.008786 0.885000
0.004224 -0.018303 0.874000
0.010060 0.021800 0.881000
0.030381 -0.011429 0.871000
-0.001902 0.022836 0.879000
-0.034660 -0.006869 0.884000
0.019378 0.002928 0.876000
-0.033317 0.005885 0.887000
-0.048596 0.001867 0.886000
-0.003345 -0.012243 0.878000
-0.046513 0.004064 0.888000
0.012484 -0.018641 0.873000
0.042570 0.000043 0.871000
-0.020881 0.017183 0.886000
-0.034413 0.017932 0.887000
0.001348 -0.022285 0.875000
0.034443 0.007597 0.874000
0.020844 0.008706 0.877000
-0.020470 0.005865 0.884000
-0.038775 -0.023163 0.895000
-0.024892 0.020465 0.886000
-0.000818 -0.006483 0.881000
0.044516 0.006466 0.867000
0.009665 -0.025252 0.878000
-0.002632 -0.008659 0.881000
-0.032679 0.025824 0.870000
-0.031527 0.004795 0.888000
0.006065 0.023224 0.880000
-0.027653 -0.028240 0.881000
-0.005915 0.016780 0.884000
-0.023063 0.025884 0.872000
0.038582 -0.008551 0.870000
-0.005545 0.017125 0.883000
-0.049410 0.001857 0.881000
0.007167 0.020735 0.882000
0.011793 -0.010401 0.875000
0.039298 -0.007477 0.870000
-0.032222 0.018663 0.887000
0.016446 -0.029359 0.893000
0.014707 -0.004649 0.877000
0.016170 0.001850 0.878000
-0.015289 -0.013342 0.879000
-0.029235 -0.009063 0.885000
0.006743 -0.015785 0.874000
0.011793 -0.009680 0.875000
0.012484 -0.015048 0.873000
0.031778 -0.017145 0.870000
-0.044585 -0.003603 0.886000
-0.001181 -0.006121 0.881000
-0.021537 0.000044 0.883000
0.000270 -0.027183 0.882000
0.018996 -0.000317 0.875000
0.014033 0.017066 0.880000
0.035923 0.011928 0.875000
-0.011283 -0.016922 0.877000
0.027404 0.012706 0.879000
0.009356 0.012764 0.883000
0.006398 -0.024113 0.876000
0.044363 0.000402 0.871000
-0.014532 -0.018726 0.877000
-0.021488 -0.007571 0.881000
0.011406 -0.019000 0.873000
-0.014203 -0.013704 0.879000
0.028457 0.009800 0.878000
0.031709 0.024978 0.878000
-0.016355 -0.016941 0.878000
-0.008414 -0.011172 0.879000
0.033800 0.027445 0.876000
0.046092 -0.000308 0.850000
-0.049159 0.001134 0.883000
-0.000818 0.021775 0.880000
-0.033113 0.023730 0.872000
-0.018286 0.007684 0.884000
-0.034413 0.006615 0.887000
0.043853 -0.012104 0.868000
-0.005507 -0.014756 0.877000
0.029081 -0.024753 0.886000
-0.005862 -0.019066 0.876000
-0.004829 0.012792 0.885000
-0.008776 -0.011172 0.879000
-0.029917 0.024117 0.873000
-0.045730 0.009171 0.887000
0.012250 0.013838 0.882000
0.001353 0.022810 0.878000
-0.029432 -0.026759 0.880000
0.019378 -0.023753 0.876000
-0.029828 -0.016636 0.881000
0.045904 0.006713 0.853000
-0.011450 -0.030726 0.890000
-0.022339 0.013536 0.886000
-0.012592 -0.031932 0.893000
0.010423 0.022162 0.881000
-0.019014 0.008048 0.884000
0.043596 -0.002105 0.870000
0.003160 -0.009714 0.878000
-0.029422 0.026152 0.869000
0.025886 -0.027398 0.889000
-0.037249 -0.001413 0.885000
-0.025257 0.012807 0.886000
-0.022912 -0.016255 0.880000
0.028095 0.009439 0.878000
0.038444 0.016609 0.875000
0.004621 0.022162 0.881000
-0.025592 0.004050 0.885000
0.037107 -0.013548 0.869000
-0.024667 0.023171 0.878000
-0.028313 -0.022749 0.879000
0.003178 0.017488 0.883000
-0.015633 -0.016218 0.878000
-0.024892 0.012078 0.886000
-0.020083 0.004405 0.883000
-0.051059 -0.002469 0.872000
0.000988 -0.016163 0.875000
0.035718 -0.012132 0.870000
-0.012479 0.015342 0.885000
0.006030 -0.023365 0.875000
0.010015 -0.024863 0.877000
-0.034086 0.013932 0.888000
-0.036479 -0.005778 0.884000
0.013562 -0.019360 0.873000
-0.022163 -0.025281 0.879000
-0.011373 -0.002139 0.884000
-0.008846 0.010619 0.886000
0.022262 0.006173 0.876000
0.032034 0.027476 0.877000
-0.016736 -0.012981 0.879000
0.048248 -0.003461 0.851000
-0.023069 0.014995 0.886000
-0.024112 0.027288 0.871000
0.041399 0.014707 0.869000
-0.047138 -0.003968 0.886000
0.047841 -0.004506 0.850000
-0.011335 -0.009022 0.881000
0.046354 -0.011032 0.868000
0.008294 0.010254 0.886000
-0.028571 0.012091 0.887000
0.022262 0.005812 0.876000
-0.043175 0.002234 0.887000
0.022339 0.019218 0.879000
-0.034542 -0.018087 0.881000
0.044108 0.008597 0.866000
0.005000 0.013142 0.884000
0.031778 -0.011774 0.870000
-0.036521 0.017528 0.885000
0.021492 -0.006072 0.874000
0.002078 0.023921 0.879000
-0.033568 -0.007597 0.884000
0.022186 -0.007143 0.873000
-0.021732 -0.030394 0.891000
0.017635 -0.024919 0.879000
-0.042713 0.013885 0.885000
0.036834 -0.003900 0.871000
0.000635 0.013157 0.885000
-0.009918 0.016780 0.884000
-0.018971 -0.001408 0.882000
0.011498 -0.000681 0.880000
-0.032403 -0.011936 0.882000
0.044661 -0.024333 0.884000
-0.033379 0.021388 0.879000
0.030625 0.015944 0.878000
-0.036156 0.018256 0.885000
0.026199 0.029934 0.875000
-0.012115 0.012428 0.885000
0.003174 0.019283 0.882000
-0.030951 -0.013388 0.882000
-0.004059 -0.015821 0.876000
0.014412 0.011647 0.881000
0.022002 0.023948 0.880000
-0.037978 -0.016348 0.885000
-0.030727 -0.004332 0.886000
-0.030031 0.010996 0.887000
-0.035508 0.007345 0.887000
-0.029828 -0.017361 0.881000
0.034683 -0.019674 0.871000
0.016550 0.012344 0.879000
0.026498 -0.006424 0.873000
-0.000094 0.010231 0.884000
-0.034180 -0.017724 0.881000
0.010083 0.013490 0.883000
-0.023637 -0.027845 0.880000
-0.036034 -0.015203 0.882000
0.042018 0.010034 0.867000
-0.019036 0.021170 0.885000
-0.046461 0.000044 0.887000
0.021877 -0.023005 0.875000
-0.051536 -0.009310 0.874000
-0.019268 -0.016598 0.879000
-0.010223 -0.011172 0.879000
0.035441 -0.020773 0.872000
-0.013572 0.011335 0.885000
0.017515 -0.010018 0.873000
0.014494 -0.027306 0.886000
-0.008386 -0.020147 0.876000
-0.001182 0.020372 0.882000
0.031925 0.029900 0.874000
-0.006236 -0.012243 0.878000
0.041089 0.017231 0.870000
0.035243 0.016268 0.876000
-0.009839 -0.016922 0.877000
-0.044950 -0.004332 0.886000
0.031348 0.023894 0.878000
0.006383 -0.018303 0.874000
-0.031243 -0.023499 0.880000
-0.008395 -0.014034 0.877000
0.000634 0.012050 0.884000
-0.052611 0.000757 0.868000
0.045028 -0.003180 0.870000
-0.040209 -0.002509 0.886000
-0.050816 -0.002475 0.874000
-0.016486 0.014978 0.885000
0.046227 -0.001018 0.859000
-0.041761 0.005526 0.888000
-0.046773 -0.004697 0.886000
-0.011373 -0.001048 0.884000
0.029902 0.021364 0.878000
0.012947 0.003665 0.880000
-0.022704 0.013901 0.886000
0.003891 -0.007563 0.880000
0.010399 -0.005022 0.879000
-0.024054 -0.006854 0.882000
-0.017117 -0.007925 0.880000
-0.042127 0.007354 0.888000
0.027341 0.007623 0.877000
-0.044484 -0.011963 0.884000
0.019716 -0.002118 0.875000
-0.000093 -0.019404 0.875000
0.018930 -0.015390 0.872000
0.027154 -0.019315 0.871000
0.023623 -0.008940 0.873000
0.036241 0.011195 0.874000
0.022623 0.028526 0.876000
-0.041573 -0.010144 0.884000
0.010399 -0.006107 0.879000
-0.020060 -0.002861 0.882000
0.036392 -0.017483 0.869000
-0.024500 0.009514 0.885000
-0.037207 -0.006869 0.884000
0.045996 -0.010317 0.868000
-0.018125 -0.032704 0.894000
-0.019608 -0.019109 0.878000
-0.037291 -0.000321 0.886000
-0.003698 -0.023392 0.876000
-0.007665 -0.019787 0.876000
0.023010 -0.028193 0.891000
0.009271 -0.023365 0.875000
-0.030397 -0.001416 0.887000
-0.015994 -0.024168 0.878000
-0.015739 0.009867 0.884000
0.020891 0.018132 0.879000
-0.017579 0.013885 0.885000
0.021927 0.010872 0.877000
0.032495 -0.011415 0.870000
-0.025419 -0.023834 0.879000
0.021108 -0.009658 0.873000
0.018254 -0.022619 0.874000
0.025537 0.009067 0.877000
-0.021561 0.005501 0.884000
0.040651 -0.021950 0.876000
0.025089 -0.001396 0.874000
0.019422 0.012691 0.878000
0.015844 0.018153 0.880000
-0.040528 -0.005784 0.885000
0.038312 0.023372 0.872000
0.010737 0.025671 0.877000
0.023036 0.015582 0.878000
-0.049886 0.006222 0.883000
-0.033167 -0.011586 0.883000
-0.020151 0.020100 0.886000
0.023371 -0.023780 0.877000
0.036559 0.006151 0.873000
-0.020857 0.009150 0.885000
-0.015271 -0.018025 0.878000
0.011249 -0.028496 0.889000
0.019334 -0.007151 0.874000
0.033042 0.000043 0.875000
-0.007761 0.006980 0.887000
-0.050326 -0.010798 0.878000
0.007167 0.021461 0.882000
0.028851 0.010897 0.879000
0.024093 0.010150 0.877000
0.028127 0.015238 0.879000
-0.025621 0.011348 0.886000
-0.032692 -0.022775 0.880000
0.030264 0.017028 0.878000
-0.036521 -0.001049 0.885000
0.026437 -0.015013 0.871000
-0.032186 -0.000686 0.886000
-0.025057 -0.019131 0.879000
-0.030796 0.006988 0.888000
-0.051761 -0.011235 0.884000
0.000273 -0.030829 0.893000
0.027935 -0.003909 0.873000
-0.023407 0.007693 0.885000
-0.015757 0.016435 0.885000
0.018572 -0.018261 0.872000
0.024370 -0.002115 0.874000
0.012180 -0.024502 0.877000
0.003900 0.021098 0.882000
-0.031857 0.002599 0.887000
0.004584 -0.017943 0.874000
0.022161 -0.013954 0.872000
-0.019312 -0.004670 0.881000
0.034325 -0.006768 0.871000
-0.022730 0.025554 0.873000
-0.045000 -0.001782 0.887000
0.012208 -0.002127 0.879000
-0.026321 -0.005420 0.885000
-0.010305 0.010619 0.886000
-0.000453 -0.021925 0.875000
-0.034047 0.017202 0.887000
0.035481 0.005433 0.873000
0.033800 0.015186 0.876000
-0.035228 -0.023861 0.880000
0.038538 -0.012833 0.869000
-0.013207 0.011335 0.885000
0.041685 -0.021565 0.875000
-0.034335 -0.002506 0.885000
0.000991 0.022810 0.878000
-0.029136 -0.012662 0.882000
0.001360 0.018942 0.883000
0.035082 -0.003546 0.872000
-0.033167 -0.008679 0.883000
-0.002266 -0.009736 0.880000
-0.045992 -0.011612 0.885000
-0.034738 0.002961 0.886000
-0.033568 -0.007233 0.884000
0.014982 -0.016466 0.872000
-0.024555 0.018663 0.887000
0.001010 -0.031267 0.895000
0.017635 0.016685 0.879000
0.022597 0.003645 0.875000
-0.013449 -0.019809 0.877000
-0.031492 0.010266 0.887000
0.033569 -0.017503 0.870000
-0.047449 -0.007241 0.885000
-0.028539 0.009890 0.886000
-0.017214 0.012792 0.885000
-0.035428 -0.002506 0.885000
0.000628 -0.014739 0.876000
0.031276 -0.000317 0.876000
0.007143 0.025730 0.879000
-0.051359 -0.001032 0.871000
-0.009839 -0.014756 0.877000
-0.012422 0.020349 0.881000
0.031709 0.010884 0.878000
-0.034817 0.012470 0.888000
-0.008443 -0.007580 0.882000
-0.014927 -0.012257 0.879000
-0.034945 -0.014840 0.882000
-0.007304 -0.017623 0.876000
-0.002614 -0.020124 0.875000
0.042879 -0.004612 0.870000
0.034512 -0.025454 0.885000
-0.012394 -0.026367 0.879000
0.041757 -0.011045 0.869000
-0.038818 -0.021345 0.896000
0.037551 -0.019674 0.871000
-0.022188 -0.013720 0.880000
-0.003334 -0.020124 0.875000
0.050528 -0.008099 0.860000
-0.043855 0.011713 0.886000
0.019400 0.006541 0.877000
-0.030431 0.014663 0.888000
0.007462 -0.020101 0.874000
0.011148 0.007296 0.881000
-0.004059 -0.023392 0.876000
0.005689 0.023894 0.878000
