-0.020981 0.003284 0.875000
0.028162 0.032178 0.858000
-0.001165 0.030444 0.869000
-0.034987 -0.010029 0.874000
-0.037165 -0.021762 0.883000
-0.030846 -0.006830 0.879000
0.003838 -0.023536 0.868000
0.004553 -0.028895 0.868000
0.022998 -0.007061 0.863000
-0.021776 -0.015495 0.878000
0.014828 -0.009903 0.863000
-0.007296 -0.011841 0.875000
-0.013326 0.024364 0.869000
-0.003330 -0.009669 0.874000
0.011354 -0.030359 0.869000
0.005637 0.010069 0.870000
-0.004036 -0.040825 0.871000
0.027809 0.012049 0.858000
-0.001166 -0.035048 0.870000
-0.011604 -0.036649 0.874000
0.009969 -0.036607 0.873000
-0.009024 0.038626 0.868000
-0.020284 -0.044664 0.876000
-0.000807 0.035809 0.869000
-0.015526 0.017270 0.872000
0.026073 0.031862 0.859000
-0.018142 -0.042550 0.877000
-0.016660 0.007966 0.875000
-0.010154 0.019087 0.873000
-0.032172 -0.039877 0.866000
-0.033817 -0.019174 0.881000
0.004205 0.014724 0.870000
-0.026143 -0.004298 0.879000
0.032551 0.005719 0.862000
0.007394 -0.012789 0.866000
0.010269 0.031481 0.868000
-0.010885 -0.022260 0.874000
0.025720 0.024437 0.859000
-0.032766 -0.027909 0.882000
-0.022525 -0.016598 0.879000
0.028165 -0.006395 0.869000
0.034831 0.016268 0.857000
0.022564 0.000750 0.860000
-0.001530 0.014416 0.873000
0.007402 -0.026007 0.867000
0.029187 0.015915 0.857000
-0.002608 -0.012533 0.873000
-0.009467 -0.009331 0.876000
0.029187 0.018737 0.857000
-0.032367 -0.032953 0.881000
0.005255 0.043171 0.866000
0.005637 -0.003538 0.870000
0.010946 0.018912 0.865000
-0.019586 -0.043993 0.877000
-0.033664 -0.035691 0.877000
-0.035228 -0.029294 0.880000
0.004210 -0.004617 0.871000
0.013082 -0.019894 0.865000
0.022210 0.001458 0.860000
0.010946 0.017132 0.865000
0.018713 0.001816 0.862000
0.002052 0.029338 0.868000
0.001337 0.035054 0.868000
0.037873 0.013524 0.862000
0.003127 -0.036797 0.869000
-0.009828 -0.027358 0.876000
-0.014171 0.002570 0.877000
-0.036232 -0.028866 0.878000
-0.004414 0.011207 0.875000
-0.023275 -0.022050 0.880000
-0.037377 -0.012146 0.871000
0.020487 -0.008117 0.862000
-0.029103 -0.010109 0.881000
0.012370 -0.003161 0.865000
-0.011257 0.010487 0.875000
-0.014106 0.017290 0.873000
-0.007271 -0.040154 0.872000
0.030598 0.032493 0.857000
0.014506 -0.019182 0.865000
0.023711 0.037636 0.838000
0.018401 0.026358 0.864000
0.029540 0.025791 0.857000
0.037637 0.008307 0.873000
-0.030711 -0.041255 0.865000
0.033694 0.032417 0.855000
0.004553 0.035054 0.868000
0.037961 0.020829 0.856000
-0.024695 -0.017684 0.879000
0.029289 0.004290 0.860000
-0.035870 -0.030673 0.878000
0.007394 -0.019917 0.866000
0.010590 -0.016690 0.865000
-0.002602 -0.045126 0.871000
0.009522 0.016064 0.865000
0.025304 -0.010329 0.869000
-0.034507 -0.040758 0.862000
0.037344 0.017346 0.858000
0.008492 0.002904 0.869000
0.021856 0.013847 0.860000
0.017669 0.021354 0.863000
-0.015579 -0.012201 0.875000
0.001702 -0.010724 0.872000
0.017314 -0.010968 0.863000
-0.002960 -0.031504 0.871000
-0.023972 -0.005022 0.879000
-0.031314 -0.019559 0.882000
0.008135 -0.000315 0.869000
0.013422 0.035603 0.864000
-0.019563 0.004370 0.876000
0.008107 0.017151 0.866000
-0.032367 -0.024614 0.881000
0.010984 0.006116 0.868000
-0.032999 -0.038585 0.869000
-0.032923 -0.043492 0.867000
0.004200 0.030444 0.869000
-0.019290 -0.021688 0.880000
0.025720 0.034337 0.859000
-0.004017 0.042507 0.867000
-0.021077 -0.017684 0.879000
-0.003330 -0.045282 0.874000
-0.022138 -0.006100 0.878000
0.012356 -0.006003 0.864000
-0.011964 -0.019022 0.874000
0.018713 -0.002086 0.862000
0.015574 -0.017402 0.865000
-0.012338 -0.010761 0.875000
0.005261 -0.025650 0.867000
0.012711 0.013200 0.864000
-0.015939 0.011207 0.875000
0.010590 -0.014910 0.865000
-0.011591 0.021602 0.873000
0.008830 0.014316 0.867000
-0.006158 0.040009 0.867000
-0.000807 0.040817 0.869000
-0.030916 -0.019900 0.881000
0.006689 -0.021724 0.867000
0.012711 -0.008847 0.864000
-0.025419 -0.038667 0.879000
0.017649 0.029844 0.862000
-0.009435 0.022320 0.873000
0.036919 0.003636 0.873000
-0.004050 0.014432 0.874000
0.038359 0.019442 0.857000
-0.009435 -0.039481 0.873000
0.003481 0.018263 0.868000
-0.004753 0.029797 0.871000
0.005975 -0.024222 0.867000
-0.016318 -0.037093 0.876000
0.000981 0.031160 0.869000
0.011644 0.040226 0.864000
-0.039749 -0.004959 0.868000
0.003481 0.025408 0.868000
-0.028740 -0.023888 0.881000
0.024305 0.036811 0.859000
-0.031677 -0.028998 0.882000
-0.030951 -0.026457 0.882000
-0.012310 0.018727 0.873000
-0.004008 0.043121 0.865000
-0.010513 -0.018282 0.873000
-0.022499 -0.034648 0.878000
0.000266 -0.021059 0.869000
-0.006864 0.039963 0.866000
-0.016244 0.015835 0.872000
0.008107 -0.017779 0.866000
-0.008007 0.016231 0.874000
-0.000092 0.032948 0.869000
-0.004394 -0.026127 0.871000
-0.021415 -0.007545 0.878000
0.010269 0.009331 0.868000
0.010447 -0.043204 0.883000
0.041997 0.010835 0.874000
-0.019946 -0.041467 0.877000
-0.036232 -0.031396 0.878000
0.019755 0.017761 0.861000
-0.003315 0.031554 0.870000
-0.023610 -0.031431 0.879000
0.022210 0.027297 0.860000
0.018380 -0.028932 0.880000
0.003481 0.028980 0.868000
0.015183 0.001108 0.863000
-0.012727 0.005097 0.877000
-0.011244 -0.032692 0.874000
0.012028 0.000756 0.866000
-0.025781 -0.006107 0.879000
0.020623 -0.027940 0.883000
0.013422 0.035959 0.864000
-0.002599 0.035492 0.870000
-0.027621 -0.016617 0.880000
0.009555 0.010760 0.868000
-0.035737 -0.001739 0.866000
-0.014859 -0.013282 0.875000
-0.005111 0.027647 0.871000
-0.011631 0.009057 0.876000
-0.022499 -0.031034 0.878000
-0.020692 -0.038623 0.878000
-0.019519 -0.046721 0.874000
-0.008386 -0.007168 0.876000
0.010958 -0.023838 0.866000
-0.026897 -0.009736 0.880000
0.005261 -0.019940 0.867000
-0.016299 0.007966 0.875000
0.027807 -0.006753 0.869000
-0.027259 -0.036900 0.880000
-0.020261 0.004725 0.875000
-0.034827 -0.006760 0.870000
0.016286 -0.017046 0.865000
0.010245 0.013231 0.866000
0.000266 0.039028 0.869000
-0.004394 0.031590 0.871000
-0.029432 -0.009011 0.880000
-0.026744 0.000763 0.875000
0.022918 0.012077 0.860000
-0.000811 0.014056 0.873000
0.010590 0.022828 0.865000
0.003124 -0.034611 0.868000
-0.023222 -0.005739 0.878000
0.003838 0.029338 0.868000
-0.032904 -0.007889 0.876000
0.035363 -0.002851 0.879000
-0.018503 -0.004649 0.877000
-0.006935 0.006526 0.875000
-0.007271 -0.022209 0.872000
0.036834 0.005779 0.871000
0.034122 -0.002118 0.875000
0.034005 0.000402 0.872000
-0.036635 -0.026367 0.879000
0.015790 -0.030638 0.877000
0.005273 0.031160 0.869000
0.014134 0.000398 0.864000
-0.004036 -0.037240 0.871000
-0.026535 -0.033640 0.880000
0.001685 0.045508 0.863000
0.034245 0.010307 0.860000
-0.027983 -0.030743 0.880000
-0.007237 0.037197 0.868000
0.004191 0.040723 0.867000
0.004904 -0.028148 0.867000
0.026073 0.030094 0.859000
0.004921 -0.008551 0.870000
0.015592 0.024636 0.866000
0.041161 0.017112 0.864000
0.045849 0.017988 0.872000
-0.016736 -0.024919 0.879000
0.016604 -0.004930 0.863000
0.020866 -0.009192 0.863000
-0.002957 -0.021442 0.870000
0.012976 -0.036984 0.882000
-0.040072 -0.015220 0.883000
0.035904 0.034286 0.849000
0.033773 0.015562 0.857000
-0.021727 0.002207 0.876000
-0.014042 0.023649 0.869000
-0.010525 -0.031972 0.874000
0.014166 0.025706 0.866000
0.003838 0.035411 0.868000
0.010602 0.033191 0.866000
-0.000807 0.034736 0.869000
0.008275 -0.047619 0.884000
0.022564 0.006414 0.860000
-0.015597 -0.020147 0.876000
-0.013088 -0.005010 0.877000
0.005618 -0.024936 0.867000
0.023272 0.030483 0.860000
-0.017400 -0.012936 0.876000
0.004921 -0.006760 0.870000
-0.036635 -0.024196 0.879000
0.032324 0.033160 0.856000
0.003127 -0.035724 0.869000
-0.004394 -0.036881 0.871000
0.012711 0.014267 0.864000
-0.020192 0.011169 0.872000
0.004921 -0.010699 0.870000
0.019961 -0.019293 0.870000
0.022800 -0.013906 0.869000
-0.014090 0.020141 0.872000
-0.023610 -0.026728 0.879000
0.017690 0.027424 0.864000
-0.038588 -0.003522 0.866000
0.000266 -0.038585 0.869000
-0.029828 -0.015548 0.881000
-0.025419 -0.013704 0.879000
0.031730 0.008528 0.859000
0.001695 0.025408 0.868000
0.021172 0.011028 0.861000
-0.013418 -0.013282 0.875000
-0.018503 -0.005010 0.877000
-0.019586 -0.030999 0.877000
0.006642 0.044339 0.861000
-0.027621 -0.034365 0.880000
0.025366 0.035397 0.859000
0.015930 0.027812 0.865000
-0.010525 -0.023339 0.874000
0.017294 0.014589 0.862000
-0.009076 -0.036247 0.873000
-0.001170 0.016931 0.873000
0.021172 0.030164 0.861000
0.000266 0.020787 0.869000
-0.024334 -0.006469 0.879000
-0.007271 -0.034052 0.872000
0.036948 0.018031 0.857000
-0.011525 0.030409 0.868000
0.022468 -0.015712 0.870000
-0.009467 -0.005004 0.876000
-0.024639 -0.041828 0.877000
-0.007271 -0.024362 0.872000
-0.010513 -0.016126 0.873000
0.035400 0.002911 0.871000
0.007768 -0.030681 0.868000
0.026346 -0.008174 0.868000
0.024305 0.033983 0.859000
0.036904 0.020476 0.856000
-0.006583 0.006894 0.876000
-0.025419 -0.031070 0.879000
-0.021415 -0.002848 0.878000
-0.002599 -0.018219 0.870000
0.036200 0.021181 0.856000
0.008830 0.013960 0.867000
0.009197 0.030052 0.868000
0.012000 -0.005291 0.864000
0.023980 0.012077 0.860000
0.032046 0.011696 0.858000
-0.026052 -0.046542 0.864000
-0.004394 -0.017164 0.871000
-0.012005 0.002570 0.877000
-0.001166 -0.019651 0.870000
0.003124 -0.024608 0.868000
-0.012654 0.030549 0.872000
-0.009107 -0.026998 0.876000
-0.030191 -0.027877 0.881000
-0.019946 -0.040384 0.877000
0.009555 0.008260 0.868000
-0.035148 -0.022000 0.878000
-0.010130 0.027288 0.871000
-0.010513 0.021602 0.873000
-0.028740 -0.014461 0.881000
-0.000092 -0.019629 0.869000
0.001696 -0.022490 0.869000
-0.012727 0.003292 0.877000
-0.012005 -0.007898 0.877000
0.024659 0.026205 0.859000
-0.007287 0.016590 0.874000
-0.003311 0.040101 0.869000
-0.002957 -0.025022 0.870000
-0.002241 -0.041494 0.870000
-0.025419 -0.034687 0.879000
-0.037698 -0.040479 0.887000
-0.020668 -0.043632 0.877000
-0.013449 0.002570 0.877000
-0.001523 0.037955 0.869000
0.000981 -0.024636 0.869000
-0.019653 -0.019153 0.880000
-0.008357 -0.039122 0.873000
0.027165 -0.017764 0.883000
0.027455 0.009224 0.858000
0.005261 0.022524 0.867000
0.020646 -0.029063 0.884000
0.000626 0.013322 0.872000
-0.010885 -0.015425 0.874000
0.038937 0.015298 0.862000
0.022564 0.035792 0.860000
0.011873 -0.038392 0.881000
0.008463 0.036399 0.866000
-0.000450 -0.027529 0.870000
0.016939 0.018137 0.862000
0.004916 0.030087 0.869000
0.028515 0.025468 0.858000
0.021856 0.036500 0.860000
0.004195 -0.015676 0.868000
0.023626 0.001104 0.860000
0.003481 -0.020321 0.868000
-0.006553 0.023730 0.872000
-0.004036 -0.041183 0.871000
0.025275 -0.009603 0.868000
0.010946 0.019624 0.865000
-0.030519 -0.009011 0.880000
0.020487 0.022394 0.862000
0.031656 0.015915 0.857000
-0.001883 0.033344 0.870000
0.041277 0.022316 0.859000
0.014828 0.019578 0.863000
0.018508 -0.020344 0.869000
0.025262 -0.019153 0.880000
0.005618 0.025022 0.867000
-0.027621 -0.025310 0.880000
-0.022499 -0.008629 0.878000
0.001340 0.018663 0.870000
-0.015490 0.021886 0.870000
0.035973 0.013477 0.859000
-0.016736 -0.024558 0.879000
-0.009221 -0.041574 0.887000
0.009197 0.028980 0.868000
0.046926 0.019424 0.872000
0.021172 0.005004 0.861000
-0.009817 -0.024446 0.875000
0.004921 0.012576 0.870000
-0.008367 -0.026217 0.874000
-0.007630 -0.037641 0.872000
-0.004753 -0.038674 0.871000
-0.013088 -0.028472 0.877000
-0.019225 -0.016200 0.877000
0.019296 0.039502 0.841000
0.026396 0.029706 0.858000
0.008850 -0.033935 0.869000
-0.032729 -0.016999 0.881000
-0.035748 -0.012922 0.875000
0.010590 0.021404 0.865000
-0.003686 0.018009 0.873000
0.044004 0.015816 0.871000
-0.004409 -0.011468 0.874000
-0.005842 0.018368 0.873000
-0.023222 -0.008268 0.878000
0.045334 0.019714 0.869000
-0.015219 -0.032009 0.875000
0.002057 0.017947 0.870000
-0.016262 0.014416 0.873000
-0.027259 -0.024223 0.880000
-0.011232 0.019805 0.873000
0.008473 -0.028861 0.867000
0.007750 -0.012432 0.866000
0.009533 0.014656 0.866000
-0.000092 0.024006 0.869000
-0.029151 -0.043545 0.861000
-0.014466 0.017290 0.873000
-0.009794 -0.035169 0.873000
-0.028740 -0.013735 0.881000
0.032308 0.003247 0.865000
-0.009457 -0.029488 0.875000
-0.019969 -0.027421 0.878000
-0.019225 -0.029555 0.877000
-0.026897 -0.006114 0.880000
-0.007638 -0.027983 0.873000
-0.010860 0.025525 0.872000
0.040466 0.009733 0.872000
-0.007656 0.005445 0.875000
-0.033341 -0.011520 0.878000
-0.019563 0.002567 0.876000
-0.009817 -0.024806 0.875000
-0.037248 -0.008888 0.868000
0.002766 -0.034253 0.868000
0.027323 -0.004586 0.865000
-0.028740 -0.029690 0.881000
0.007750 0.023567 0.866000
-0.010177 0.011928 0.875000
-0.029828 -0.016999 0.881000
-0.018928 -0.022775 0.880000
-0.017400 -0.006807 0.876000
-0.020910 0.008657 0.872000
0.030987 0.010636 0.858000
-0.010095 0.033982 0.868000
-0.011551 0.026899 0.870000
-0.017400 0.002207 0.876000
-0.030191 -0.034041 0.881000
-0.030569 -0.043900 0.861000
-0.006151 0.040676 0.866000
-0.021776 -0.005377 0.878000
-0.005828 0.025496 0.871000
-0.003319 -0.040825 0.871000
-0.020668 -0.000318 0.877000
-0.037358 -0.018769 0.879000
-0.010922 -0.028111 0.877000
-0.023699 -0.045023 0.869000
0.021181 -0.022311 0.876000
-0.031318 -0.038718 0.872000
0.021527 0.007484 0.861000
-0.022860 -0.030312 0.878000
-0.001524 -0.031110 0.870000
0.042179 0.019578 0.863000
-0.021776 -0.028143 0.878000
0.016585 0.016363 0.862000
0.023626 0.027297 0.860000
-0.004394 0.025137 0.871000
-0.035819 -0.005673 0.868000
0.001339 -0.019629 0.869000
-0.016262 0.014775 0.873000
0.022944 -0.000312 0.861000
-0.011937 0.023013 0.872000
0.014828 -0.007061 0.863000
-0.005111 -0.037957 0.871000
-0.010561 -0.001761 0.877000
0.009533 0.023924 0.866000
-0.028740 -0.028240 0.881000
-0.006187 0.025854 0.871000
0.022261 -0.005989 0.862000
0.020553 -0.025672 0.880000
0.020109 0.001460 0.861000
-0.007262 0.033382 0.871000
-0.000815 0.013038 0.877000
0.037300 0.019089 0.857000
-0.004769 0.016590 0.874000
-0.022499 -0.037539 0.878000
0.000623 0.029371 0.869000
0.013762 0.035917 0.863000
0.006354 -0.006402 0.870000
0.031720 0.035652 0.840000
-0.026504 -0.003213 0.879000
-0.000811 0.013697 0.873000
0.029712 0.002526 0.862000
-0.033637 -0.038853 0.867000
-0.029828 -0.032953 0.881000
-0.002248 -0.010018 0.873000
0.025012 0.015245 0.859000
-0.008016 0.005445 0.875000
0.009165 0.039917 0.865000
0.021527 0.006776 0.861000
0.000266 -0.040778 0.870000
0.007062 0.013634 0.869000
-0.006545 0.028722 0.871000
-0.011244 -0.012907 0.874000
0.020891 -0.011337 0.864000
0.006689 -0.019227 0.867000
-0.017400 -0.041059 0.876000
0.007062 0.031875 0.869000
-0.005111 0.021552 0.871000
0.003481 -0.023893 0.868000
0.027455 0.022290 0.858000
-0.004753 0.026213 0.871000
0.023272 0.016325 0.860000
0.023626 0.021634 0.860000
-0.012712 -0.028800 0.876000
0.029221 0.010990 0.858000
0.005631 -0.009972 0.869000
0.015912 -0.015248 0.864000
0.010234 -0.015978 0.865000
-0.001889 0.014775 0.873000
0.001343 -0.011083 0.872000
0.033029 0.029637 0.856000
0.031619 0.029989 0.856000
0.019046 0.011737 0.861000
-0.002960 -0.032938 0.871000
-0.020551 0.009733 0.872000
-0.011978 -0.011841 0.875000
-0.005111 -0.041542 0.871000
0.039702 0.011156 0.871000
0.032121 0.008184 0.860000
-0.031172 -0.037178 0.878000
-0.016374 -0.025281 0.879000
0.017294 0.031264 0.862000
-0.007998 -0.029780 0.873000
0.003834 0.022167 0.867000
0.028162 0.014168 0.858000
-0.005835 -0.040154 0.872000
0.001702 0.014040 0.872000
-0.005470 0.030156 0.871000
0.034046 0.026787 0.855000
0.005261 0.036441 0.867000
-0.018100 0.017690 0.875000
0.028392 -0.011494 0.876000
0.005618 -0.022438 0.867000
-0.006151 0.042458 0.866000
0.020487 0.024877 0.862000
-0.001168 -0.045126 0.871000
-0.019225 -0.005010 0.877000
-0.001165 0.022933 0.869000
0.005267 -0.012104 0.868000
0.007813 -0.039840 0.873000
-0.010513 0.019087 0.873000
0.004904 -0.018870 0.867000
-0.034025 -0.034970 0.877000
-0.016337 -0.003205 0.877000
-0.004036 -0.038674 0.871000
0.015556 0.022446 0.864000
-0.005135 0.010487 0.875000
0.007037 -0.021699 0.866000
-0.024334 -0.038305 0.879000
0.008809 0.018912 0.865000
-0.028313 -0.003574 0.879000
-0.025057 -0.023834 0.879000
0.005982 -0.011746 0.868000
0.013762 0.038048 0.863000
-0.022396 0.002561 0.874000
-0.011578 0.022654 0.872000
0.037521 0.033082 0.854000
-0.029070 -0.006838 0.880000
-0.015848 0.021886 0.870000
-0.009446 -0.011828 0.874000
0.003481 -0.027466 0.868000
-0.012366 -0.007176 0.877000
-0.029298 0.000764 0.876000
-0.004050 0.012993 0.874000
0.024843 -0.018386 0.878000
0.035800 0.002914 0.872000
0.025366 0.013477 0.859000
0.002766 -0.027108 0.868000
0.001337 0.022550 0.868000
0.010257 -0.002098 0.867000
-0.019586 -0.043632 0.877000
-0.027590 -0.039029 0.879000
0.014472 0.019578 0.863000
0.011576 -0.043716 0.886000
-0.031713 -0.001753 0.873000
0.015857 0.038669 0.861000
0.037003 0.002204 0.875000
-0.032367 -0.034041 0.881000
0.022564 0.006060 0.860000
0.030634 0.010636 0.858000
-0.033054 -0.013358 0.880000
0.000265 0.042913 0.868000
0.025720 0.020902 0.859000
0.022918 0.001458 0.860000
0.012356 -0.009203 0.864000
0.002409 -0.029252 0.868000
-0.015236 -0.041059 0.876000
-0.031889 -0.039612 0.868000
0.027809 0.030412 0.858000
-0.021627 0.007221 0.872000
-0.034033 -0.002815 0.868000
-0.034141 -0.024948 0.880000
-0.011617 -0.031649 0.875000
-0.007943 0.040009 0.867000
0.042357 0.011195 0.874000
0.022726 -0.022412 0.880000
0.015880 -0.034443 0.882000
0.036685 0.001125 0.876000
0.032362 0.016973 0.857000
0.035143 0.020476 0.856000
-0.009076 -0.013970 0.873000
0.024659 0.027973 0.859000
0.006989 0.044641 0.860000
0.038717 0.012859 0.865000
0.008107 0.018221 0.866000
-0.011631 0.007975 0.876000
0.015538 -0.006706 0.863000
-0.013449 0.004375 0.877000
0.011511 -0.040568 0.881000
-0.005111 0.034099 0.871000
0.009912 0.001115 0.868000
-0.030916 -0.013735 0.881000
0.010946 -0.020606 0.865000
0.007750 0.036755 0.866000
0.029540 0.027555 0.857000
0.024305 0.014184 0.859000
-0.014416 0.021169 0.870000
-0.002228 0.045969 0.865000
0.016604 -0.008482 0.863000
0.014472 0.037693 0.863000
-0.035829 -0.015117 0.877000
0.012384 0.008954 0.866000
-0.018481 0.005091 0.876000
0.015183 -0.011679 0.863000
-0.018821 0.006886 0.875000
-0.009794 -0.035888 0.873000
-0.018864 -0.006454 0.877000
0.014472 0.034497 0.863000
-0.026897 -0.018428 0.880000
-0.031314 -0.029361 0.882000
-0.029466 -0.026427 0.881000
0.000623 0.024722 0.869000
0.031304 0.018384 0.857000
-0.002241 -0.025380 0.870000
0.012028 -0.023125 0.866000
-0.017039 -0.035290 0.876000
-0.000092 -0.013595 0.872000
0.013067 -0.017026 0.864000
0.012356 -0.011692 0.864000
0.020296 -0.017840 0.869000
-0.038138 -0.014672 0.872000
0.027743 -0.005310 0.867000
0.010626 0.006116 0.868000
0.018713 -0.004215 0.862000
0.041325 0.020218 0.860000
0.025012 0.006053 0.859000
0.002054 -0.037870 0.869000
0.013422 -0.006714 0.864000
0.030598 0.026497 0.857000
0.008492 0.031875 0.869000
0.038893 0.004014 0.877000
0.030102 0.001108 0.863000
-0.034943 -0.038718 0.864000
-0.006553 0.022295 0.872000
0.019423 0.019556 0.862000
-0.005111 -0.035089 0.871000
-0.005828 0.022269 0.871000
-0.006912 0.027678 0.872000
0.005279 -0.038987 0.870000
0.000623 -0.018198 0.869000
-0.007638 -0.041637 0.873000
0.031413 0.007830 0.860000
0.019755 0.002523 0.861000
0.006339 -0.033539 0.868000
0.008850 0.001831 0.869000
-0.026172 -0.014806 0.880000
0.006346 -0.009256 0.869000
-0.001524 -0.021800 0.870000
-0.002608 -0.009299 0.873000
0.021172 0.026620 0.861000
0.015201 -0.013826 0.864000
-0.010922 0.002209 0.877000
-0.011964 -0.020821 0.874000
0.023326 -0.003860 0.862000
0.005975 0.025379 0.867000
0.035454 0.023620 0.855000
0.020818 0.020950 0.861000
-0.003673 0.027615 0.870000
0.008219 0.004380 0.878000
-0.002241 0.026183 0.870000
-0.004753 -0.030787 0.871000
-0.007970 0.033702 0.870000
-0.002599 0.031912 0.870000
-0.016698 -0.004288 0.877000
0.008463 -0.015997 0.866000
-0.003319 -0.017164 0.871000
0.001339 -0.029643 0.869000
0.016249 -0.010968 0.863000
-0.013418 -0.032369 0.875000
-0.004031 0.030838 0.870000
0.011671 0.031409 0.866000
-0.014774 0.022244 0.870000
0.009900 0.027163 0.867000
0.029834 -0.008970 0.876000
0.009533 -0.009937 0.866000
0.020818 0.026266 0.861000
-0.018121 -0.008610 0.876000
-0.001883 -0.034332 0.870000
0.011644 0.019245 0.864000
-0.029985 -0.000677 0.875000
0.028490 -0.004601 0.868000
0.018171 -0.022158 0.870000
0.004568 -0.007485 0.871000
-0.034542 -0.026789 0.881000
0.011289 0.034892 0.864000
-0.014058 0.021528 0.870000
-0.010561 0.002931 0.877000
-0.036997 -0.029984 0.879000
0.005637 -0.005328 0.870000
-0.020668 -0.005010 0.877000
-0.023999 -0.020239 0.880000
-0.035380 -0.002809 0.866000
0.024305 0.019134 0.859000
-0.034025 -0.011146 0.877000
-0.023248 -0.017322 0.879000
0.015610 -0.022081 0.867000
0.029712 0.002171 0.862000
0.013422 0.014267 0.864000
-0.017420 -0.005732 0.877000
0.036904 0.022238 0.856000
0.008830 -0.005667 0.867000
-0.015615 -0.004649 0.877000
-0.036273 -0.021302 0.879000
0.000623 -0.021775 0.869000
-0.002608 -0.011455 0.873000
-0.007271 -0.040871 0.872000
0.009176 0.023567 0.866000
0.025496 0.038417 0.840000
0.025720 0.032215 0.859000
0.034994 0.009965 0.861000
0.027102 0.017699 0.858000
0.001695 0.036125 0.868000
-0.034747 -0.034970 0.877000
0.001695 0.027194 0.868000
-0.039346 -0.012447 0.867000
-0.027259 -0.014082 0.880000
0.023980 0.013847 0.860000
0.014117 0.032721 0.863000
-0.021005 0.002207 0.876000
0.017649 0.019201 0.862000
-0.003330 -0.008230 0.874000
0.002392 0.045810 0.862000
0.037741 0.016306 0.859000
0.015183 0.014606 0.863000
0.002776 -0.010353 0.871000
-0.003326 -0.013251 0.873000
0.004191 0.022524 0.867000
0.027248 -0.011468 0.874000
0.007750 -0.021343 0.866000
-0.032581 -0.008259 0.877000
0.013097 0.025706 0.866000
0.014506 -0.019894 0.865000
0.018359 -0.002086 0.862000
-0.000092 -0.011083 0.872000
-0.007656 0.009047 0.875000
0.021502 0.013847 0.860000
0.000266 0.019021 0.870000
0.006696 -0.031038 0.868000
0.025366 0.021962 0.859000
-0.002246 -0.014672 0.872000
-0.033092 -0.024614 0.881000
-0.036273 -0.021663 0.879000
-0.020692 -0.026337 0.878000
0.007037 -0.020987 0.866000
0.023380 -0.008847 0.864000
-0.006951 0.005458 0.877000
0.030298 -0.010810 0.879000
-0.017760 -0.043222 0.876000
-0.012727 0.003653 0.877000
-0.012698 -0.030568 0.875000
0.022564 0.014201 0.860000
0.011685 0.010034 0.867000
0.014828 0.000753 0.863000
0.018865 -0.020344 0.869000
0.035537 0.017326 0.857000
0.010626 0.000400 0.868000
-0.032367 -0.016999 0.881000
0.010971 0.010748 0.867000
0.006332 0.036797 0.867000
-0.017340 0.012978 0.873000
0.027455 0.022996 0.858000
-0.018376 0.014741 0.871000
0.005989 0.029729 0.869000
0.004547 0.025022 0.867000
-0.016318 0.002567 0.876000
0.011658 -0.008146 0.865000
-0.023610 -0.007916 0.879000
0.023626 0.021988 0.860000
0.027455 0.027587 0.858000
0.028868 0.016640 0.858000
0.026620 -0.014395 0.877000
0.023326 -0.005634 0.862000
-0.021776 -0.026698 0.878000
0.026749 0.023349 0.858000
0.011644 0.014978 0.864000
0.015930 0.023184 0.865000
0.005285 -0.040825 0.871000
0.004904 -0.026720 0.867000
0.010984 0.003615 0.868000
0.016604 -0.003509 0.863000
0.044261 0.017926 0.869000
-0.018524 -0.018748 0.878000
-0.016698 -0.004649 0.877000
0.036467 0.032379 0.854000
0.011671 -0.001739 0.866000
-0.022499 -0.035009 0.878000
0.039657 0.011859 0.870000
-0.001889 -0.011814 0.873000
0.000981 -0.022848 0.869000
-0.001170 -0.009658 0.873000
-0.017781 -0.028111 0.877000
-0.016679 -0.013657 0.876000
0.020109 -0.003501 0.861000
0.015183 0.009633 0.863000
-0.011244 -0.038447 0.874000
0.002073 -0.048325 0.877000
-0.021029 0.000043 0.877000
0.005316 0.009417 0.876000
-0.014187 -0.025975 0.878000
-0.011644 0.002931 0.877000
0.011315 0.025706 0.866000
0.014828 0.011409 0.863000
0.033608 0.034779 0.844000
0.030598 0.020500 0.857000
0.013826 -0.023866 0.867000
-0.018503 -0.029555 0.877000
-0.010177 0.012288 0.875000
-0.004409 -0.009669 0.874000
-0.000450 0.030087 0.869000
0.016249 0.015316 0.863000
0.026427 0.013831 0.859000
-0.039566 -0.006003 0.864000
0.030884 0.001111 0.865000
-0.001166 -0.024664 0.870000
-0.023222 -0.011520 0.878000
-0.025188 -0.043334 0.871000
-0.007656 0.011207 0.875000
0.016939 0.000752 0.862000
-0.041796 -0.012076 0.866000
0.001696 -0.021417 0.869000
-0.016337 -0.020170 0.877000
0.033415 0.003963 0.866000
-0.025419 -0.028899 0.879000
-0.026535 -0.013358 0.880000
0.008473 0.013960 0.867000
0.030951 0.029671 0.857000
0.026427 0.011002 0.859000
-0.036232 -0.028143 0.878000
0.016604 -0.007061 0.863000
0.021527 -0.004210 0.861000
0.007419 0.010773 0.869000
-0.013058 -0.020124 0.875000
-0.002632 -0.046370 0.881000
-0.035902 -0.008193 0.870000
0.021527 -0.002792 0.861000
0.008820 -0.017066 0.866000
0.005644 -0.040825 0.871000
-0.023583 -0.041514 0.878000
-0.024943 -0.042453 0.875000
0.000626 0.015117 0.872000
-0.026143 -0.002127 0.879000
0.010269 0.004330 0.868000
-0.010513 0.017649 0.873000
0.027841 0.008528 0.859000
0.030598 0.027202 0.857000
0.015218 -0.019894 0.865000
-0.009044 0.031554 0.870000
0.014065 -0.035895 0.882000
0.004916 0.033306 0.869000
0.026396 0.033237 0.858000
0.007777 0.031875 0.869000
-0.020668 -0.003566 0.877000
-0.036660 -0.010353 0.871000
0.010946 -0.019182 0.865000
0.043238 0.015440 0.870000
-0.011232 0.021242 0.873000
0.014134 -0.016671 0.864000
0.001330 0.045863 0.863000
-0.003690 0.016231 0.874000
-0.022499 -0.007907 0.878000
-0.010549 0.004370 0.876000
-0.019496 0.013697 0.873000
-0.001524 -0.028603 0.870000
0.035454 0.032417 0.855000
-0.003673 0.033702 0.870000
0.011289 0.020312 0.864000
-0.009086 -0.024418 0.874000
-0.019586 -0.005732 0.877000
-0.013058 -0.019764 0.875000
-0.017039 -0.031685 0.876000
0.011315 -0.024551 0.866000
-0.032358 -0.002825 0.871000
0.016642 -0.018114 0.865000
-0.021390 0.000043 0.877000
-0.006912 -0.037641 0.872000
0.022564 0.030483 0.860000
0.010602 0.032478 0.866000
0.019068 0.001462 0.862000
0.011315 0.025349 0.866000
0.017411 -0.035328 0.886000
0.037917 0.013185 0.863000
0.027671 -0.012215 0.876000
-0.035388 -0.012201 0.875000
0.007697 0.044641 0.860000
-0.031677 -0.018833 0.882000
0.024659 0.026912 0.859000
-0.006904 0.032307 0.871000
0.025366 0.009235 0.859000
-0.036491 -0.006023 0.867000
0.023272 0.031191 0.860000
0.012356 -0.008492 0.864000
0.005968 0.040676 0.866000
-0.006912 0.019424 0.872000
-0.015994 -0.043321 0.878000
0.021197 -0.007053 0.862000
-0.008656 0.038582 0.867000
-0.028281 -0.002486 0.878000
0.027809 0.034297 0.858000
0.022564 0.011015 0.860000
0.005261 0.026092 0.867000
-0.011244 -0.020821 0.874000
0.003851 -0.009278 0.871000
-0.003323 0.018706 0.872000
0.015893 0.010698 0.863000
-0.020739 -0.019153 0.880000
0.008850 -0.002818 0.869000
0.020915 -0.012418 0.865000
0.036242 0.018031 0.857000
-0.000447 0.044849 0.864000
0.038312 0.009016 0.872000
0.014161 -0.041256 0.888000
0.027165 0.002166 0.860000
0.021527 0.026266 0.861000
-0.008386 0.005091 0.876000
-0.005111 -0.037598 0.871000
0.035847 0.029284 0.856000
-0.010525 0.014432 0.874000
0.035537 0.018384 0.857000
0.010602 -0.024551 0.866000
-0.008016 0.014809 0.875000
0.006989 0.043934 0.860000
0.009208 -0.001388 0.869000
0.019422 -0.025975 0.878000
-0.023248 -0.032155 0.879000
0.003481 -0.029609 0.868000
-0.028740 -0.015911 0.881000
-0.029037 -0.038305 0.879000
0.032137 -0.001031 0.870000
0.005267 -0.033182 0.868000
-0.005470 -0.024334 0.871000
0.012726 0.009655 0.865000
-0.012005 -0.000318 0.877000
0.007849 -0.042911 0.877000
0.021172 0.027329 0.861000
0.013778 0.012845 0.864000
0.008891 -0.038044 0.873000
0.024659 0.031155 0.859000
-0.012366 0.005458 0.877000
0.016230 0.037295 0.862000
0.020249 -0.016015 0.867000
-0.025370 -0.046596 0.865000
0.028162 0.019818 0.858000
0.009878 -0.014554 0.865000
-0.026897 -0.030743 0.880000
0.007127 -0.043993 0.877000
-0.027135 -0.000317 0.876000
0.012250 -0.037347 0.882000
0.007750 -0.014214 0.866000
0.024843 -0.018025 0.878000
0.002770 0.018284 0.869000
0.006037 -0.045025 0.876000
0.000623 -0.026424 0.869000
-0.001530 0.015853 0.873000
0.023980 0.014201 0.860000
-0.003677 -0.035806 0.871000
0.023531 -0.023943 0.883000
-0.025781 -0.015151 0.879000
-0.011644 0.004375 0.877000
-0.007998 -0.036966 0.873000
0.036200 0.020829 0.856000
0.015783 0.040253 0.857000
0.004195 0.028266 0.868000
-0.002608 -0.013251 0.873000
-0.019225 -0.035691 0.877000
0.000266 -0.028928 0.869000
-0.007271 -0.035488 0.872000
-0.040633 -0.008847 0.864000
0.025100 -0.003860 0.862000
-0.026024 0.002204 0.875000
-0.022011 0.006151 0.873000
-0.035509 -0.021639 0.878000
0.019148 -0.029361 0.882000
-0.032695 -0.041065 0.861000
-0.013058 -0.030568 0.875000
0.018004 0.030909 0.862000
0.008107 0.039606 0.866000
0.012028 -0.024907 0.866000
-0.008746 0.002928 0.876000
-0.021415 -0.001041 0.878000
0.022365 -0.012076 0.866000
-0.004769 0.015152 0.874000
-0.001883 -0.030752 0.870000
0.034046 0.027843 0.855000
-0.000450 -0.026067 0.869000
0.019112 -0.012404 0.864000
0.017354 0.026388 0.865000
0.018108 -0.018870 0.867000
0.027809 0.013108 0.858000
-0.033092 -0.015548 0.881000
0.010590 0.020336 0.865000
0.013067 -0.016671 0.864000
-0.028346 -0.014082 0.880000
0.013067 0.011778 0.864000
0.032676 0.026818 0.856000
0.006681 0.039250 0.866000
-0.009817 -0.011121 0.875000
0.013067 -0.005291 0.864000
0.020133 0.027716 0.862000
0.021527 0.012091 0.861000
0.018778 -0.015622 0.865000
0.014150 0.023896 0.865000
0.026780 0.005699 0.859000
-0.029070 -0.007925 0.880000
0.019755 0.031227 0.861000
0.010946 -0.016334 0.865000
-0.014499 0.010487 0.875000
0.005631 0.029371 0.869000
0.013082 0.010011 0.865000
-0.006920 -0.027983 0.873000
0.045438 0.017967 0.871000
0.019778 -0.005279 0.862000
0.007419 0.012919 0.869000
0.018046 0.027069 0.864000
-0.019856 0.007229 0.873000
0.013082 -0.019538 0.865000
-0.011644 -0.000679 0.877000
0.039793 0.007948 0.873000
-0.013103 -0.025614 0.878000
-0.021415 -0.010075 0.878000
-0.025057 -0.016960 0.879000
0.033576 0.008902 0.861000
-0.003690 0.014432 0.874000
0.007777 -0.001745 0.869000
0.019112 0.023513 0.864000
0.018231 0.040558 0.856000
0.030245 0.024028 0.857000
0.035143 0.019420 0.856000
-0.017039 -0.035651 0.876000
0.020818 0.013154 0.861000
0.034046 0.028898 0.855000
0.004191 0.026449 0.867000
0.008463 -0.010294 0.866000
-0.012295 0.022654 0.872000
0.032551 0.006074 0.862000
0.026396 0.036062 0.858000
0.019046 0.032999 0.861000
0.017649 0.034102 0.862000
-0.002599 -0.037555 0.870000
-0.014859 -0.034890 0.875000
0.025720 0.036104 0.859000
0.021527 0.002523 0.861000
-0.010142 0.024807 0.872000
0.011698 0.006473 0.868000
0.031023 0.009235 0.859000
0.008107 0.020003 0.866000
-0.011244 0.014792 0.874000
-0.014155 -0.008249 0.876000
-0.012998 0.029439 0.871000
-0.015184 0.016571 0.873000
-0.005835 0.020859 0.872000
-0.014155 -0.020508 0.876000
0.029574 0.012402 0.858000
-0.025781 -0.002127 0.879000
0.009878 -0.011706 0.865000
0.029221 0.010283 0.858000
-0.021415 -0.003570 0.878000
0.026073 0.028326 0.859000
0.030951 0.032493 0.857000
-0.002599 -0.024306 0.870000
0.019400 -0.001021 0.861000
0.026734 -0.008541 0.869000
-0.001524 -0.023590 0.870000
0.002766 0.027909 0.868000
0.003124 0.042199 0.868000
0.037344 0.017699 0.858000
-0.005835 -0.035488 0.872000
0.026199 -0.014002 0.875000
-0.030191 -0.018449 0.881000
-0.038454 -0.005285 0.863000
0.015183 0.002529 0.863000
0.043126 0.011928 0.875000
-0.002605 -0.014313 0.872000
0.003869 -0.047494 0.875000
-0.013058 -0.030928 0.875000
0.010958 -0.023482 0.866000
-0.033455 -0.022800 0.881000
0.000623 -0.017125 0.869000
-0.015219 -0.034890 0.875000
-0.035870 -0.032480 0.878000
-0.031030 -0.001396 0.874000
0.003834 0.043221 0.867000
-0.015615 -0.000318 0.877000
0.003847 0.016156 0.870000
0.021052 0.040588 0.842000
0.009878 0.019624 0.865000
-0.017760 -0.040698 0.876000
0.000267 0.015476 0.872000
-0.021801 -0.025281 0.879000
-0.013043 -0.014346 0.874000
0.005261 -0.030289 0.867000
-0.019541 -0.046054 0.875000
-0.022138 -0.041153 0.878000
0.011671 -0.024907 0.866000
-0.029761 -0.006107 0.879000
0.023952 0.017366 0.859000
-0.036997 -0.018769 0.879000
0.015183 0.033076 0.863000
-0.014499 -0.013282 0.875000
-0.033947 -0.036690 0.875000
0.010946 -0.009570 0.865000
0.042375 0.016814 0.867000
-0.014859 0.010847 0.875000
-0.013794 -0.029521 0.876000
0.016418 -0.026157 0.872000
-0.010165 0.014792 0.874000
-0.006935 0.013368 0.875000
0.010946 0.033508 0.865000
0.008116 0.014673 0.867000
0.022210 0.025882 0.860000
-0.029828 -0.019174 0.881000
0.016604 -0.006351 0.863000
0.016959 0.020289 0.863000
0.007697 0.043934 0.860000
-0.024361 -0.020964 0.880000
-0.032829 -0.037368 0.874000
-0.012310 0.021242 0.873000
-0.009805 -0.030893 0.874000
-0.034141 -0.021326 0.880000
0.011685 -0.026007 0.867000
-0.034947 -0.009658 0.873000
0.036723 0.013847 0.860000
-0.023195 0.000404 0.877000
-0.029103 -0.014461 0.881000
-0.037401 -0.027845 0.880000
-0.013434 0.007615 0.876000
0.018209 0.038751 0.855000
-0.005835 -0.041589 0.872000
0.008492 0.030802 0.869000
0.016399 -0.025410 0.871000
0.045028 0.017947 0.870000
-0.029951 -0.039167 0.874000
-0.029814 -0.040420 0.870000
-0.013058 0.008686 0.875000
-0.030916 -0.035129 0.881000
-0.021826 -0.018428 0.880000
0.013082 0.001823 0.865000
-0.035625 -0.009647 0.872000
-0.028905 -0.000677 0.875000
0.010958 0.032834 0.866000
-0.010188 0.006533 0.876000
-0.010922 -0.026668 0.877000
0.013376 0.040087 0.861000
-0.037249 -0.023997 0.885000
0.005261 -0.021011 0.867000
0.000622 0.044291 0.867000
0.034750 0.028194 0.855000
-0.036365 -0.003158 0.864000
-0.022473 -0.000318 0.877000
0.000980 0.042556 0.868000
0.022210 0.026943 0.860000
0.004205 0.015798 0.870000
-0.013103 -0.026337 0.878000
0.027906 0.000751 0.861000
-0.031279 -0.034041 0.881000
-0.012005 -0.003205 0.877000
0.010269 0.008974 0.868000
0.020646 -0.028700 0.884000
0.004553 -0.013533 0.868000
-0.027259 -0.027483 0.880000
0.037387 0.015245 0.859000
0.022774 -0.013533 0.868000
0.039524 0.006165 0.875000
-0.028740 -0.010109 0.881000
-0.006553 0.019424 0.872000
0.021246 -0.010626 0.864000
-0.010177 -0.029848 0.875000
0.024984 -0.021399 0.883000
0.013422 -0.015960 0.864000
-0.033017 -0.011172 0.879000
-0.013103 -0.000318 0.878000
0.010602 -0.023125 0.866000
0.016475 -0.028047 0.875000
-0.026774 -0.040698 0.876000
0.005279 -0.009267 0.870000
0.008483 -0.030324 0.868000
0.019755 0.002169 0.861000
0.007402 -0.027791 0.867000
-0.013434 0.006173 0.876000
-0.022499 -0.040430 0.878000
-0.012712 -0.008610 0.876000
-0.031101 -0.004644 0.876000
0.023299 -0.001729 0.861000
0.030987 -0.008991 0.878000
0.031340 0.010990 0.858000
-0.006187 0.028722 0.871000
0.012726 -0.001737 0.865000
0.036904 0.020829 0.856000
0.033106 0.012402 0.858000
-0.009794 -0.034451 0.873000
-0.028740 -0.018449 0.881000
-0.025810 -0.023861 0.880000
-0.013418 -0.038491 0.875000
-0.010922 -0.000318 0.877000
0.020109 0.015635 0.861000
0.024688 0.003582 0.860000
0.000266 -0.022490 0.869000
0.014828 0.035917 0.863000
-0.010142 0.025525 0.872000
-0.028708 -0.006476 0.880000
-0.017760 -0.041780 0.876000
-0.005470 -0.020391 0.871000
0.011589 -0.044495 0.887000
0.008809 0.036357 0.865000
-0.002957 0.027973 0.870000
0.041256 0.015369 0.866000
0.034790 0.021181 0.856000
0.002776 -0.008202 0.871000
0.008107 -0.024194 0.866000
0.020464 0.008547 0.861000
-0.019586 -0.028111 0.877000
-0.037634 -0.016200 0.877000
0.008820 -0.009224 0.866000
-0.007630 0.025884 0.872000
0.014828 0.015316 0.863000
0.009889 0.013587 0.866000
-0.012366 -0.025946 0.877000
0.012370 -0.018114 0.865000
-0.022886 -0.024196 0.879000
0.002776 -0.009995 0.871000
-0.019833 0.010451 0.872000
-0.035748 -0.013282 0.875000
-0.030103 -0.041041 0.868000
-0.007630 0.020500 0.872000
0.016681 -0.021368 0.867000
0.017354 0.027100 0.865000
0.010946 0.013927 0.865000
0.033773 0.014857 0.857000
0.006719 0.000760 0.871000
0.026749 0.023703 0.858000
0.017354 0.024608 0.865000
0.018359 0.019201 0.862000
0.007419 -0.003891 0.869000
0.036685 0.001485 0.876000
0.002054 -0.027855 0.869000
0.006332 -0.019583 0.867000
-0.034786 -0.013689 0.878000
0.012370 0.011079 0.865000
0.032676 0.025761 0.856000
0.021502 0.032253 0.860000
0.025366 0.036811 0.859000
-0.010154 -0.017563 0.873000
-0.008716 -0.031936 0.873000
0.025012 0.013831 0.859000
-0.013073 0.006533 0.876000
-0.007952 0.035411 0.868000
0.005261 0.022167 0.867000
0.019400 0.013154 0.861000
0.009197 -0.003172 0.868000
0.040590 0.013603 0.867000
-0.034102 -0.013704 0.879000
0.000266 -0.031789 0.869000
0.015201 0.029914 0.864000
0.014489 0.007866 0.864000
-0.005476 -0.035847 0.872000
-0.002248 -0.011814 0.873000
0.016604 -0.012034 0.863000
-0.032073 -0.001394 0.873000
-0.011644 -0.007537 0.877000
0.028162 0.013108 0.858000
0.015538 -0.003154 0.863000
-0.013326 0.025079 0.869000
-0.003319 -0.027202 0.871000
0.011328 0.030374 0.867000
0.000266 -0.043284 0.870000
-0.000092 0.023291 0.869000
-0.034180 -0.027152 0.881000
0.040419 0.010439 0.871000
-0.006215 0.009767 0.875000
-0.015848 0.019379 0.870000
-0.002957 0.033702 0.870000
-0.010154 -0.038762 0.873000
-0.011644 0.006541 0.877000
-0.002241 0.036567 0.870000
0.016249 0.009988 0.863000
-0.002599 -0.022874 0.870000
-0.000811 -0.012892 0.873000
0.010688 -0.035529 0.873000
-0.011591 0.019446 0.873000
0.006383 -0.042764 0.874000
0.023010 -0.020170 0.877000
0.031952 0.002179 0.865000
-0.005129 0.014792 0.874000
-0.005835 -0.022568 0.872000
0.003481 0.027194 0.868000
0.007402 0.015387 0.867000
-0.012352 -0.029161 0.876000
0.018108 -0.019227 0.867000
0.007786 -0.035407 0.870000
0.005618 0.022881 0.867000
-0.007271 -0.036924 0.872000
-0.000450 0.039744 0.869000
0.040169 0.020171 0.858000
-0.026535 -0.017342 0.880000
0.015893 0.003950 0.863000
0.014879 0.027844 0.866000
-0.009044 0.031912 0.870000
0.033852 0.011356 0.859000
0.020464 0.015635 0.861000
0.016249 0.032010 0.863000
0.006346 0.014349 0.869000
0.003882 0.010162 0.878000
0.024305 0.008528 0.859000
0.030951 0.020148 0.857000
-0.022860 -0.028505 0.878000
-0.010835 0.034418 0.870000
0.004574 -0.043743 0.872000
0.012014 0.032440 0.865000
0.009176 -0.009224 0.866000
-0.027983 -0.030018 0.880000
-0.012640 0.024062 0.871000
0.023272 0.034377 0.860000
-0.011244 0.016231 0.874000
0.005267 0.027551 0.868000
-0.009794 0.017290 0.873000
-0.016679 -0.015100 0.876000
0.026049 -0.009983 0.870000
0.027134 0.007820 0.859000
0.007437 -0.037957 0.871000
0.029540 0.033551 0.857000
0.018800 -0.016709 0.866000
-0.024278 -0.041828 0.877000
-0.033817 -0.018449 0.881000
-0.032729 -0.023888 0.881000
0.016004 -0.023921 0.869000
-0.028740 -0.013373 0.881000
-0.018821 0.007246 0.875000
-0.035428 -0.013297 0.876000
0.029893 0.014857 0.857000
-0.003677 -0.029353 0.871000
0.004547 -0.019227 0.867000
0.008820 -0.015640 0.866000
0.023380 -0.008136 0.864000
-0.013073 0.007615 0.876000
-0.019225 -0.038218 0.877000
-0.002233 0.043221 0.867000
0.014489 0.030625 0.864000
-0.004026 0.040459 0.869000
-0.019992 -0.018769 0.879000
0.004921 0.010069 0.870000
0.007419 0.011131 0.869000
0.018444 -0.017779 0.866000
-0.003677 -0.027919 0.871000
-0.003673 0.034776 0.870000
0.026749 0.024762 0.858000
0.004563 -0.011415 0.870000
0.029955 0.036300 0.839000
0.003834 0.038582 0.867000
0.000981 -0.017840 0.869000
-0.028997 -0.042064 0.867000
-0.016337 -0.002483 0.877000
0.024659 0.023730 0.859000
0.002052 0.022907 0.868000
0.002059 0.017250 0.871000
0.009303 -0.041514 0.878000
0.001343 0.012605 0.872000
0.032495 -0.000673 0.870000
0.000985 0.013681 0.872000
0.042228 0.018534 0.864000
-0.005835 -0.029028 0.872000
0.004870 0.044693 0.861000
-0.004036 0.025496 0.871000
0.019468 0.023868 0.864000
-0.035185 -0.037555 0.870000
0.024008 -0.002084 0.861000
-0.026172 -0.019515 0.880000
-0.038021 -0.028035 0.886000
-0.034141 -0.020601 0.880000
0.028162 0.020171 0.858000
0.016249 0.030589 0.863000
0.008571 -0.041828 0.877000
-0.001885 -0.045485 0.871000
0.017175 -0.026217 0.874000
0.023786 -0.020578 0.879000
-0.026897 -0.023861 0.880000
-0.009467 0.004370 0.876000
0.004195 -0.019606 0.868000
-0.037039 -0.020964 0.880000
-0.001162 0.043934 0.867000
0.019243 0.039409 0.854000
-0.009794 0.021961 0.873000
-0.023610 -0.026367 0.879000
-0.015615 -0.006815 0.877000
-0.009457 0.014809 0.875000
-0.015994 -0.021277 0.878000
-0.011644 -0.027389 0.877000
-0.019924 -0.045025 0.876000
-0.032695 -0.042836 0.861000
0.027615 -0.002444 0.863000
0.031972 0.029284 0.856000
-0.025781 -0.014790 0.879000
0.008463 -0.009581 0.866000
0.025012 0.009588 0.859000
-0.034503 -0.025310 0.880000
0.018004 0.003590 0.862000
-0.008386 -0.008970 0.876000
0.017334 -0.015248 0.864000
0.015517 -0.035169 0.882000
-0.029828 -0.035129 0.881000
-0.013794 -0.030243 0.876000
0.010590 0.014639 0.865000
-0.000092 -0.022490 0.869000
0.025869 -0.005291 0.864000
-0.010188 -0.005725 0.876000
0.040684 0.012204 0.869000
0.016939 0.037295 0.862000
-0.001883 0.030479 0.870000
-0.014859 -0.014722 0.875000
-0.026172 -0.015531 0.880000
0.013794 0.023896 0.865000
-0.020307 -0.011868 0.877000
-0.030191 -0.013735 0.881000
-0.014482 0.012633 0.874000
-0.004753 0.025854 0.871000
0.036157 0.023268 0.855000
-0.003677 -0.023976 0.871000
0.032719 -0.004644 0.876000
0.006704 0.032948 0.869000
-0.009086 -0.024778 0.874000
0.031619 0.033864 0.856000
-0.019653 -0.020239 0.880000
0.021492 -0.019742 0.874000
-0.000806 0.042556 0.868000
-0.003319 -0.032221 0.871000
-0.011232 0.021602 0.873000
0.010602 -0.022769 0.866000
0.021052 0.038509 0.842000
0.003843 0.030087 0.869000
-0.031495 -0.040280 0.867000
0.010590 0.036713 0.865000
-0.009839 -0.002844 0.877000
-0.006935 0.010487 0.875000
0.034128 0.004676 0.866000
0.019847 -0.014198 0.865000
-0.027228 -0.003574 0.879000
-0.003690 -0.009669 0.874000
0.019068 -0.004924 0.862000
-0.017098 -0.022025 0.879000
-0.018397 0.011887 0.872000
0.036157 0.022564 0.855000
-0.033049 -0.042482 0.861000
-0.006194 -0.018620 0.872000
0.001696 -0.025709 0.869000
0.005996 -0.002105 0.870000
-0.007998 -0.029420 0.873000
0.020818 0.019533 0.861000
0.022210 0.029775 0.860000
-0.034307 -0.010401 0.875000
-0.024695 -0.027090 0.879000
0.015574 0.028168 0.865000
0.000981 -0.039300 0.869000
-0.028574 -0.042679 0.865000
-0.008716 -0.017204 0.873000
0.023141 -0.023915 0.882000
0.013778 0.020668 0.864000
0.009176 -0.008868 0.866000
0.016585 0.011396 0.862000
0.004904 -0.016729 0.867000
0.003851 -0.009995 0.871000
0.017008 -0.034521 0.884000
-0.009817 0.012288 0.875000
0.018359 0.000043 0.862000
-0.030881 -0.036176 0.880000
-0.021053 -0.014411 0.878000
-0.011283 -0.028472 0.877000
0.006324 0.022498 0.866000
0.011698 0.005402 0.868000
0.005975 -0.018513 0.867000
-0.011964 -0.020101 0.874000
0.009187 0.013960 0.867000
0.024085 0.038717 0.839000
-0.002608 0.015853 0.873000
0.011685 0.008250 0.867000
-0.003677 -0.026844 0.871000
-0.009794 0.023398 0.873000
-0.014515 -0.039977 0.876000
-0.014416 0.021886 0.870000
0.013067 0.035959 0.864000
-0.020692 -0.036816 0.878000
-0.033817 -0.026789 0.881000
0.020156 0.025972 0.863000
-0.010561 -0.005732 0.877000
-0.024695 -0.034687 0.879000
-0.009096 0.013368 0.875000
0.039884 0.006526 0.875000
0.002776 0.012232 0.871000
-0.025696 -0.046186 0.864000
-0.017760 -0.008970 0.876000
-0.009024 0.033982 0.868000
0.025396 0.002874 0.860000
-0.027166 -0.000679 0.877000
-0.001530 0.015493 0.873000
0.006354 -0.004612 0.870000
0.022002 -0.023499 0.880000
-0.000449 0.043270 0.868000
0.011563 -0.042938 0.885000
0.000625 -0.045485 0.871000
-0.024334 -0.032517 0.879000
0.026043 0.036415 0.858000
0.019157 -0.016353 0.866000
-0.015219 0.009047 0.875000
0.002417 -0.012146 0.871000
-0.017039 0.002567 0.876000
0.031720 0.034960 0.840000
-0.022188 -0.019515 0.880000
0.002052 0.032196 0.868000
-0.009794 0.020524 0.873000
0.038314 0.021533 0.856000
-0.023610 -0.038305 0.879000
0.022236 -0.001021 0.861000
-0.014842 0.014792 0.874000
-0.006187 0.033024 0.871000
0.003865 -0.046361 0.874000
0.000624 -0.042926 0.870000
-0.019992 -0.024919 0.879000
-0.035870 -0.027059 0.878000
-0.006553 -0.035847 0.872000
0.044566 0.014088 0.875000
0.040875 0.021937 0.858000
-0.028643 -0.003209 0.878000
0.010376 -0.038579 0.877000
0.015430 0.039900 0.857000
-0.021415 -0.026337 0.878000
0.031693 0.011343 0.858000
0.009889 -0.022056 0.866000
0.004547 0.021453 0.867000
-0.012366 0.005819 0.877000
-0.016318 -0.012215 0.876000
-0.013778 0.010127 0.875000
0.014845 0.006444 0.864000
0.017535 -0.025857 0.874000
-0.017781 0.000404 0.877000
-0.010885 -0.036649 0.874000
-0.027621 -0.014806 0.880000
0.030245 0.018737 0.857000
-0.001166 0.020095 0.870000
-0.004036 -0.018240 0.871000
-0.006187 0.028364 0.871000
-0.032729 -0.015911 0.881000
0.022210 0.034023 0.860000
0.015893 0.010343 0.863000
-0.028971 -0.038940 0.877000
-0.031705 -0.044002 0.863000
0.012755 0.028233 0.867000
-0.028675 -0.003936 0.879000
0.003838 -0.016391 0.868000
0.031412 0.036040 0.841000
-0.010188 -0.025916 0.876000
0.018444 -0.018135 0.866000
0.032100 0.000043 0.869000
0.012264 -0.041024 0.883000
-0.018183 -0.020940 0.879000
0.005618 0.037154 0.867000
-0.035666 -0.010736 0.873000
0.036552 0.019420 0.856000
-0.023974 -0.045937 0.866000
0.004195 -0.016034 0.868000
0.009165 0.037781 0.865000
0.028851 -0.012981 0.879000
-0.003673 0.036567 0.870000
0.020109 -0.001729 0.861000
-0.015579 0.007246 0.875000
0.004526 0.044442 0.863000
-0.025057 -0.016237 0.879000
-0.038544 -0.008146 0.865000
0.027071 0.038692 0.846000
-0.013418 -0.035610 0.875000
-0.015597 0.004009 0.876000
-0.014859 -0.015443 0.875000
0.009533 -0.023838 0.866000
-0.021029 0.001487 0.877000
-0.030951 -0.029361 0.882000
0.017649 0.018137 0.862000
-0.007998 -0.032654 0.873000
-0.006920 -0.027624 0.873000
0.004191 0.040366 0.867000
-0.007279 0.018009 0.873000
-0.034865 -0.027845 0.880000
0.020310 0.039455 0.840000
-0.010525 0.015871 0.874000
0.028050 0.037906 0.844000
-0.000450 0.024364 0.869000
0.023626 0.030837 0.860000
0.009533 -0.020274 0.866000
-0.006553 -0.039436 0.872000
-0.004399 -0.015748 0.872000
0.000981 0.032233 0.869000
0.015165 0.038359 0.862000
0.028868 0.012402 0.858000
0.012042 0.028233 0.867000
0.036424 0.033044 0.853000
-0.036954 -0.018025 0.878000
-0.007271 0.024807 0.872000
0.017156 -0.025827 0.873000
0.002392 0.046164 0.862000
-0.029929 -0.042581 0.863000
0.033067 0.014857 0.857000
0.010447 -0.043568 0.883000
0.003124 0.020406 0.868000
-0.027558 -0.039707 0.878000
0.005975 -0.029575 0.867000
-0.027259 -0.025310 0.880000
0.032715 0.014857 0.857000
0.014523 -0.022056 0.866000
0.016488 0.040253 0.857000
0.009878 -0.012418 0.865000
0.019046 0.036543 0.861000
0.000981 0.034021 0.869000
-0.013103 -0.024530 0.878000
0.007045 -0.026363 0.867000
-0.024361 -0.023137 0.880000
-0.025419 -0.006469 0.879000
-0.017781 -0.004288 0.877000
0.014472 0.037338 0.863000
-0.028971 -0.001761 0.877000
-0.002960 -0.040108 0.871000
-0.033986 -0.036011 0.876000
0.011658 -0.013486 0.865000
0.022358 0.038717 0.839000
0.008492 0.011131 0.869000
0.009900 0.026806 0.867000
-0.005835 -0.019337 0.872000
0.022971 -0.005634 0.862000
-0.027464 -0.040652 0.875000
-0.018183 -0.023834 0.879000
-0.026897 -0.018791 0.880000
0.008492 -0.004249 0.869000
0.003851 -0.041542 0.871000
0.039748 0.009374 0.872000
-0.006935 -0.006079 0.875000
-0.016679 -0.014739 0.876000
0.029562 -0.003530 0.868000
0.009165 0.039561 0.865000
0.031304 0.027555 0.857000
0.011671 0.010379 0.866000
0.016317 -0.036787 0.886000
-0.007638 -0.014329 0.873000
0.008463 0.022141 0.866000
-0.015236 -0.030603 0.876000
-0.009435 -0.032654 0.873000
-0.020668 -0.011146 0.877000
0.018359 0.033747 0.862000
-0.027895 -0.043085 0.866000
0.002770 -0.037870 0.869000
-0.007638 -0.030139 0.873000
0.004904 0.021096 0.867000
0.017895 -0.025137 0.874000
-0.028740 -0.012285 0.881000
0.014506 -0.018470 0.865000
0.040122 0.021559 0.857000
-0.031314 -0.023915 0.882000
-0.006553 0.021936 0.872000
0.024659 0.008881 0.859000
-0.009435 -0.034091 0.873000
0.009187 0.026449 0.867000
0.003134 -0.006051 0.871000
0.010761 -0.040114 0.879000
0.015574 -0.018826 0.865000
-0.004036 0.029439 0.871000
-0.004753 -0.021825 0.871000
0.017294 0.012105 0.862000
0.010234 0.035289 0.865000
-0.035778 -0.004953 0.867000
0.027809 0.015934 0.858000
0.001337 0.027194 0.868000
-0.035339 -0.038051 0.865000
0.019755 0.032999 0.861000
-0.032220 -0.008259 0.877000
0.016623 -0.014537 0.864000
-0.033455 -0.023163 0.881000
0.007070 -0.003896 0.870000
0.014150 -0.018114 0.865000
0.041661 0.015744 0.867000
-0.002241 0.035492 0.870000
-0.014187 -0.024891 0.878000
-0.001523 0.042247 0.869000
-0.024334 -0.037944 0.879000
-0.018864 -0.029916 0.877000
0.012356 -0.013470 0.864000
-0.016698 -0.019809 0.877000
