0.027873 -0.026151 0.860000
0.033927 0.017947 0.870000
-0.022799 -0.014858 0.862000
0.036034 0.013992 0.869000
-0.032036 0.014758 0.872000
0.027455 -0.018674 0.858000
-0.028806 0.006862 0.872000
-0.019651 -0.006714 0.864000
0.026704 0.011118 0.868000
-0.005795 -0.008512 0.866000
0.042534 -0.000313 0.863000
-0.025487 0.002904 0.869000
0.023434 0.003251 0.866000
-0.016709 0.031508 0.859000
0.017254 -0.015886 0.860000
0.027355 -0.000314 0.866000
0.009511 -0.010270 0.864000
-0.033675 0.002186 0.868000
-0.014774 0.025824 0.870000
-0.024898 -0.016259 0.861000
0.027841 -0.024706 0.859000
0.011685 -0.003882 0.867000
-0.016488 -0.003878 0.866000
-0.006864 -0.008155 0.866000
-0.029083 0.031508 0.859000
0.027154 -0.030787 0.871000
0.015664 0.014008 0.870000
0.027102 -0.021499 0.858000
-0.017201 -0.002452 0.866000
0.005285 0.019043 0.871000
0.042179 -0.001733 0.863000
-0.012969 0.025795 0.869000
-0.050238 0.006354 0.852000
-0.037463 0.017290 0.873000
0.027030 0.023238 0.867000
0.025129 -0.028018 0.863000
0.008779 -0.012375 0.862000
-0.022851 -0.006714 0.864000
0.004511 -0.015532 0.860000
0.038183 -0.010234 0.861000
0.004152 -0.019403 0.859000
-0.027042 0.017290 0.873000
-0.001528 0.010451 0.872000
-0.021025 -0.021954 0.862000
0.026073 -0.025767 0.859000
-0.023395 0.025496 0.871000
-0.020145 0.009711 0.870000
-0.030276 0.009745 0.873000
-0.001176 -0.031721 0.877000
0.030669 0.012204 0.869000
-0.028797 -0.018030 0.861000
-0.011895 0.000401 0.869000
-0.012834 -0.019779 0.860000
-0.007630 0.019424 0.872000
0.020440 -0.014470 0.860000
0.029988 0.007921 0.870000
0.036665 0.007893 0.867000
-0.025696 -0.024139 0.864000
-0.038452 0.011156 0.871000
0.047177 -0.002427 0.857000
-0.045989 -0.004654 0.878000
0.040923 -0.015514 0.859000
0.031767 -0.014470 0.860000
-0.029574 -0.010968 0.863000
-0.018038 0.024807 0.872000
-0.034271 -0.007434 0.865000
0.013082 -0.007078 0.865000
-0.014808 0.017988 0.872000
0.018150 0.009700 0.869000
-0.049351 0.005358 0.861000
-0.038900 0.016212 0.873000
-0.012969 -0.002103 0.869000
-0.039474 -0.018051 0.862000
0.040758 -0.020914 0.863000
-0.047306 0.006839 0.869000
-0.036051 -0.006010 0.865000
0.009957 0.009374 0.872000
0.044614 -0.003860 0.862000
0.011367 0.003624 0.870000
0.034165 -0.025030 0.858000
-0.003281 -0.023700 0.861000
-0.037162 -0.002809 0.866000
0.002031 -0.019049 0.859000
-0.034587 -0.008492 0.864000
0.034245 -0.014116 0.860000
0.019603 0.014724 0.870000
-0.001528 0.015117 0.872000
-0.043422 0.006846 0.870000
-0.030995 -0.027624 0.873000
-0.041941 0.021503 0.869000
0.005599 -0.010626 0.864000
0.015820 -0.021524 0.859000
-0.015794 -0.000671 0.867000
-0.004050 -0.030174 0.874000
-0.018165 -0.021220 0.861000
-0.018896 -0.013084 0.862000
0.013142 0.001116 0.869000
0.015324 0.020477 0.871000
-0.007638 0.011900 0.873000
-0.050820 0.009838 0.850000
0.010163 -0.017635 0.859000
-0.020790 0.000400 0.867000
-0.012567 -0.025977 0.866000
-0.007998 0.010463 0.873000
0.016661 -0.002096 0.866000
0.030311 0.005050 0.869000
0.014248 0.014741 0.871000
-0.020766 -0.002452 0.866000
0.000628 -0.030928 0.875000
-0.013912 -0.015550 0.861000
0.010984 0.022193 0.868000
0.014607 0.009005 0.871000
-0.026794 -0.024523 0.865000
0.029954 0.012204 0.869000
0.010602 -0.006729 0.866000
-0.026622 0.007213 0.871000
0.024983 -0.019027 0.858000
0.003116 -0.008512 0.866000
0.041517 0.002532 0.864000
0.039073 0.002535 0.865000
-0.001861 -0.016948 0.860000
-0.020910 0.015476 0.872000
0.028457 0.000400 0.867000
0.018865 0.010773 0.869000
0.011315 -0.005660 0.866000
0.020794 -0.015532 0.860000
-0.034542 -0.030415 0.881000
0.042387 -0.010576 0.860000
-0.024218 -0.022309 0.862000
0.036434 0.016873 0.870000
-0.018691 0.007912 0.869000
-0.019295 -0.008492 0.864000
0.037866 0.017947 0.870000
-0.051411 0.002854 0.854000
0.037692 0.004676 0.866000
-0.008347 0.019424 0.872000
0.044708 0.000395 0.857000
0.008748 -0.022231 0.859000
0.027519 -0.013054 0.860000
0.011236 -0.016948 0.860000
-0.049937 -0.001381 0.865000
-0.036991 -0.016632 0.862000
0.032100 0.013277 0.869000
0.046472 -0.001369 0.857000
0.011644 -0.008847 0.864000
0.010305 0.018326 0.871000
-0.046644 0.012576 0.870000
-0.039165 -0.013455 0.863000
-0.025667 -0.022690 0.863000
0.026255 -0.001381 0.865000
0.023353 -0.005640 0.863000
-0.016507 -0.001385 0.867000
-0.044547 0.010439 0.871000
0.036766 -0.009171 0.861000
0.000268 -0.031324 0.876000
0.044510 -0.001373 0.860000
0.024447 -0.003158 0.864000
-0.030530 0.000401 0.870000
-0.044906 0.011873 0.871000
-0.028088 0.005068 0.872000
0.044969 -0.005634 0.862000
0.007479 -0.032045 0.876000
-0.002248 -0.029780 0.873000
-0.033433 0.023345 0.871000
0.036665 0.022881 0.867000
-0.042007 -0.020914 0.863000
-0.021429 -0.006358 0.864000
-0.045264 0.014383 0.871000
-0.006560 0.010822 0.873000
0.013714 -0.016594 0.860000
-0.027411 -0.014858 0.862000
0.040994 0.013261 0.868000
0.027807 0.013277 0.869000
0.028588 0.019043 0.871000
0.025720 0.020477 0.871000
0.027061 0.023979 0.868000
0.027323 -0.002805 0.865000
0.048598 -0.017121 0.851000
-0.020480 0.007912 0.869000
-0.015472 0.026510 0.869000
-0.001168 0.019760 0.871000
0.000973 -0.012020 0.862000
0.033537 -0.011992 0.860000
-0.002587 -0.008512 0.866000
0.013890 0.007930 0.871000
0.018486 -0.029609 0.868000
-0.013357 0.010798 0.871000
-0.034547 -0.011324 0.863000
-0.020433 0.027163 0.867000
0.042081 -0.007399 0.861000
-0.037700 -0.016632 0.862000
-0.012640 0.005779 0.871000
0.017628 -0.013069 0.861000
0.042326 0.009666 0.866000
-0.045160 0.005766 0.869000
-0.038452 0.012590 0.871000
-0.025607 -0.019094 0.861000
0.021443 -0.031540 0.872000
0.015967 -0.001741 0.867000
-0.006515 -0.006023 0.867000
-0.026377 -0.010968 0.863000
0.027165 -0.012346 0.860000
0.013531 0.017609 0.871000
-0.038276 -0.000671 0.867000
-0.008347 0.019065 0.872000
0.015520 -0.008827 0.862000
0.035827 -0.000313 0.864000
0.010984 -0.028895 0.868000
-0.010368 -0.015195 0.861000
0.029323 -0.010943 0.861000
0.047659 -0.005926 0.853000
0.024802 -0.002802 0.864000
0.024946 0.012204 0.869000
0.002423 0.011900 0.873000
0.010958 -0.007799 0.866000
0.016230 -0.009537 0.862000
-0.023395 0.013666 0.871000
0.026396 -0.020793 0.858000
0.017649 -0.008827 0.862000
-0.019605 -0.014149 0.862000
0.026581 -0.003158 0.864000
0.034953 -0.027566 0.860000
-0.025217 0.016194 0.872000
-0.013912 -0.016613 0.861000
0.034912 -0.025767 0.859000
0.009889 -0.028115 0.866000
-0.017320 0.016911 0.872000
-0.018896 0.029490 0.862000
0.038538 0.019714 0.869000
-0.020646 -0.015550 0.861000
0.015664 0.006130 0.870000
0.019135 -0.000313 0.865000
-0.048869 0.005739 0.865000
0.039509 -0.021878 0.859000
0.010984 0.023622 0.868000
0.034009 -0.006351 0.863000
-0.043000 -0.024834 0.876000
0.020460 -0.033127 0.876000
0.038582 -0.006344 0.862000
-0.010002 -0.017656 0.860000
-0.011868 -0.005667 0.867000
0.034519 -0.017614 0.858000
0.032588 -0.028728 0.863000
-0.035860 0.005766 0.869000
-0.026856 -0.002812 0.867000
-0.016786 -0.009903 0.863000
-0.001170 0.011182 0.873000
0.033927 0.017589 0.870000
0.010958 -0.006729 0.866000
0.024305 -0.015514 0.859000
0.020062 -0.017989 0.859000
0.038582 0.017231 0.870000
-0.051823 0.009544 0.855000
-0.038320 0.000757 0.868000
-0.043372 0.020072 0.869000
-0.047911 -0.002812 0.867000
0.037736 0.007180 0.867000
0.005273 -0.028928 0.869000
-0.037377 0.010081 0.871000
0.041921 0.003959 0.865000
0.011380 0.005779 0.871000
0.002035 -0.013778 0.861000
0.032457 0.022576 0.869000
-0.050239 0.001808 0.858000
0.032034 -0.034248 0.877000
-0.017281 0.009711 0.870000
0.038582 0.017589 0.870000
-0.024658 -0.006010 0.865000
-0.039346 -0.001028 0.867000
0.043448 -0.010576 0.860000
0.025336 -0.021852 0.858000
-0.025312 -0.023400 0.863000
-0.030846 -0.030346 0.879000
-0.035613 -0.021624 0.863000
-0.009727 -0.007094 0.867000
0.029255 -0.017281 0.859000
-0.051580 0.005996 0.851000
0.009112 -0.024027 0.860000
-0.029031 -0.003887 0.868000
-0.000452 -0.030533 0.874000
-0.024274 -0.009559 0.864000
0.039110 -0.016908 0.858000
0.038627 -0.002444 0.863000
0.018359 -0.007408 0.862000
-0.006194 0.009016 0.872000
0.021452 -0.020086 0.858000
-0.035984 0.013322 0.872000
-0.003681 0.016911 0.872000
-0.008961 -0.012375 0.862000
-0.015794 -0.026363 0.867000
0.036808 -0.028340 0.862000
0.043600 0.013895 0.863000
-0.036365 -0.009914 0.864000
-0.023583 -0.030312 0.878000
0.021148 -0.013408 0.860000
-0.008636 -0.009214 0.865000
-0.025667 -0.012744 0.863000
0.008522 0.009374 0.872000
0.004224 0.008677 0.874000
-0.042014 -0.005739 0.878000
-0.025841 0.031435 0.857000
-0.040291 0.019424 0.872000
0.016719 0.007912 0.869000
0.041630 -0.014453 0.859000
0.012991 -0.019756 0.859000
0.008502 -0.029677 0.870000
-0.050176 -0.001378 0.863000
0.032777 0.003615 0.868000
0.014931 0.003620 0.869000
0.015306 0.011143 0.870000
-0.003660 -0.007094 0.867000
0.004950 -0.031288 0.875000
0.004521 -0.012730 0.862000
-0.005445 -0.006380 0.867000
0.016661 -0.001739 0.866000
0.037336 0.004676 0.866000
0.044917 -0.002084 0.861000
-0.017142 -0.024466 0.863000
-0.002923 -0.022257 0.860000
0.000626 0.010451 0.872000
-0.007961 0.021503 0.869000
-0.028997 -0.025293 0.867000
-0.012864 -0.013084 0.862000
-0.001889 0.008667 0.873000
0.027647 -0.006714 0.864000
0.020915 0.000043 0.865000
-0.030817 -0.003887 0.868000
-0.011813 -0.010613 0.863000
0.007029 -0.009214 0.865000
0.020770 -0.023645 0.859000
-0.013342 0.027257 0.870000
0.044864 -0.011992 0.860000
0.024860 0.004320 0.866000
-0.032358 0.009005 0.871000
-0.009783 0.015476 0.872000
0.022891 -0.018342 0.859000
-0.051064 -0.000665 0.860000
0.033173 0.012204 0.869000
0.048431 -0.003424 0.842000
0.019355 -0.016928 0.859000
0.039292 -0.007408 0.862000
-0.004339 -0.021195 0.860000
0.034912 -0.026474 0.859000
0.017962 -0.013408 0.860000
-0.024499 0.015476 0.872000
-0.009500 -0.031793 0.879000
0.009665 -0.032841 0.878000
0.033459 -0.024677 0.858000
0.007454 0.012978 0.873000
-0.047856 -0.003522 0.866000
-0.032641 0.000758 0.869000
-0.037919 -0.000314 0.867000
-0.014009 -0.004239 0.867000
0.023708 -0.004575 0.863000
0.032457 0.003977 0.869000
-0.023508 -0.013439 0.862000
-0.040184 -0.015213 0.862000
0.041872 0.000754 0.864000
0.027873 -0.012700 0.860000
-0.015544 0.019446 0.873000
0.025779 -0.012006 0.861000
-0.013731 0.016911 0.872000
-0.020862 0.011501 0.870000
-0.035625 0.020859 0.872000
-0.029557 0.007948 0.873000
0.023818 0.006823 0.867000
-0.026591 0.025466 0.870000
0.034831 -0.021827 0.857000
0.001333 -0.009926 0.865000
0.014862 -0.028083 0.865000
0.045519 -0.013039 0.859000
0.034831 -0.020416 0.857000
-0.010710 -0.017302 0.860000
-0.030241 0.006503 0.872000
0.034206 0.005759 0.868000
-0.021860 0.027163 0.867000
0.024277 -0.023618 0.858000
0.009643 -0.032045 0.876000
-0.045823 0.016834 0.868000
-0.034152 -0.016277 0.862000
0.039292 -0.004924 0.862000
-0.011937 -0.028669 0.872000
0.024588 0.012919 0.869000
0.001334 -0.007086 0.866000
0.041984 -0.015160 0.859000
0.006361 0.019760 0.871000
0.004938 0.012619 0.873000
0.024482 -0.033925 0.878000
0.006339 0.022550 0.868000
0.024983 -0.019733 0.858000
-0.005848 -0.030174 0.874000
-0.027401 0.023398 0.873000
-0.030635 0.018009 0.873000
-0.030565 0.005420 0.871000
-0.040893 -0.020180 0.862000
0.042534 -0.001733 0.863000
-0.049581 -0.001737 0.865000
-0.034907 0.014040 0.872000
-0.044036 0.000043 0.868000
-0.021231 0.032103 0.856000
0.048770 -0.018235 0.854000
0.037150 0.017231 0.870000
0.017983 -0.010589 0.861000
0.046689 -0.003501 0.861000
0.013391 -0.009891 0.862000
0.009599 0.015835 0.872000
0.009187 -0.028504 0.867000
0.019135 -0.001737 0.865000
-0.028641 -0.004953 0.867000
-0.009294 -0.019779 0.860000
-0.006515 -0.007808 0.867000
-0.024001 -0.025650 0.867000
-0.011813 -0.024821 0.863000
0.033530 0.012919 0.869000
0.024975 0.015082 0.870000
-0.010368 -0.022637 0.861000
0.035359 0.016873 0.870000
0.030351 -0.013408 0.860000
0.044156 0.005352 0.860000
-0.021860 -0.000314 0.867000
0.003142 0.014056 0.873000
0.042277 0.006095 0.865000
-0.020099 0.026837 0.868000
0.020109 -0.010943 0.861000
-0.027761 0.024117 0.873000
-0.010095 -0.004959 0.868000
-0.008706 0.020141 0.872000
0.021060 -0.031145 0.871000
0.044259 0.011041 0.862000
-0.032791 0.016571 0.873000
-0.022320 0.013666 0.871000
0.027807 0.012919 0.869000
0.046580 -0.011271 0.859000
0.014914 -0.029252 0.868000
-0.014074 0.011515 0.871000
-0.029253 0.028136 0.864000
-0.010735 -0.023728 0.862000
-0.009316 -0.012375 0.862000
0.013531 0.014741 0.871000
-0.010501 -0.029028 0.872000
-0.026670 -0.018030 0.861000
-0.038143 -0.009203 0.864000
-0.004339 -0.020133 0.860000
-0.039886 0.010439 0.871000
0.029997 -0.012346 0.860000
-0.026899 0.032493 0.857000
-0.010810 -0.002458 0.868000
-0.013372 0.018706 0.872000
-0.032036 0.015835 0.872000
-0.040337 -0.026905 0.873000
-0.014638 -0.013794 0.862000
-0.048769 0.011682 0.857000
0.027102 -0.020793 0.858000
0.001328 -0.011665 0.862000
-0.035654 -0.009914 0.864000
-0.043322 0.001829 0.868000
-0.003323 0.017629 0.872000
0.039831 0.006815 0.866000
-0.016884 0.001829 0.868000
0.000263 -0.019049 0.859000
-0.008328 0.021169 0.870000
-0.007879 -0.018009 0.860000
-0.021961 0.012949 0.871000
0.007471 0.008686 0.875000
0.000618 -0.025502 0.862000
0.036076 0.019021 0.870000
-0.039119 -0.020180 0.862000
0.039969 0.014707 0.869000
-0.020527 0.014024 0.871000
-0.019833 0.015835 0.872000
-0.026203 0.026152 0.869000
0.005566 -0.020110 0.859000
-0.037692 0.008637 0.870000
-0.014604 -0.018717 0.860000
-0.000092 0.021145 0.869000
-0.013558 -0.016259 0.861000
0.035348 -0.010589 0.861000
-0.019651 -0.008847 0.864000
0.039909 -0.011638 0.860000
0.041256 0.006815 0.866000
0.047794 -0.001346 0.843000
-0.042902 -0.019022 0.874000
-0.014638 -0.023728 0.862000
-0.030172 -0.001031 0.870000
-0.018874 -0.020511 0.861000
0.042890 0.003950 0.863000
-0.048232 0.015263 0.860000
-0.015330 -0.020865 0.861000
0.021394 0.016156 0.870000
-0.024858 0.016552 0.872000
-0.037700 -0.018406 0.862000
-0.020790 0.000757 0.867000
0.043448 0.005706 0.860000
0.023598 -0.016574 0.859000
0.041709 0.013261 0.868000
0.026468 -0.031540 0.872000
0.023571 -0.021852 0.858000
-0.008347 0.014399 0.872000
-0.009065 0.015835 0.872000
0.001693 -0.006023 0.867000
-0.035778 -0.001028 0.867000
-0.012998 0.012232 0.871000
-0.011418 -0.020133 0.860000
-0.033472 0.014758 0.872000
0.029391 -0.008482 0.863000
-0.001153 -0.020133 0.860000
0.008881 0.010451 0.872000
0.018087 0.001112 0.866000
-0.029185 -0.015568 0.862000
0.008881 0.014758 0.872000
-0.030995 -0.010613 0.863000
-0.005105 0.020453 0.870000
-0.005476 -0.029387 0.872000
-0.006180 0.020453 0.870000
0.005657 -0.030498 0.873000
-0.034667 -0.004591 0.866000
-0.011772 -0.017656 0.860000
0.032121 -0.012346 0.860000
-0.033113 0.015117 0.872000
0.015646 0.004335 0.869000
-0.025756 -0.004591 0.866000
0.027418 0.006831 0.868000
-0.036365 -0.010981 0.864000
-0.032791 0.019087 0.873000
0.031059 -0.014470 0.860000
-0.041440 -0.003522 0.866000
-0.030600 0.007221 0.872000
0.017588 -0.022585 0.859000
-0.007271 0.008298 0.872000
0.036919 -0.033373 0.873000
-0.005768 -0.012375 0.862000
-0.020862 0.011143 0.870000
-0.010810 -0.027108 0.868000
-0.047966 0.008617 0.868000
0.025484 -0.028018 0.863000
0.021856 -0.013762 0.860000
0.017435 0.007554 0.869000
0.037034 -0.014453 0.859000
0.029272 0.021886 0.870000
-0.011937 0.013322 0.872000
0.033498 -0.016221 0.859000
-0.041631 0.008279 0.870000
0.023344 -0.033487 0.876000
-0.012998 0.011156 0.871000
-0.038677 0.000757 0.868000
-0.009065 0.019424 0.872000
-0.000091 -0.016594 0.860000
0.030022 0.019401 0.871000
0.040971 -0.011638 0.860000
0.025690 -0.021852 0.858000
-0.044342 -0.002812 0.867000
-0.035380 -0.004947 0.866000
0.025100 -0.009182 0.862000
0.031384 0.014349 0.869000
0.003465 -0.026628 0.864000
-0.012211 -0.006729 0.866000
0.006303 -0.026597 0.863000
0.031742 0.013634 0.869000
0.033608 -0.032221 0.871000
-0.001530 -0.030139 0.873000
-0.013234 -0.009548 0.863000
0.014199 -0.000314 0.868000
-0.031705 -0.022335 0.863000
0.031340 -0.021146 0.858000
0.023024 -0.001024 0.864000
0.035156 -0.029507 0.865000
0.006735 0.011900 0.873000
0.018550 0.019401 0.871000
-0.032733 -0.015568 0.862000
0.016380 0.008279 0.870000
0.006719 0.018684 0.871000
-0.003643 -0.011324 0.863000
-0.021986 0.025166 0.872000
-0.034867 0.012949 0.871000
-0.004414 -0.030568 0.875000
-0.040539 -0.017342 0.862000
0.042337 -0.015867 0.859000
-0.039875 -0.014165 0.863000
-0.039520 -0.013455 0.863000
0.032495 0.018305 0.870000
-0.001528 0.016194 0.872000
0.017394 0.002541 0.867000
-0.021578 0.010785 0.870000
-0.023315 0.002544 0.868000
0.028714 -0.007425 0.864000
0.038756 -0.017614 0.858000
-0.032847 -0.007078 0.865000
-0.047197 0.015030 0.867000
0.028133 0.007902 0.868000
0.002741 -0.023319 0.860000
-0.004704 -0.012730 0.862000
0.027260 -0.028018 0.863000
0.037465 0.013992 0.869000
0.040169 -0.016908 0.858000
-0.043014 0.005766 0.869000
-0.026233 0.005414 0.870000
0.015893 -0.027307 0.863000
0.031098 0.019401 0.871000
0.031340 -0.019733 0.858000
0.020770 -0.017635 0.859000
0.015466 -0.021524 0.859000
-0.013357 0.007930 0.871000
0.034404 -0.003513 0.864000
0.023461 0.006466 0.867000
0.006009 0.016911 0.872000
0.042081 -0.009171 0.861000
0.005340 -0.032916 0.880000
0.004859 -0.022231 0.859000
-0.014791 0.009722 0.871000
-0.038722 0.005050 0.869000
0.015288 0.002547 0.869000
0.034524 0.003611 0.867000
-0.046894 0.002186 0.868000
0.024983 -0.020440 0.858000
-0.023315 0.002901 0.868000
-0.009327 -0.010968 0.863000
0.038359 -0.020416 0.857000
-0.020362 -0.006714 0.864000
0.012456 0.015099 0.871000
0.043245 0.012830 0.863000
-0.008357 0.012619 0.873000
0.016041 0.017967 0.871000
-0.033753 0.006130 0.870000
0.031420 0.015440 0.870000
-0.014250 -0.020133 0.860000
0.033852 -0.015514 0.859000
-0.017852 -0.010258 0.863000
0.001681 -0.015195 0.861000
0.028902 -0.016574 0.859000
-0.009716 -0.007799 0.866000
0.033173 0.011488 0.869000
0.023980 -0.025797 0.860000
-0.041844 -0.001385 0.867000
0.039292 -0.005279 0.862000
-0.023945 -0.030312 0.878000
-0.046786 -0.003522 0.866000
-0.006144 -0.009926 0.865000
-0.028740 0.001117 0.870000
-0.005476 0.009733 0.872000
-0.017161 -0.007425 0.864000
0.036517 -0.032617 0.872000
-0.013945 -0.010258 0.863000
-0.000091 -0.023700 0.861000
-0.043729 0.003262 0.869000
-0.018186 -0.014149 0.862000
0.032891 -0.032221 0.871000
-0.030569 -0.018030 0.861000
0.044208 -0.001729 0.861000
0.009522 -0.027371 0.865000
-0.004404 0.014416 0.873000
-0.027496 -0.029161 0.876000
0.017833 0.019043 0.871000
-0.005413 -0.012375 0.862000
0.009455 -0.018342 0.859000
-0.016603 0.017988 0.872000
0.048431 -0.013127 0.842000
-0.027182 -0.004947 0.866000
0.005267 -0.028537 0.868000
0.047547 -0.004511 0.851000
0.013021 -0.025472 0.861000
-0.036343 0.015117 0.872000
-0.005407 -0.014841 0.861000
0.026550 -0.006351 0.863000
0.024258 0.021886 0.870000
-0.041583 0.020072 0.869000
0.036392 0.021860 0.869000
0.037088 -0.034248 0.877000
-0.017122 -0.012375 0.862000
0.034800 -0.029507 0.865000
0.021099 -0.021146 0.858000
-0.042007 -0.021269 0.863000
-0.044906 0.010798 0.871000
0.016343 0.022907 0.868000
0.031377 -0.017281 0.859000
0.015949 -0.003522 0.866000
-0.034587 -0.010626 0.864000
-0.024555 0.021627 0.874000
-0.018355 0.011501 0.870000
-0.004404 0.014056 0.873000
0.020963 0.023238 0.867000
0.002776 -0.029353 0.871000
-0.045413 -0.000671 0.867000
0.038092 0.009678 0.867000
0.007021 -0.010270 0.864000
-0.022396 -0.028735 0.874000
-0.036954 -0.029227 0.878000
-0.015668 -0.031467 0.880000
-0.046644 0.007563 0.870000
0.039474 0.007171 0.866000
-0.009381 -0.004244 0.868000
-0.006568 -0.030174 0.874000
-0.043372 0.004693 0.869000
0.011393 0.012963 0.872000
0.011590 -0.015532 0.860000
0.017772 0.005402 0.868000
0.037961 -0.029473 0.864000
-0.003652 -0.009570 0.865000
0.002406 -0.006023 0.867000
-0.013357 0.011873 0.871000
0.038005 0.001467 0.865000
0.013142 -0.029643 0.869000
-0.002243 0.019760 0.871000
-0.048643 0.010674 0.861000
-0.012640 0.006137 0.871000
0.014085 -0.012006 0.861000
-0.006109 -0.022257 0.860000
0.011577 -0.020110 0.859000
-0.040774 -0.002098 0.867000
0.028781 -0.002809 0.866000
-0.037345 -0.020180 0.862000
0.021222 -0.004930 0.863000
-0.041248 -0.019116 0.862000
0.042890 0.001819 0.863000
-0.031031 -0.009203 0.864000
-0.033280 -0.024936 0.867000
-0.007998 0.011182 0.873000
-0.040650 0.019065 0.872000
-0.011538 -0.027497 0.869000
0.023245 -0.017281 0.859000
0.026225 -0.028406 0.864000
0.024688 -0.012700 0.860000
0.000626 0.016552 0.872000
-0.043272 -0.001385 0.867000
-0.003656 -0.009224 0.866000
0.017435 0.009342 0.869000
0.016022 0.008995 0.870000
-0.010380 -0.013084 0.862000
0.025333 0.016156 0.870000
-0.036365 -0.010626 0.864000
-0.034587 -0.008847 0.864000
0.017435 0.008627 0.869000
0.012814 0.018326 0.871000
0.007334 -0.019403 0.859000
-0.019787 0.011143 0.870000
-0.020456 0.026837 0.868000
0.027455 -0.019027 0.858000
-0.006825 -0.015195 0.861000
0.016249 -0.007061 0.863000
0.016527 -0.022585 0.859000
-0.002930 -0.012020 0.862000
0.041921 0.005027 0.865000
0.040947 0.010034 0.867000
-0.053325 0.005759 0.868000
0.021652 0.002894 0.866000
-0.019137 0.023398 0.873000
-0.003281 -0.014132 0.861000
0.046280 -0.010222 0.860000
-0.037034 -0.011679 0.863000
-0.004693 -0.020487 0.860000
-0.027088 -0.023045 0.863000
0.036496 -0.002799 0.863000
-0.028905 -0.028767 0.875000
-0.010356 -0.021195 0.860000
-0.013715 0.010081 0.871000
-0.030635 0.011541 0.873000
-0.034072 0.003620 0.869000
0.047729 -0.010080 0.848000
-0.015684 -0.016967 0.861000
0.005947 -0.010968 0.863000
-0.042445 0.015476 0.872000
-0.042705 0.006130 0.870000
0.044917 -0.002792 0.861000
0.033888 -0.031432 0.869000
0.014759 -0.022585 0.859000
0.010316 0.012246 0.872000
0.048021 -0.014948 0.847000
-0.025786 -0.001385 0.867000
-0.014466 0.022320 0.873000
0.035266 -0.026827 0.859000
0.001683 -0.012375 0.862000
0.037300 -0.020063 0.857000
-0.039437 0.005050 0.869000
-0.051123 0.014572 0.861000
-0.008347 0.009733 0.872000
0.030264 -0.034287 0.878000
-0.006523 0.021478 0.868000
-0.008319 0.022576 0.869000
0.019732 -0.015532 0.860000
0.032437 -0.016221 0.859000
-0.010465 0.023649 0.869000
-0.036218 0.005050 0.869000
-0.044138 0.006846 0.870000
0.039417 -0.021474 0.857000
-0.032256 -0.029589 0.878000
0.038851 0.012547 0.868000
-0.018896 -0.012730 0.862000
0.023407 0.002179 0.865000
-0.032135 -0.006010 0.865000
0.029962 -0.016221 0.859000
0.011393 0.010810 0.872000
0.008881 0.015476 0.872000
0.025366 -0.025060 0.859000
-0.010710 -0.017656 0.860000
-0.043162 0.017270 0.872000
-0.018455 0.032178 0.858000
-0.017811 -0.017676 0.861000
0.030563 -0.005660 0.866000
0.012799 -0.030035 0.870000
0.036350 0.010403 0.868000
-0.047499 0.013587 0.866000
-0.010026 -0.011665 0.862000
0.030387 -0.010234 0.861000
-0.017749 0.032531 0.858000
0.023326 -0.008472 0.862000
-0.034707 -0.028440 0.876000
-0.013028 -0.029061 0.873000
0.028581 -0.012346 0.860000
0.017234 -0.017281 0.859000
0.042534 0.001108 0.863000
0.033173 0.015422 0.869000
-0.035943 0.012232 0.871000
0.008881 0.011528 0.872000
0.010920 -0.009903 0.863000
-0.003323 0.018347 0.872000
-0.002950 0.022907 0.868000
0.009957 0.012963 0.872000
-0.026949 0.002191 0.870000
-0.014106 0.019446 0.873000
0.035889 -0.022179 0.857000
0.025012 -0.016574 0.859000
-0.035266 0.014758 0.872000
-0.020433 0.000400 0.867000
0.026488 -0.010589 0.861000
0.032420 0.003258 0.868000
0.042641 -0.017968 0.858000
-0.003994 -0.011665 0.862000
0.013531 0.016892 0.871000
-0.006201 0.013697 0.873000
-0.029506 -0.016613 0.861000
-0.041178 0.000400 0.868000
0.009889 -0.007799 0.866000
0.015288 0.003620 0.869000
0.028781 -0.004234 0.866000
0.003095 -0.018009 0.860000
0.026225 -0.004225 0.864000
-0.039657 -0.004591 0.866000
-0.009305 -0.021929 0.861000
-0.024601 -0.010968 0.863000
-0.011219 0.009374 0.872000
0.000980 0.022193 0.868000
-0.012998 0.010798 0.871000
-0.017831 -0.012730 0.862000
0.006376 0.012978 0.873000
0.015682 0.019401 0.871000
-0.036933 0.004693 0.869000
0.029205 0.004687 0.868000
-0.016057 -0.012020 0.862000
0.022564 -0.015178 0.860000
-0.033151 0.020165 0.873000
-0.047911 -0.001741 0.867000
-0.010049 -0.009914 0.864000
-0.006904 0.019401 0.871000
-0.020433 0.002184 0.867000
-0.008940 -0.020841 0.860000
0.032046 -0.024677 0.858000
0.001679 -0.022257 0.860000
-0.003303 -0.005667 0.867000
-0.011786 -0.014487 0.861000
-0.011786 -0.014132 0.861000
0.036141 -0.028728 0.863000
-0.030569 -0.019094 0.861000
0.014793 -0.010943 0.861000
0.005219 -0.016594 0.860000
-0.025136 0.032493 0.857000
0.000971 -0.016594 0.860000
0.006002 0.019401 0.871000
0.005650 0.011528 0.872000
0.006980 -0.019756 0.859000
0.039831 0.006102 0.866000
0.019626 0.017250 0.871000
0.013890 0.015458 0.871000
0.012456 0.019043 0.871000
0.021099 -0.019733 0.858000
-0.040697 0.017649 0.873000
0.000618 -0.014841 0.861000
-0.022957 0.003615 0.868000
0.030311 0.005408 0.869000
0.019778 -0.008472 0.862000
-0.028839 0.019446 0.873000
-0.029354 -0.025293 0.867000
0.009102 -0.019049 0.859000
0.014590 0.021169 0.870000
-0.040510 0.006123 0.869000
0.024305 -0.023999 0.859000
-0.000452 0.012619 0.873000
-0.025962 -0.018030 0.861000
0.020678 0.014724 0.870000
0.047827 -0.009470 0.856000
-0.040184 -0.018406 0.862000
0.038048 0.006102 0.866000
-0.032246 -0.003172 0.868000
0.008191 -0.031649 0.875000
-0.028153 -0.012389 0.863000
0.025690 -0.023618 0.858000
-0.011895 -0.001030 0.869000
0.000970 -0.020463 0.859000
-0.020169 -0.027561 0.871000
-0.022772 -0.018385 0.861000
-0.006553 0.016194 0.872000
0.002779 0.015476 0.872000
-0.032679 0.004340 0.870000
-0.030995 -0.027264 0.873000
-0.023037 0.012949 0.871000
0.028681 -0.008127 0.863000
-0.018313 0.026837 0.868000
0.028880 0.007196 0.869000
0.001700 0.018326 0.871000
-0.020574 0.019446 0.873000
-0.005470 0.019401 0.871000
-0.016450 -0.024850 0.864000
0.009499 -0.010968 0.863000
0.014811 -0.009537 0.862000
0.018692 -0.013069 0.861000
-0.042964 0.002901 0.868000
-0.041320 -0.005693 0.871000
-0.018080 0.021627 0.874000
0.035225 -0.017968 0.858000
0.029609 -0.016928 0.859000
-0.028839 0.011541 0.873000
0.006627 -0.018342 0.859000
-0.033113 0.014040 0.872000
-0.039079 0.006481 0.869000
0.031098 0.020118 0.871000
0.022511 -0.021499 0.858000
0.003095 -0.016594 0.860000
-0.019005 0.000400 0.867000
-0.029557 0.010822 0.873000
0.017751 0.022881 0.867000
0.038582 0.016873 0.870000
-0.036343 0.015835 0.872000
-0.016603 0.016552 0.872000
0.022084 0.011488 0.869000
0.021295 0.004320 0.866000
0.040664 -0.009526 0.861000
0.016900 -0.014470 0.860000
-0.033088 -0.016987 0.862000
-0.015132 0.008279 0.870000
0.002061 0.017270 0.872000
-0.027401 0.024476 0.873000
-0.013388 0.019087 0.873000
0.025750 -0.031181 0.872000
0.021502 -0.014116 0.860000
-0.038588 -0.003165 0.866000
0.006719 0.017250 0.871000
0.002038 -0.025502 0.862000
0.036637 -0.017614 0.858000
-0.035298 -0.010626 0.864000
-0.006864 -0.008868 0.866000
-0.026408 -0.007425 0.864000
0.033096 0.001827 0.867000
0.031778 0.021886 0.870000
0.016527 -0.023645 0.859000
0.030634 -0.024324 0.858000
0.021627 0.000399 0.865000
0.033530 0.011488 0.869000
0.003102 -0.012375 0.862000
0.018757 -0.002447 0.864000
-0.000810 0.017988 0.872000
-0.037677 -0.029227 0.878000
0.040590 0.009321 0.867000
-0.019340 -0.000314 0.866000
0.036979 0.005033 0.866000
-0.034346 -0.028800 0.876000
0.014248 0.007213 0.871000
-0.048212 0.009666 0.866000
-0.020386 -0.006010 0.865000
-0.048344 0.011396 0.862000
0.008512 0.020118 0.871000
-0.047554 -0.002812 0.867000
-0.023368 0.008995 0.870000
0.006324 -0.008155 0.866000
-0.037822 0.017649 0.873000
0.046280 -0.010576 0.860000
-0.020053 -0.025620 0.866000
-0.004354 -0.011324 0.863000
-0.019563 -0.029882 0.876000
-0.019696 0.027488 0.866000
-0.011471 -0.009203 0.864000
0.016700 0.002901 0.868000
-0.025253 -0.020865 0.861000
-0.012253 -0.027497 0.869000
-0.038094 -0.026127 0.871000
-0.017102 -0.021574 0.861000
0.030670 -0.016574 0.859000
0.030022 0.020477 0.871000
0.043499 -0.007399 0.861000
0.040356 -0.004570 0.862000
0.034128 0.002181 0.866000
-0.011219 0.020141 0.872000
-0.035571 -0.019116 0.862000
0.013052 -0.026952 0.863000
-0.014791 0.010439 0.871000
0.017097 0.016514 0.870000
0.021777 0.020477 0.871000
0.038136 -0.031038 0.868000
0.000263 -0.015532 0.860000
-0.048925 -0.001027 0.866000
0.036369 -0.012346 0.860000
-0.019674 -0.004942 0.865000
0.023818 0.007893 0.867000
0.002420 0.016194 0.872000
-0.050239 0.002161 0.858000
0.048531 -0.019335 0.856000
-0.009381 -0.003887 0.868000
-0.001887 0.017270 0.872000
-0.038232 -0.004947 0.866000
-0.022371 0.018727 0.873000
-0.051595 -0.003918 0.875000
0.020203 0.000399 0.865000
0.002387 -0.018009 0.860000
-0.010501 0.012246 0.872000
-0.040915 0.006846 0.870000
-0.027056 -0.021954 0.862000
0.016719 0.007554 0.869000
0.000983 0.019043 0.871000
0.020464 -0.026181 0.861000
-0.051884 0.001804 0.856000
0.009112 -0.016240 0.860000
0.028068 -0.002096 0.866000
0.007402 -0.006023 0.867000
-0.010501 0.012963 0.872000
0.026134 -0.012006 0.861000
-0.022548 -0.002096 0.866000
-0.036365 -0.008847 0.864000
0.031778 0.016156 0.870000
-0.014466 0.019087 0.873000
0.015628 -0.029252 0.868000
-0.024274 -0.009203 0.864000
0.032046 -0.024324 0.858000
-0.040727 -0.004234 0.866000
0.024305 -0.015867 0.859000
-0.009424 0.014758 0.872000
0.040590 0.008964 0.867000
-0.011193 0.024750 0.870000
-0.028864 -0.012034 0.863000
-0.016942 -0.027919 0.871000
-0.011432 -0.022637 0.861000
-0.022772 -0.019802 0.861000
0.026346 0.010403 0.868000
-0.002984 -0.032118 0.878000
-0.027401 0.010822 0.873000
-0.042656 0.020430 0.869000
-0.009435 0.011900 0.873000
0.029272 0.016873 0.870000
0.035237 0.023951 0.867000
-0.034192 -0.021624 0.863000
0.016738 0.014008 0.870000
0.042890 0.002174 0.863000
0.034599 -0.012346 0.860000
0.027165 -0.014824 0.860000
-0.009403 0.002550 0.870000
0.043195 0.007138 0.862000
0.011022 0.017967 0.871000
0.002423 0.013697 0.873000
0.028198 0.017589 0.870000
-0.034111 0.007204 0.870000
0.032383 -0.001385 0.867000
-0.023835 0.021267 0.874000
-0.017790 0.030483 0.860000
-0.036534 0.001115 0.868000
-0.019583 -0.019448 0.861000
-0.029591 0.021267 0.874000
0.029919 0.001472 0.868000
-0.003281 -0.023346 0.861000
0.041469 -0.003865 0.863000
-0.011064 -0.019779 0.860000
0.022237 -0.032729 0.875000
0.007795 0.016892 0.871000
0.019626 0.017967 0.871000
0.023218 -0.020086 0.858000
0.038403 -0.025383 0.858000
-0.036135 -0.002098 0.867000
0.013188 0.010810 0.872000
0.016527 -0.016574 0.859000
-0.024801 0.025466 0.870000
-0.025370 -0.006366 0.865000
0.043398 -0.015514 0.859000
-0.008252 -0.024083 0.862000
-0.011937 0.012605 0.872000
0.044355 0.001101 0.857000
-0.027056 -0.021599 0.862000
0.043904 -0.004924 0.862000
-0.016903 0.008269 0.869000
-0.005401 -0.021549 0.860000
-0.014058 0.025824 0.870000
-0.045212 0.007921 0.870000
0.006642 -0.013778 0.861000
0.003803 -0.015532 0.860000
0.032362 -0.022179 0.857000
0.011930 -0.019756 0.859000
-0.039474 -0.019471 0.862000
0.008163 0.015117 0.872000
-0.011591 0.020165 0.873000
-0.041966 -0.028111 0.877000
-0.008252 -0.012020 0.862000
0.013127 0.022550 0.868000
-0.017102 -0.022283 0.861000
-0.025370 -0.004942 0.865000
0.008769 -0.013424 0.861000
-0.010910 -0.030603 0.876000
-0.014825 0.018727 0.873000
0.047447 -0.003775 0.843000
-0.024544 -0.016259 0.861000
0.000617 -0.016240 0.860000
-0.022063 0.029455 0.861000
0.004511 -0.016240 0.860000
0.020654 0.012919 0.869000
0.009588 0.016533 0.871000
-0.013715 0.005779 0.871000
0.031205 -0.033051 0.874000
-0.040245 0.012232 0.871000
-0.011800 -0.023728 0.862000
-0.016507 -0.000671 0.867000
0.025690 -0.021499 0.858000
0.002766 0.022907 0.868000
-0.040153 -0.024994 0.869000
-0.017181 -0.025235 0.865000
0.035718 0.017947 0.870000
-0.019924 -0.029882 0.876000
-0.011064 -0.017656 0.860000
0.017983 -0.013069 0.861000
0.003465 -0.010270 0.864000
-0.021220 -0.027171 0.870000
0.019024 -0.025797 0.860000
-0.029964 -0.023783 0.864000
-0.039214 0.012963 0.872000
-0.030241 0.014758 0.872000
-0.028447 0.015835 0.872000
0.027743 0.023594 0.867000
0.018550 0.020477 0.871000
0.034246 0.013992 0.869000
0.040875 -0.017614 0.858000
-0.010760 -0.009914 0.864000
-0.032378 -0.014149 0.862000
0.010663 0.018326 0.871000
-0.016747 -0.021929 0.861000
0.025455 -0.008117 0.862000
0.004899 -0.007086 0.866000
0.031778 0.006846 0.870000
0.020794 -0.014824 0.860000
0.025507 -0.033487 0.876000
-0.006832 -0.012730 0.862000
-0.002602 -0.028994 0.871000
-0.039474 -0.015213 0.862000
-0.017161 -0.024850 0.864000
-0.006920 0.012260 0.873000
0.031669 -0.000671 0.867000
-0.023808 0.019087 0.873000
-0.023010 0.025824 0.870000
-0.028797 -0.017322 0.861000
0.041018 -0.009526 0.861000
-0.004725 -0.009224 0.866000
-0.044342 -0.000671 0.867000
-0.025815 0.000043 0.868000
0.023353 -0.028018 0.863000
0.047447 -0.004816 0.843000
-0.005099 -0.028213 0.869000
-0.031354 0.023398 0.873000
0.029885 -0.002098 0.867000
0.006642 -0.024763 0.861000
0.031450 -0.010234 0.861000
0.029238 0.011488 0.869000
-0.001507 -0.018009 0.860000
0.044208 -0.001021 0.861000
-0.036618 0.022244 0.870000
-0.017598 0.026837 0.868000
0.005298 0.012619 0.873000
-0.031677 0.013322 0.872000
-0.024112 0.014024 0.871000
-0.016113 -0.005654 0.865000
0.042584 0.005021 0.864000
0.003838 -0.028180 0.868000
0.035184 -0.022885 0.857000
-0.020694 -0.011679 0.863000
-0.018627 -0.002452 0.866000
-0.017102 -0.015904 0.861000
0.019267 0.018326 0.871000
-0.013652 -0.026363 0.867000
-0.021734 -0.012375 0.862000
0.025838 -0.033089 0.875000
-0.016884 0.003615 0.868000
-0.022957 0.005402 0.868000
0.012069 -0.029286 0.869000
0.019378 -0.015886 0.860000
0.031420 0.006130 0.870000
-0.034469 -0.026097 0.870000
-0.002593 0.022193 0.868000
0.012111 0.011169 0.872000
-0.015419 -0.003522 0.866000
0.044510 -0.011284 0.860000
-0.047306 0.005408 0.869000
-0.012998 0.011873 0.871000
-0.042445 0.012605 0.872000
0.032815 0.009700 0.869000
0.006295 -0.025857 0.862000
0.005298 -0.030498 0.873000
0.039155 -0.014807 0.859000
-0.016507 0.027163 0.867000
0.048719 -0.010689 0.841000
-0.024898 -0.018739 0.861000
-0.019960 -0.012375 0.862000
0.010245 -0.007799 0.866000
0.034206 -0.031038 0.868000
0.000623 0.023291 0.869000
-0.028707 -0.002461 0.869000
-0.001530 0.011182 0.873000
-0.051411 0.002503 0.854000
0.021060 -0.030428 0.871000
-0.048324 0.003615 0.868000
-0.007533 -0.016259 0.861000
0.034088 -0.029507 0.865000
0.019847 -0.001025 0.865000
0.003453 -0.013424 0.861000
-0.030959 -0.014504 0.862000
-0.027433 0.022346 0.874000
-0.002936 -0.010270 0.864000
-0.033797 -0.019825 0.862000
-0.019429 0.011859 0.870000
0.030987 -0.022205 0.858000
-0.033481 -0.011324 0.863000
-0.011103 -0.009903 0.863000
0.047827 -0.015812 0.856000
-0.034390 0.000757 0.868000
-0.020053 -0.001027 0.866000
-0.020099 0.004687 0.868000
-0.036051 -0.007078 0.865000
0.048316 -0.010330 0.840000
-0.012611 -0.000672 0.869000
0.038403 -0.019027 0.858000
-0.008034 -0.031360 0.877000
-0.046644 0.008637 0.870000
-0.015757 -0.025235 0.865000
0.028548 -0.017281 0.859000
-0.037103 0.016212 0.873000
0.008395 -0.020463 0.859000
-0.018648 0.001113 0.867000
-0.032432 0.021961 0.873000
0.007804 0.010451 0.872000
-0.022600 0.004330 0.868000
-0.006123 -0.024792 0.862000
0.021777 -0.031145 0.871000
-0.001889 0.014416 0.873000
-0.014638 -0.023373 0.862000
0.032308 -0.006010 0.865000
-0.031210 -0.025709 0.869000
0.043550 -0.004215 0.862000
0.008799 -0.026983 0.864000
-0.038094 0.012590 0.871000
-0.028409 0.029775 0.860000
-0.041344 -0.022361 0.864000
-0.033481 -0.012744 0.863000
-0.031713 0.022320 0.873000
-0.008300 -0.005310 0.867000
0.032753 -0.022912 0.858000
-0.030671 -0.026936 0.874000
0.035001 -0.031826 0.870000
0.036936 0.003247 0.865000
0.021246 -0.003158 0.864000
-0.034469 0.006846 0.870000
0.037518 -0.007053 0.862000
-0.010489 -0.028277 0.871000
-0.043372 0.019714 0.869000
0.031062 0.018305 0.870000
-0.046286 0.008995 0.870000
0.007768 0.023264 0.868000
-0.021936 0.008995 0.870000
-0.033472 0.014399 0.872000
-0.007630 0.007580 0.872000
-0.024772 0.005766 0.869000
-0.014399 0.026152 0.869000
0.014590 0.021528 0.870000
-0.021454 -0.003517 0.865000
0.026673 0.005752 0.867000
0.000972 -0.024055 0.861000
-0.035737 -0.002809 0.866000
-0.000091 -0.017302 0.860000
0.036680 -0.015160 0.859000
0.006681 -0.006729 0.866000
0.040309 -0.010234 0.861000
-0.022756 0.021986 0.874000
0.024091 -0.001380 0.864000
0.028556 0.015440 0.870000
0.035718 0.019737 0.870000
0.036766 -0.010589 0.861000
0.013826 -0.002812 0.867000
0.028902 -0.016221 0.859000
0.042081 -0.009526 0.861000
-0.023918 -0.024139 0.864000
0.040994 0.012904 0.868000
0.026073 -0.024352 0.859000
-0.011937 0.018347 0.872000
0.037387 -0.014100 0.859000
-0.020598 0.021627 0.874000
-0.019005 -0.026007 0.867000
0.013500 0.001831 0.869000
-0.045623 0.010798 0.871000
0.024035 -0.006698 0.862000
0.027935 -0.032295 0.873000
0.012097 -0.030428 0.871000
-0.029253 -0.008492 0.864000
-0.023617 -0.002096 0.866000
0.038180 0.014707 0.869000
-0.033433 0.010798 0.871000
-0.038810 -0.013455 0.863000
-0.032283 0.000401 0.869000
0.014607 0.009364 0.871000
-0.033472 0.015117 0.872000
-0.015330 -0.016967 0.861000
0.035661 -0.027566 0.860000
-0.011498 -0.007442 0.866000
-0.029540 -0.021244 0.862000
0.034599 -0.027566 0.860000
0.023681 -0.008827 0.862000
-0.007171 -0.021549 0.860000
0.036099 -0.005989 0.862000
-0.025188 0.012949 0.871000
-0.038188 -0.005654 0.865000
-0.016150 -0.001028 0.867000
-0.004693 -0.016594 0.860000
-0.039749 0.001115 0.868000
-0.006920 0.014416 0.873000
-0.027602 0.026480 0.868000
0.025602 0.005395 0.867000
0.022135 0.017250 0.871000
0.031523 -0.028373 0.863000
0.012341 -0.009192 0.863000
0.006689 -0.006023 0.867000
0.008830 -0.005667 0.867000
0.045873 -0.013039 0.859000
-0.040557 0.006846 0.870000
-0.042509 -0.022412 0.866000
0.017234 -0.018696 0.859000
-0.005070 -0.025917 0.864000
-0.023890 -0.029521 0.876000
-0.023481 -0.016259 0.861000
-0.022825 -0.010258 0.863000
-0.040774 -0.001385 0.867000
-0.018605 0.027812 0.865000
0.047447 -0.005510 0.843000
-0.016431 -0.011324 0.863000
0.035359 0.020811 0.870000
-0.025637 -0.013439 0.862000
-0.000799 -0.017656 0.860000
-0.014074 0.015458 0.871000
0.000623 -0.028180 0.868000
0.025061 -0.030498 0.873000
0.036076 0.016514 0.870000
-0.036281 -0.015213 0.862000
-0.051170 0.009138 0.850000
-0.018961 -0.005298 0.865000
-0.002230 -0.008868 0.866000
-0.029524 0.006503 0.872000
0.038761 0.022141 0.866000
-0.012538 -0.009203 0.864000
-0.011432 -0.014841 0.861000
0.005968 -0.006729 0.866000
-0.049829 0.013001 0.851000
0.022918 -0.025797 0.860000
0.032063 0.002901 0.868000
0.047043 -0.004564 0.861000
-0.028479 0.012260 0.873000
0.044355 0.000748 0.857000
0.034831 -0.021121 0.857000
0.026286 0.001468 0.866000
-0.037377 0.010439 0.871000
0.015306 -0.030035 0.870000
0.044006 0.016045 0.864000
-0.002957 0.020453 0.870000
-0.005401 -0.020133 0.860000
-0.016076 -0.011324 0.863000
-0.020503 0.011501 0.870000
0.038361 0.001467 0.865000
0.034760 -0.001380 0.864000
-0.004736 0.022907 0.868000
-0.021911 0.006839 0.869000
0.008453 -0.009926 0.865000
-0.019273 -0.009192 0.863000
-0.022444 -0.015213 0.862000
0.002031 -0.020463 0.859000
-0.022652 0.009711 0.870000
0.016022 0.006846 0.870000
0.023104 0.023238 0.867000
0.005947 -0.026242 0.863000
-0.036991 -0.020890 0.862000
0.039923 0.012189 0.868000
-0.028839 0.011182 0.873000
0.003803 -0.023673 0.860000
-0.015348 -0.013439 0.862000
0.001323 -0.019403 0.859000
0.016719 0.005408 0.869000
0.010663 0.008288 0.871000
0.047681 -0.007574 0.841000
-0.015366 -0.010258 0.863000
-0.030923 -0.018739 0.861000
-0.032716 0.010439 0.871000
0.042890 -0.001023 0.863000
-0.016244 0.015476 0.872000
0.024716 -0.010589 0.861000
-0.029557 0.018727 0.873000
0.044355 0.000395 0.857000
0.043295 0.015334 0.864000
0.044407 -0.017261 0.858000
0.030991 0.001115 0.868000
-0.050883 -0.003891 0.869000
-0.001889 0.011541 0.873000
0.040923 -0.013746 0.859000
-0.031314 -0.014149 0.862000
0.033530 0.006481 0.869000
-0.016622 -0.028702 0.873000
-0.005058 -0.012020 0.862000
0.018550 -0.030787 0.871000
-0.000092 0.019043 0.871000
0.032739 -0.000671 0.867000
-0.032395 0.013322 0.872000
-0.022756 0.022706 0.874000
-0.040337 0.018009 0.873000
0.033888 0.010058 0.869000
-0.025839 -0.031140 0.881000
0.012814 0.014024 0.871000
0.004516 -0.013424 0.861000
0.036948 -0.022179 0.857000
0.010639 -0.002818 0.869000
0.049066 -0.010689 0.841000
0.026620 -0.033887 0.877000
0.001342 0.018326 0.871000
0.044812 -0.015160 0.859000
-0.018627 -0.000670 0.866000
-0.019983 -0.011324 0.863000
-0.025370 -0.005654 0.865000
0.008154 0.018326 0.871000
0.034444 0.000043 0.865000
-0.036281 -0.017342 0.862000
-0.011167 -0.004244 0.868000
-0.031318 0.011528 0.872000
-0.023556 -0.029916 0.877000
0.004865 -0.016948 0.860000
-0.045518 0.017211 0.869000
0.021652 0.003251 0.866000
-0.023037 0.012232 0.871000
0.011289 -0.009203 0.864000
0.040684 0.014707 0.869000
-0.021603 0.013666 0.871000
0.039955 -0.008108 0.861000
-0.011800 -0.013439 0.862000
-0.019093 0.013666 0.871000
-0.028830 -0.014149 0.862000
-0.026622 0.025137 0.871000
-0.033126 -0.010968 0.863000
0.024673 -0.031181 0.872000
-0.015903 0.020165 0.873000
0.001334 -0.008512 0.866000
0.006390 0.008686 0.875000
0.011354 0.021503 0.869000
0.029596 0.008985 0.869000
0.026396 -0.019027 0.858000
0.003856 0.015117 0.872000
0.004511 -0.023319 0.860000
0.040497 0.002891 0.865000
0.004859 -0.019049 0.859000
0.035594 0.023951 0.867000
0.036961 -0.033771 0.874000
-0.049537 0.013718 0.852000
-0.027276 0.025795 0.869000
0.035197 -0.030254 0.866000
-0.011167 -0.003172 0.868000
-0.029490 0.025137 0.871000
0.003851 0.018326 0.871000
-0.035695 -0.006722 0.865000
0.012327 -0.010956 0.862000
0.034599 -0.011284 0.860000
-0.012596 -0.003887 0.868000
-0.000799 -0.020841 0.860000
-0.028708 -0.030743 0.880000
-0.011578 0.010092 0.872000
0.043499 -0.008462 0.861000
-0.040868 0.004335 0.869000
-0.045981 0.012232 0.871000
0.023952 -0.024706 0.859000
0.003142 0.012260 0.873000
0.029962 -0.014807 0.859000
-0.010119 -0.027887 0.870000
0.029003 -0.027985 0.862000
-0.048268 0.008964 0.867000
-0.034271 -0.007078 0.865000
-0.028806 0.016194 0.872000
0.017294 -0.008827 0.862000
0.029255 -0.025413 0.859000
0.011341 0.000043 0.868000
-0.018874 -0.016259 0.861000
-0.014774 0.005772 0.870000
0.023051 0.001111 0.865000
-0.029608 -0.023783 0.864000
-0.004725 -0.008155 0.866000
-0.003307 0.022193 0.868000
-0.024330 0.027488 0.866000
0.018627 -0.021146 0.858000
-0.024302 -0.006366 0.865000
-0.010477 0.003624 0.870000
0.033173 0.012919 0.869000
0.002417 0.019760 0.871000
0.035889 -0.022885 0.857000
-0.012567 -0.006729 0.866000
0.029954 0.003977 0.869000
-0.034947 0.018368 0.873000
0.022669 -0.002447 0.864000
-0.000809 0.018684 0.871000
-0.004709 -0.010613 0.863000
-0.013700 0.001475 0.870000
0.029205 0.003258 0.868000
-0.029151 0.029455 0.861000
0.038582 0.018663 0.870000
-0.027088 -0.011324 0.863000
0.016546 -0.014470 0.860000
0.039246 -0.009880 0.861000
-0.038629 -0.027687 0.875000
0.027092 0.012561 0.869000
0.039246 -0.010234 0.861000
-0.027766 -0.015923 0.862000
0.022971 -0.008117 0.862000
0.022158 -0.019733 0.858000
-0.005470 -0.028994 0.871000
0.011739 0.014741 0.871000
0.030346 0.021886 0.870000
0.006273 -0.020110 0.859000
-0.021000 0.029810 0.861000
0.035973 -0.026827 0.859000
-0.016412 -0.012020 0.862000
-0.023481 -0.020157 0.861000
-0.005842 0.012260 0.873000
-0.025634 0.022706 0.874000
0.013531 0.018326 0.871000
-0.011077 -0.014487 0.861000
0.025216 0.005033 0.866000
-0.025253 -0.019448 0.861000
-0.026082 -0.005298 0.865000
-0.002943 -0.027046 0.866000
0.036834 -0.032221 0.871000
0.001702 0.017988 0.872000
-0.045160 0.005050 0.869000
0.035225 -0.023971 0.858000
0.012384 -0.007086 0.866000
-0.012046 -0.031829 0.880000
0.023245 -0.023999 0.859000
0.024831 0.001823 0.865000
0.023158 0.011846 0.869000
0.032345 -0.001739 0.866000
0.034364 -0.004575 0.863000
-0.040650 0.014040 0.872000
0.037249 0.000754 0.864000
-0.022574 0.002184 0.867000
-0.013342 0.003624 0.870000
-0.037061 0.020141 0.872000
-0.014791 0.011156 0.871000
-0.034150 0.011515 0.871000
0.045625 -0.006336 0.861000
0.042277 0.007875 0.865000
0.018692 -0.012360 0.861000
0.012755 -0.002812 0.867000
0.030381 0.018684 0.871000
-0.037735 -0.026127 0.871000
0.010870 -0.020463 0.859000
-0.008696 0.006496 0.871000
0.020133 -0.008117 0.862000
-0.014074 0.006496 0.871000
0.041421 -0.006344 0.862000
-0.002220 -0.012730 0.862000
0.003134 0.019043 0.871000
0.024560 0.023979 0.868000
-0.031318 0.013681 0.872000
0.015236 -0.004591 0.866000
-0.048288 0.012091 0.861000
-0.016374 0.030483 0.860000
-0.008676 0.023649 0.869000
0.023184 0.017231 0.870000
0.033453 0.002184 0.867000
0.021197 -0.008827 0.862000
0.008871 0.020477 0.871000
-0.045823 0.000757 0.868000
-0.020694 -0.009548 0.863000
-0.002957 -0.028603 0.870000
-0.033151 0.021602 0.873000
0.047177 -0.018652 0.857000
0.006368 0.016194 0.872000
0.039201 -0.012346 0.860000
-0.039703 -0.002098 0.867000
-0.035943 0.011515 0.871000
0.018171 0.015798 0.870000
0.043145 -0.007754 0.861000
0.011752 0.013322 0.872000
-0.027073 0.023065 0.874000
0.040094 0.001465 0.864000
0.023705 -0.033487 0.876000
0.040806 -0.001024 0.864000
0.016861 -0.020440 0.858000
-0.047966 0.005759 0.868000
-0.004349 -0.011665 0.862000
0.004205 -0.029319 0.870000
-0.015830 0.006481 0.869000
-0.040962 0.009364 0.871000
-0.020646 -0.016259 0.861000
0.037431 -0.013762 0.860000
-0.019273 -0.011679 0.863000
0.021856 -0.014470 0.860000
0.032475 -0.011992 0.860000
0.021677 0.006466 0.867000
-0.048513 0.008587 0.865000
0.031027 0.002904 0.869000
0.038806 0.007536 0.867000
0.038403 -0.024677 0.858000
-0.004758 0.018706 0.872000
0.038180 -0.031789 0.869000
0.020296 0.013277 0.869000
0.027197 -0.012006 0.861000
0.014879 -0.004234 0.866000
-0.032098 -0.023072 0.864000
0.008079 -0.010613 0.863000
-0.027401 0.011182 0.873000
0.034165 -0.020086 0.858000
0.001693 -0.027791 0.867000
0.009820 -0.024381 0.860000
-0.030600 0.009016 0.872000
0.026104 -0.015178 0.860000
0.010305 0.019401 0.871000
0.016399 0.019401 0.871000
0.048316 -0.009985 0.840000
0.029928 -0.019733 0.858000
0.032308 -0.029507 0.865000
-0.015903 0.022680 0.873000
0.041325 -0.011284 0.860000
-0.022799 -0.022664 0.862000
-0.031350 -0.011324 0.863000
-0.028479 0.010463 0.873000
-0.039795 0.021503 0.869000
0.003138 0.011169 0.872000
0.019445 -0.027307 0.863000
0.014134 -0.007781 0.864000
0.018800 0.002894 0.866000
-0.004775 0.008326 0.875000
0.015484 -0.014470 0.860000
-0.004764 0.011182 0.873000
0.043398 -0.013746 0.859000
0.010516 -0.023292 0.859000
0.010528 -0.024027 0.860000
-0.011964 -0.029454 0.874000
-0.040697 0.015493 0.873000
0.037779 0.010403 0.868000
-0.001165 -0.028213 0.869000
-0.018627 -0.001383 0.866000
0.019002 -0.016574 0.859000
0.010663 0.018684 0.871000
-0.023835 -0.018739 0.861000
0.028523 0.008269 0.869000
-0.021122 -0.002096 0.866000
-0.034152 -0.016987 0.862000
-0.002593 -0.027823 0.868000
0.028814 0.001470 0.867000
-0.028479 0.009385 0.873000
-0.012154 -0.011310 0.862000
0.002409 -0.005673 0.868000
0.003807 -0.024409 0.861000
-0.031314 -0.030813 0.882000
0.041352 0.014333 0.868000
-0.028608 -0.024907 0.866000
0.015466 -0.017281 0.859000
-0.013326 -0.027497 0.869000
-0.006194 0.010092 0.872000
-0.006848 -0.010270 0.864000
0.004574 0.009733 0.872000
0.007377 -0.010626 0.864000
-0.005076 -0.026303 0.865000
0.025602 0.006823 0.867000
-0.014074 0.010081 0.871000
-0.032809 -0.009203 0.864000
0.042018 0.016458 0.867000
-0.040539 -0.020180 0.862000
0.021677 0.007536 0.867000
0.037465 -0.031432 0.869000
0.013453 -0.005304 0.866000
-0.014106 0.023398 0.873000
-0.049888 0.014069 0.852000
-0.018896 -0.013439 0.862000
-0.024601 0.028813 0.863000
-0.031246 0.001117 0.870000
-0.026561 0.026152 0.869000
0.043752 -0.013392 0.859000
-0.030284 -0.022690 0.863000
0.028588 -0.031504 0.871000
-0.018228 -0.007425 0.864000
-0.022825 -0.023400 0.863000
0.029221 -0.017968 0.858000
-0.045623 0.015816 0.871000
0.025869 -0.002802 0.864000
0.023488 0.010403 0.868000
-0.030241 0.005785 0.872000
0.016700 0.022193 0.868000
-0.037389 -0.013455 0.863000
0.020273 0.007902 0.868000
0.033530 0.022576 0.869000
0.013842 0.022193 0.868000
-0.033037 0.007204 0.870000
-0.006912 0.016194 0.872000
-0.025786 0.026806 0.867000
-0.041009 0.018347 0.872000
0.027123 0.021528 0.870000
-0.037103 0.018727 0.873000
-0.031999 0.024420 0.871000
0.026980 -0.033887 0.877000
0.009935 0.021169 0.870000
0.025333 0.020811 0.870000
-0.010860 -0.028669 0.872000
