0.037379 -0.009235 0.867000
-0.009107 -0.026637 0.876000
0.028980 0.020141 0.872000
0.047841 -0.018850 0.850000
0.020963 -0.012447 0.867000
0.026498 0.016931 0.873000
-0.021627 0.006144 0.872000
-0.032506 0.019130 0.875000
-0.051179 0.004975 0.856000
0.026437 0.020835 0.871000
-0.033510 0.024476 0.873000
0.021084 -0.029387 0.872000
0.039923 -0.004244 0.868000
0.047152 -0.013810 0.863000
0.020749 0.019446 0.873000
0.019223 -0.003891 0.869000
-0.048491 0.000760 0.871000
0.011047 -0.000676 0.873000
0.003477 -0.022438 0.867000
-0.023863 0.021291 0.875000
-0.045060 0.013353 0.874000
0.033810 -0.012447 0.867000
0.027544 0.020500 0.872000
-0.038938 -0.024641 0.882000
0.021777 0.007213 0.871000
-0.050122 0.006032 0.856000
0.033376 -0.020606 0.865000
-0.023808 0.026632 0.873000
-0.005489 -0.026576 0.874000
-0.036786 0.013713 0.874000
-0.023890 0.023118 0.876000
0.009208 -0.026424 0.869000
-0.013668 -0.014604 0.868000
-0.001895 0.010499 0.876000
-0.029198 -0.002831 0.873000
0.013218 0.002921 0.874000
-0.037291 -0.010329 0.869000
-0.027496 0.007975 0.876000
0.033554 -0.032879 0.879000
0.018930 0.020500 0.872000
-0.029659 0.008696 0.876000
-0.035388 0.021651 0.875000
-0.020122 -0.009972 0.869000
-0.030207 -0.022183 0.871000
0.029642 -0.032953 0.881000
-0.001169 -0.006058 0.872000
0.002429 0.010127 0.875000
-0.022345 0.002914 0.872000
-0.028905 0.005445 0.875000
0.019581 -0.028213 0.869000
-0.020742 0.028880 0.865000
-0.005117 -0.008212 0.872000
-0.029098 -0.021084 0.870000
0.034800 -0.025235 0.865000
0.018848 -0.032739 0.885000
-0.020122 0.027583 0.869000
-0.013403 0.003640 0.874000
0.033376 -0.022742 0.865000
0.033478 -0.032443 0.877000
0.019157 -0.018848 0.866000
-0.015115 -0.011045 0.869000
-0.021553 -0.022132 0.869000
-0.032604 -0.016391 0.868000
-0.025341 0.029202 0.864000
0.024645 0.006137 0.871000
0.009229 -0.009636 0.871000
0.026109 0.020500 0.872000
-0.017578 -0.017086 0.867000
-0.031246 -0.007119 0.870000
-0.029625 0.004365 0.875000
-0.026024 0.021291 0.875000
-0.021293 0.007948 0.873000
0.015000 0.001121 0.873000
-0.006896 -0.024664 0.870000
0.024946 -0.004964 0.869000
-0.024870 0.030483 0.860000
-0.031066 0.008686 0.875000
-0.017000 0.015511 0.874000
0.032728 -0.034599 0.886000
0.002066 0.017310 0.874000
-0.008736 0.015529 0.875000
-0.019560 0.030129 0.860000
0.027839 -0.005328 0.870000
-0.006194 -0.008571 0.872000
0.025573 -0.017422 0.866000
-0.018100 0.025253 0.875000
0.003829 -0.018135 0.866000
0.037379 -0.010306 0.867000
0.043395 0.004676 0.866000
0.037193 0.010798 0.871000
0.020654 0.022218 0.869000
-0.024133 0.030801 0.859000
0.017156 0.020165 0.873000
-0.016545 -0.009972 0.869000
0.009314 -0.029984 0.879000
0.017455 -0.002105 0.870000
0.024147 -0.017779 0.866000
0.040061 0.010439 0.871000
0.038092 -0.009235 0.867000
0.009698 -0.030415 0.881000
-0.036786 0.012633 0.874000
0.012125 0.019087 0.873000
0.032532 -0.003900 0.871000
-0.007254 -0.010341 0.870000
-0.011868 -0.020297 0.867000
0.012755 -0.025293 0.867000
0.039253 0.019357 0.869000
0.016280 -0.032338 0.884000
0.008850 -0.011045 0.869000
-0.002256 0.011941 0.876000
-0.019071 -0.005686 0.870000
-0.018100 0.021291 0.875000
-0.027104 0.006886 0.875000
-0.044290 0.005792 0.873000
0.018508 -0.005322 0.869000
0.011419 0.018029 0.874000
-0.025663 0.013368 0.875000
-0.029814 -0.007119 0.870000
0.045837 -0.014554 0.865000
-0.026962 0.030801 0.859000
0.033732 -0.026659 0.865000
-0.002964 -0.008212 0.872000
-0.002977 0.011220 0.876000
-0.031926 -0.012475 0.869000
-0.006173 -0.011402 0.869000
0.034961 0.022218 0.869000
0.012499 0.016950 0.874000
-0.019407 -0.021775 0.869000
0.031169 0.016931 0.873000
-0.042445 0.003991 0.872000
-0.027793 0.000043 0.874000
-0.017997 -0.005686 0.870000
0.025463 -0.033908 0.887000
0.013922 0.015853 0.873000
-0.042804 0.002914 0.872000
-0.032283 -0.009972 0.869000
0.018192 0.001118 0.871000
-0.007586 -0.018513 0.867000
0.018887 0.022960 0.870000
-0.011604 0.016590 0.874000
0.033646 0.014758 0.872000
-0.015921 0.013713 0.874000
0.034088 -0.026659 0.865000
0.044465 -0.012789 0.866000
-0.016603 0.002914 0.872000
0.007394 -0.022056 0.866000
-0.027991 -0.008541 0.869000
-0.006515 -0.020297 0.867000
-0.023863 0.018410 0.875000
-0.026561 -0.012118 0.869000
-0.043880 0.002914 0.872000
0.043802 -0.007094 0.867000
-0.002950 -0.024250 0.868000
-0.040199 -0.006402 0.870000
0.043188 0.008627 0.869000
-0.031931 -0.024196 0.879000
-0.029232 0.000763 0.874000
-0.035748 0.020211 0.875000
-0.041150 -0.022285 0.875000
-0.016507 -0.017799 0.867000
-0.042299 -0.015337 0.869000
0.033096 -0.011019 0.867000
-0.005868 -0.027389 0.877000
0.039748 0.016194 0.872000
0.047067 -0.016497 0.855000
-0.030020 0.022397 0.876000
0.028068 -0.027046 0.866000
-0.036744 0.006870 0.873000
0.035400 0.008288 0.871000
-0.017679 0.004709 0.872000
-0.041415 -0.009299 0.873000
-0.047470 -0.000316 0.872000
0.023434 -0.026333 0.866000
0.025799 -0.033870 0.886000
0.038806 -0.011019 0.867000
-0.036933 -0.017840 0.869000
0.043802 0.015744 0.867000
-0.039841 -0.005686 0.870000
0.038806 -0.010306 0.867000
0.032247 0.003277 0.873000
-0.010798 -0.018870 0.867000
0.016078 0.010463 0.873000
-0.000450 -0.011760 0.869000
0.001336 -0.018156 0.867000
-0.020981 0.020211 0.875000
-0.012983 -0.007477 0.870000
-0.035543 -0.007477 0.870000
-0.031786 0.017330 0.875000
0.020249 -0.012090 0.867000
0.036224 -0.018470 0.865000
0.004234 0.013744 0.876000
-0.026293 0.000761 0.872000
-0.030924 -0.004617 0.871000
0.004944 0.018029 0.874000
-0.032791 0.005433 0.873000
0.034128 -0.014927 0.866000
-0.025217 0.000402 0.872000
-0.013388 -0.001035 0.873000
0.001693 -0.022438 0.867000
-0.006158 -0.020297 0.867000
0.004584 0.016950 0.874000
0.023407 -0.023810 0.865000
-0.005135 0.015529 0.875000
0.013097 -0.023125 0.866000
0.038627 0.018684 0.871000
-0.043981 0.017670 0.874000
0.010293 -0.027171 0.870000
0.042521 0.011501 0.870000
0.011328 -0.025293 0.867000
-0.030706 0.013368 0.875000
0.028980 0.010810 0.872000
-0.018080 0.015152 0.874000
0.027839 -0.003896 0.870000
0.018550 0.002194 0.871000
0.028457 -0.032118 0.878000
0.017854 0.020859 0.872000
-0.005828 -0.009278 0.871000
0.009409 -0.032119 0.888000
-0.017618 -0.009614 0.869000
-0.030741 0.022758 0.876000
0.013874 -0.007477 0.870000
0.005618 -0.017086 0.867000
-0.047828 0.007939 0.872000
-0.039169 -0.002466 0.871000
0.022008 -0.019204 0.866000
0.012513 0.013368 0.875000
0.023596 0.010092 0.872000
0.012427 -0.010329 0.869000
-0.006158 -0.021368 0.867000
0.019626 0.004703 0.871000
0.015967 -0.015301 0.867000
0.013469 -0.013874 0.867000
0.023569 0.007930 0.871000
0.037551 0.010798 0.871000
-0.025506 -0.026457 0.882000
-0.022957 -0.013890 0.868000
-0.017241 -0.012104 0.868000
-0.032109 0.011554 0.874000
0.043802 -0.010306 0.867000
-0.016188 0.027583 0.869000
0.013906 -0.004982 0.872000
-0.035707 0.011554 0.874000
0.006383 0.016950 0.874000
-0.019005 -0.018513 0.867000
0.019157 -0.025264 0.866000
0.008840 -0.025322 0.868000
-0.016526 -0.020321 0.868000
-0.019159 0.016590 0.874000
-0.016923 -0.023232 0.870000
-0.039437 -0.017840 0.869000
0.043701 -0.003161 0.865000
0.032345 -0.014214 0.866000
0.028391 -0.019894 0.865000
0.031240 -0.021318 0.865000
-0.014122 0.004720 0.874000
-0.001547 -0.029757 0.883000
-0.002238 -0.011045 0.869000
-0.027602 -0.016034 0.868000
0.013203 0.016931 0.873000
0.044159 -0.008165 0.867000
-0.028055 0.030483 0.860000
0.045481 -0.016690 0.865000
0.015359 0.017290 0.873000
-0.019514 0.031118 0.858000
-0.033472 -0.000316 0.872000
0.004553 -0.013533 0.868000
-0.035185 -0.007119 0.870000
0.046334 -0.004564 0.861000
-0.023476 0.010835 0.874000
0.001350 0.009417 0.876000
-0.034907 0.003273 0.872000
-0.048713 0.015544 0.856000
0.037551 0.006854 0.871000
-0.001166 -0.025739 0.870000
0.002412 -0.012118 0.869000
-0.051471 0.005321 0.855000
-0.021677 0.014792 0.874000
0.047177 -0.011245 0.857000
-0.014122 0.012993 0.874000
-0.037865 0.021986 0.874000
-0.021578 -0.005686 0.870000
-0.036385 0.005433 0.873000
-0.001891 0.018749 0.874000
0.029440 -0.031288 0.875000
0.029664 -0.005334 0.871000
0.013826 -0.024936 0.867000
0.034683 0.004703 0.871000
-0.043261 -0.017224 0.874000
-0.001531 0.017670 0.874000
-0.006583 0.014826 0.876000
0.033732 -0.020962 0.865000
0.012413 -0.011746 0.868000
0.007759 -0.024222 0.867000
-0.017261 -0.010687 0.869000
-0.028152 -0.023699 0.874000
0.044006 0.002888 0.864000
0.012741 -0.024194 0.866000
-0.020574 0.007948 0.873000
0.004904 -0.023152 0.867000
0.022700 -0.029984 0.879000
-0.038722 -0.016767 0.869000
0.019603 0.002550 0.870000
0.022110 0.001117 0.870000
-0.029625 0.016970 0.875000
-0.029165 -0.003905 0.872000
0.008275 -0.031246 0.884000
0.006324 -0.017779 0.866000
-0.004022 -0.023179 0.868000
-0.013372 -0.004623 0.872000
0.032702 -0.027402 0.866000
0.007037 -0.023125 0.866000
-0.016299 0.021651 0.875000
-0.033472 -0.022209 0.872000
-0.020957 0.026303 0.874000
-0.024744 -0.017820 0.868000
-0.013311 -0.015676 0.868000
-0.042299 -0.018198 0.869000
0.010737 -0.029555 0.877000
0.037953 0.016194 0.872000
0.030810 0.003277 0.873000
0.018192 0.002194 0.871000
0.035594 -0.008521 0.867000
0.019961 -0.001031 0.870000
-0.003660 -0.014588 0.867000
0.010411 -0.002854 0.880000
-0.021195 -0.021417 0.869000
-0.038408 -0.007477 0.870000
-0.028905 0.018410 0.875000
0.022077 -0.032665 0.883000
-0.007979 -0.008561 0.871000
-0.010822 -0.011402 0.869000
0.032071 -0.032480 0.878000
-0.038945 0.010475 0.874000
-0.050005 0.007072 0.854000
-0.028206 -0.027337 0.887000
-0.010188 0.012662 0.876000
-0.015668 -0.027121 0.880000
-0.014723 -0.017799 0.867000
-0.039124 -0.005686 0.870000
0.010984 -0.011389 0.868000
-0.028382 -0.021442 0.870000
0.015288 -0.008541 0.869000
-0.031786 0.016970 0.875000
0.035156 -0.021318 0.865000
-0.020622 0.030483 0.860000
-0.030495 -0.019986 0.869000
-0.018397 0.003632 0.872000
-0.017221 -0.018870 0.867000
0.031169 0.002558 0.873000
0.035910 -0.014571 0.866000
-0.048950 0.013047 0.854000
0.031529 0.016212 0.873000
-0.032109 0.004360 0.874000
0.017018 -0.020987 0.866000
0.010626 -0.011746 0.868000
0.029339 0.020141 0.872000
0.005618 -0.024579 0.867000
-0.025901 0.030801 0.859000
-0.041273 -0.020009 0.870000
0.034564 -0.029966 0.868000
-0.020503 -0.003180 0.870000
0.032580 -0.033717 0.882000
0.015359 0.001121 0.873000
0.011458 0.005097 0.877000
-0.022294 -0.002822 0.870000
-0.009096 0.007246 0.875000
-0.027042 0.026632 0.873000
0.027743 -0.014231 0.867000
0.001348 -0.027687 0.875000
-0.002593 -0.024250 0.868000
-0.040603 -0.020391 0.871000
0.030057 0.014758 0.872000
-0.043196 -0.014806 0.880000
-0.026263 -0.003183 0.871000
0.028588 -0.003542 0.871000
0.013810 -0.020987 0.866000
0.042521 0.010427 0.870000
0.035400 0.004703 0.871000
0.009599 -0.027951 0.872000
0.043345 0.001111 0.865000
0.034403 0.018368 0.873000
0.037692 -0.013145 0.866000
0.021752 0.001117 0.870000
-0.045316 -0.000675 0.872000
0.036308 -0.010662 0.867000
-0.005482 -0.026187 0.873000
0.025959 -0.012447 0.867000
0.023928 0.007930 0.871000
-0.022756 0.012274 0.874000
0.026109 0.010810 0.872000
-0.038541 0.006151 0.873000
0.012384 -0.018848 0.866000
0.002047 -0.018492 0.866000
0.023141 -0.032628 0.882000
0.043345 -0.018114 0.865000
-0.003681 0.020859 0.872000
-0.016244 0.001479 0.872000
0.036350 -0.004601 0.868000
-0.004054 -0.026967 0.875000
0.028621 0.011528 0.872000
0.017057 -0.009960 0.868000
-0.036218 -0.010687 0.869000
-0.041226 -0.017840 0.869000
0.035993 -0.006388 0.868000
-0.019429 -0.002464 0.870000
0.005644 -0.009636 0.871000
-0.005801 -0.020297 0.867000
0.033888 0.021860 0.869000
0.012844 0.019446 0.873000
-0.024943 0.019490 0.875000
-0.012640 -0.024693 0.871000
-0.010810 -0.014604 0.868000
-0.010972 -0.027877 0.881000
-0.029298 0.022037 0.876000
0.003525 0.009088 0.879000
-0.028541 0.029202 0.864000
0.005612 -0.021343 0.866000
-0.020192 0.005785 0.872000
-0.021454 0.028880 0.865000
0.022852 0.008288 0.871000
0.023623 0.016571 0.873000
0.022826 0.001833 0.870000
-0.040510 -0.013548 0.869000
0.030241 -0.028504 0.867000
-0.011964 -0.000317 0.874000
0.013516 -0.008193 0.870000
-0.021171 -0.018177 0.868000
-0.006628 -0.028635 0.882000
-0.021317 0.014792 0.874000
-0.020122 -0.007468 0.869000
0.034364 0.014040 0.872000
-0.011511 -0.016015 0.867000
-0.025815 -0.019249 0.868000
-0.006583 0.013023 0.876000
-0.032867 0.020211 0.875000
-0.010798 -0.015658 0.867000
-0.031786 0.019490 0.875000
0.002785 0.018749 0.874000
0.032210 0.013681 0.872000
-0.040199 -0.008909 0.870000
0.017415 -0.008888 0.868000
-0.040697 0.007948 0.873000
0.035512 -0.025235 0.865000
-0.033587 0.018410 0.875000
0.047232 -0.007727 0.858000
0.037866 0.002908 0.870000
-0.028707 -0.010329 0.869000
0.007078 -0.008561 0.871000
-0.026053 0.012302 0.876000
0.002426 0.019108 0.874000
-0.010847 0.025137 0.871000
-0.013326 -0.011045 0.869000
0.014896 -0.013160 0.867000
-0.014122 0.010475 0.874000
-0.018439 0.015152 0.874000
0.029305 -0.006051 0.871000
0.018150 -0.027855 0.869000
0.035471 -0.024139 0.864000
0.031888 0.007948 0.873000
0.031632 -0.016353 0.866000
-0.019027 -0.014962 0.868000
-0.042231 0.016249 0.875000
-0.029422 -0.019271 0.869000
-0.020814 -0.019606 0.868000
0.000268 0.009767 0.875000
-0.041463 0.009756 0.874000
-0.038722 -0.012475 0.869000
-0.000814 0.013023 0.876000
0.016437 0.019446 0.873000
-0.007586 -0.020297 0.867000
0.029339 0.000402 0.872000
-0.014122 -0.025497 0.874000
0.045177 -0.013145 0.866000
-0.031030 -0.001755 0.874000
0.001700 -0.009995 0.871000
0.019491 -0.022742 0.865000
-0.038050 -0.006402 0.870000
-0.019027 -0.020321 0.868000
0.015934 -0.032375 0.885000
-0.020480 -0.007468 0.869000
-0.019181 0.021651 0.875000
0.022545 0.014775 0.873000
-0.000092 0.020859 0.872000
-0.014025 -0.014604 0.868000
0.001695 -0.024608 0.868000
0.016796 0.019446 0.873000
-0.000450 -0.011045 0.869000
0.043088 -0.008165 0.867000
-0.044290 0.004714 0.873000
0.008154 -0.007844 0.871000
-0.050002 0.004998 0.860000
0.011793 0.008686 0.875000
0.021108 0.019087 0.873000
0.037193 0.010081 0.871000
-0.028316 -0.014962 0.868000
0.043946 -0.023419 0.877000
-0.043571 0.008307 0.873000
-0.031999 -0.004976 0.871000
0.000265 -0.019204 0.866000
-0.023476 0.011914 0.874000
0.041161 -0.022361 0.864000
-0.027135 0.009778 0.876000
-0.016564 -0.004612 0.870000
0.002066 0.017670 0.874000
-0.002599 0.022960 0.870000
0.038268 0.011156 0.871000
-0.004017 -0.019227 0.867000
0.031240 -0.023454 0.865000
0.021108 0.018009 0.873000
-0.022243 -0.015676 0.868000
-0.009457 0.014449 0.875000
0.005000 -0.030883 0.884000
0.032026 -0.013160 0.867000
0.020987 -0.006745 0.868000
0.036792 0.001475 0.870000
-0.010897 0.005445 0.875000
0.044516 -0.006737 0.867000
-0.021005 -0.025195 0.876000
-0.006943 0.012302 0.876000
0.041136 0.013307 0.871000
-0.019519 0.017310 0.874000
0.007111 0.009767 0.875000
-0.036218 -0.018556 0.869000
0.014523 -0.018848 0.866000
-0.009817 0.006165 0.875000
-0.004775 -0.026967 0.875000
-0.026024 0.017330 0.875000
-0.034111 -0.008551 0.870000
0.010352 0.014449 0.875000
0.011432 0.004005 0.875000
0.036834 0.005779 0.871000
0.002442 -0.029294 0.880000
-0.017360 0.014432 0.874000
0.041709 -0.001029 0.868000
-0.031926 -0.019271 0.869000
0.012042 -0.016372 0.867000
0.015017 0.004000 0.874000
0.030919 -0.027759 0.866000
0.031169 0.017290 0.873000
-0.012698 0.019851 0.875000
0.027608 -0.030893 0.874000
-0.012683 0.012633 0.874000
0.030416 0.009374 0.872000
0.035082 0.006503 0.872000
-0.026887 -0.018177 0.868000
-0.047579 0.015281 0.861000
-0.034548 0.003273 0.872000
-0.003303 -0.022795 0.867000
0.013485 -0.026751 0.868000
0.031493 -0.001393 0.872000
0.034364 0.015835 0.872000
0.047673 -0.006930 0.847000
0.018550 0.003269 0.871000
-0.009727 -0.016729 0.867000
0.014640 0.000762 0.873000
0.033888 -0.006395 0.869000
-0.032040 -0.025367 0.882000
0.035441 0.016194 0.872000
-0.010897 0.008326 0.875000
-0.031246 -0.020725 0.870000
-0.002611 0.018749 0.874000
-0.044700 0.015871 0.874000
-0.024471 0.000760 0.871000
0.030381 -0.007485 0.871000
0.044206 -0.023365 0.875000
0.036308 -0.008165 0.867000
0.007437 -0.008202 0.871000
0.004927 0.021194 0.871000
-0.007717 -0.028635 0.882000
-0.018080 0.025943 0.874000
0.016796 0.009745 0.873000
0.013453 -0.023482 0.866000
0.045586 -0.007094 0.867000
-0.030172 -0.008193 0.870000
0.012741 -0.023125 0.866000
-0.026024 0.013368 0.875000
-0.029064 -0.009614 0.869000
0.013858 -0.008899 0.869000
-0.018439 0.014432 0.874000
-0.035104 -0.014962 0.868000
-0.032395 -0.003187 0.872000
-0.016262 0.011541 0.873000
-0.034628 0.010835 0.874000
-0.022268 -0.021417 0.869000
0.001708 0.010127 0.875000
-0.019181 0.020571 0.875000
-0.039619 0.009385 0.873000
-0.023699 -0.008541 0.869000
0.016661 -0.018135 0.866000
-0.041463 0.012633 0.874000
-0.016641 0.026303 0.874000
-0.026024 0.008326 0.875000
-0.039079 -0.010329 0.869000
-0.019765 -0.011760 0.869000
-0.022957 -0.018892 0.868000
0.032928 0.011528 0.872000
0.020654 -0.001745 0.869000
0.011698 -0.011389 0.868000
-0.013418 0.022372 0.875000
-0.022704 0.006144 0.872000
-0.034229 0.005073 0.873000
0.025573 -0.025620 0.866000
-0.031750 0.002921 0.874000
0.033685 0.018009 0.873000
0.001336 -0.014231 0.867000
-0.008300 -0.017086 0.867000
-0.012939 -0.019227 0.867000
0.044917 -0.003501 0.861000
0.016380 -0.004970 0.870000
-0.014090 0.026602 0.872000
-0.004040 -0.007135 0.872000
-0.042951 0.018050 0.875000
0.010340 0.017310 0.874000
0.033287 0.001479 0.872000
0.031989 -0.017066 0.866000
-0.023017 -0.027244 0.884000
-0.031390 -0.001396 0.874000
-0.020145 0.027257 0.870000
-0.035104 -0.017463 0.868000
-0.009738 -0.022464 0.868000
0.036876 0.014758 0.872000
-0.020862 -0.006044 0.870000
-0.000449 -0.013890 0.868000
-0.046446 0.004714 0.873000
0.013233 0.009407 0.875000
0.016418 0.002196 0.872000
0.026255 -0.022386 0.865000
-0.044341 0.012274 0.874000
0.032210 0.009374 0.872000
-0.050235 0.002176 0.864000
0.040373 0.004698 0.870000
-0.012267 -0.024306 0.870000
-0.047774 0.010439 0.871000
0.007759 -0.016372 0.867000
0.037961 -0.022716 0.864000
0.008840 -0.012104 0.868000
-0.024195 0.025943 0.874000
0.008107 -0.021343 0.866000
-0.024029 -0.013533 0.868000
-0.009794 -0.005347 0.873000
-0.019385 -0.018892 0.868000
-0.018204 -0.026759 0.880000
-0.027959 -0.014604 0.868000
0.039474 -0.013858 0.866000
0.015376 0.009396 0.874000
-0.009107 0.010499 0.876000
0.026139 0.016571 0.873000
0.024732 -0.033908 0.887000
0.006689 -0.024222 0.867000
-0.030345 0.016249 0.875000
-0.038900 0.008307 0.873000
-0.039573 0.003273 0.872000
0.000979 -0.022438 0.867000
0.002071 0.011581 0.876000
0.029339 0.011528 0.872000
0.037249 -0.022716 0.864000
-0.036976 -0.007477 0.870000
0.022800 -0.004607 0.869000
0.038005 -0.022386 0.865000
0.023515 -0.001030 0.869000
0.020606 -0.012090 0.867000
0.016437 0.011182 0.873000
-0.026744 0.016249 0.875000
0.008163 -0.027592 0.872000
-0.035625 0.003632 0.872000
-0.035143 -0.026607 0.887000
-0.028838 -0.026517 0.884000
0.013203 0.020165 0.873000
-0.030137 -0.012118 0.869000
0.007428 -0.011057 0.870000
-0.004775 0.015169 0.875000
-0.029625 0.005085 0.875000
0.001708 0.010487 0.875000
-0.017639 0.027257 0.870000
0.017116 0.001477 0.871000
0.036559 0.016931 0.873000
-0.048849 0.002194 0.871000
0.014640 0.017649 0.873000
-0.024414 -0.021417 0.869000
0.028621 0.012605 0.872000
0.042472 0.004693 0.869000
-0.025159 -0.006760 0.870000
0.033058 -0.014927 0.866000
0.037508 0.005056 0.870000
0.037235 0.017988 0.872000
-0.027370 -0.002110 0.872000
0.033287 0.014040 0.872000
-0.027347 0.032253 0.860000
0.045481 -0.017046 0.865000
0.026765 -0.003180 0.870000
0.026734 -0.007826 0.869000
0.035042 0.003269 0.871000
-0.007612 0.023318 0.870000
0.033376 -0.023098 0.865000
-0.000805 -0.017799 0.867000
0.041495 0.014383 0.871000
-0.011591 -0.005347 0.873000
0.045177 -0.005304 0.866000
-0.005088 -0.019940 0.867000
-0.025458 -0.013890 0.868000
0.011419 0.006878 0.874000
-0.000814 0.013383 0.876000
0.037779 0.021121 0.868000
-0.029625 0.018050 0.875000
0.035197 -0.014214 0.866000
0.016758 -0.000674 0.871000
0.025632 -0.007817 0.868000
0.027030 -0.011019 0.867000
-0.009013 -0.016015 0.867000
-0.021171 -0.013175 0.868000
-0.041679 0.023345 0.871000
0.014183 -0.012803 0.867000
0.037064 -0.004244 0.868000
0.035441 0.015476 0.872000
0.016700 -0.026751 0.868000
-0.047003 0.018305 0.870000
0.033173 -0.006753 0.869000
-0.040070 0.018410 0.875000
0.028847 -0.028895 0.868000
-0.017740 0.018050 0.875000
0.047673 -0.016343 0.847000
0.037594 0.012246 0.872000
0.032569 0.001838 0.872000
-0.040743 0.021267 0.874000
0.026967 -0.021674 0.865000
-0.006201 -0.004987 0.873000
0.028654 0.017290 0.873000
0.026468 0.014399 0.872000
0.008820 -0.022056 0.866000
-0.047470 0.001479 0.872000
0.022545 0.016571 0.873000
-0.014740 -0.012818 0.868000
0.025989 -0.008888 0.868000
0.007070 -0.011057 0.870000
0.000988 -0.027687 0.875000
-0.016903 -0.008541 0.869000
0.019603 0.000401 0.870000
0.042830 0.008985 0.869000
0.039073 -0.018114 0.865000
0.015253 -0.012090 0.867000
-0.026622 -0.002825 0.871000
-0.003323 -0.006417 0.872000
0.012888 -0.029521 0.876000
0.036979 -0.015284 0.866000
0.002776 -0.008919 0.871000
-0.016864 -0.018870 0.867000
0.015236 -0.018492 0.866000
0.028198 -0.006760 0.870000
-0.014042 -0.008899 0.869000
0.019671 0.018727 0.873000
0.003922 -0.031352 0.887000
-0.026949 -0.007835 0.870000
0.012755 -0.014945 0.867000
-0.006872 -0.014945 0.867000
-0.022600 -0.014247 0.868000
0.002792 0.012302 0.876000
0.027903 0.007580 0.872000
-0.020814 0.027909 0.868000
0.017018 -0.019561 0.866000
0.043445 0.009321 0.867000
0.035156 -0.026303 0.865000
-0.010525 0.003281 0.874000
0.037235 0.012605 0.872000
0.031632 -0.016709 0.866000
-0.040790 0.014809 0.875000
0.031852 0.009733 0.872000
-0.015579 0.025253 0.875000
0.019870 -0.017779 0.866000
-0.029882 -0.022926 0.872000
-0.041510 0.015169 0.875000
-0.029298 0.012302 0.876000
0.002431 0.013383 0.876000
-0.047470 0.007580 0.872000
0.011752 -0.002469 0.872000
0.017792 -0.004964 0.869000
-0.042445 -0.000675 0.872000
0.020701 0.009005 0.871000
-0.040253 -0.023472 0.879000
-0.002246 -0.007135 0.872000
-0.026713 0.003281 0.874000
-0.016903 -0.010687 0.869000
0.019289 0.020141 0.872000
-0.010441 -0.019227 0.867000
-0.022037 0.015871 0.874000
-0.051239 0.003922 0.857000
0.002792 0.011941 0.876000
0.027217 0.015853 0.873000
-0.034150 -0.002108 0.871000
-0.035388 0.018770 0.875000
0.007437 -0.027202 0.871000
0.020226 -0.017066 0.866000
-0.018778 0.010822 0.873000
0.014183 -0.013160 0.867000
-0.016526 -0.019963 0.868000
0.031493 0.020141 0.872000
-0.033831 -0.001393 0.872000
0.006390 0.010487 0.875000
-0.022422 0.020571 0.875000
-0.039528 -0.001032 0.871000
-0.023835 0.026303 0.874000
-0.031426 0.019130 0.875000
0.040778 0.010081 0.871000
0.037064 -0.004959 0.868000
-0.049359 0.009544 0.855000
0.011367 0.022960 0.870000
0.004579 0.020165 0.873000
-0.035671 -0.025004 0.882000
0.021320 -0.013874 0.867000
0.007858 0.009078 0.878000
0.037594 0.015476 0.872000
0.034206 -0.007102 0.868000
0.005255 -0.021699 0.866000
-0.011296 -0.027059 0.878000
-0.027104 0.019851 0.875000
0.044873 0.013246 0.867000
-0.037649 -0.016767 0.869000
-0.034430 -0.013906 0.869000
0.010700 0.017310 0.874000
0.047031 -0.017060 0.848000
0.009566 -0.011402 0.869000
0.014248 -0.006768 0.871000
-0.004040 -0.008212 0.872000
-0.029265 0.017330 0.875000
-0.015184 0.008667 0.873000
-0.022422 0.020211 0.875000
-0.022756 0.014792 0.874000
-0.019093 0.001477 0.871000
0.017136 0.003632 0.872000
0.041517 -0.022005 0.864000
0.003185 -0.030918 0.885000
-0.025429 0.028233 0.867000
0.031493 0.000402 0.872000
0.039657 0.006846 0.870000
-0.024105 0.031118 0.858000
-0.000448 -0.020274 0.866000
0.032137 -0.008193 0.870000
-0.004040 -0.006776 0.872000
0.020749 0.017649 0.873000
-0.011923 0.027288 0.871000
-0.012310 -0.001394 0.873000
-0.036576 -0.012118 0.869000
0.011060 0.018389 0.874000
-0.037692 -0.020367 0.870000
0.005968 -0.022056 0.866000
0.026468 0.010451 0.872000
-0.003690 0.017670 0.874000
-0.028938 0.021315 0.876000
-0.026887 -0.015676 0.868000
-0.045060 0.012633 0.874000
-0.030817 -0.018177 0.868000
0.020273 -0.006388 0.868000
-0.015184 0.000762 0.873000
-0.012281 0.026930 0.871000
0.018465 -0.026363 0.867000
0.018930 0.007580 0.872000
-0.036218 -0.014264 0.869000
0.021827 0.018727 0.873000
-0.006229 0.009067 0.877000
-0.018799 0.015871 0.874000
-0.018735 0.000402 0.871000
-0.040384 0.010115 0.874000
0.007768 -0.013175 0.868000
-0.031641 0.027288 0.871000
0.016796 0.012978 0.873000
0.006368 -0.006417 0.872000
0.015718 0.012260 0.873000
0.040994 0.019335 0.868000
-0.034390 -0.017105 0.868000
-0.008338 -0.008561 0.871000
0.043701 0.006807 0.865000
0.003843 -0.026067 0.869000
0.012153 0.007606 0.875000
-0.028936 -0.027337 0.887000
-0.042396 0.021552 0.871000
0.036159 -0.031181 0.872000
-0.048756 0.009633 0.863000
-0.031318 -0.022568 0.872000
0.023542 0.004340 0.870000
0.034128 -0.016709 0.866000
-0.037649 -0.018913 0.869000
0.034444 -0.019538 0.865000
-0.028872 -0.000317 0.874000
0.044821 0.010379 0.866000
0.030416 0.014758 0.872000
0.023051 -0.023810 0.865000
-0.015579 -0.025526 0.875000
0.022059 -0.009603 0.868000
-0.021936 -0.022516 0.870000
0.011752 -0.004982 0.872000
0.016078 0.015493 0.873000
-0.048925 0.007528 0.866000
0.043039 -0.014927 0.866000
-0.047057 0.019043 0.871000
0.027711 -0.016353 0.866000
0.047177 -0.011950 0.857000
0.012028 -0.018492 0.866000
-0.002246 0.020859 0.872000
0.011393 -0.007135 0.872000
0.019201 -0.027108 0.868000
0.025661 -0.002103 0.869000
-0.000452 -0.027296 0.874000
-0.017000 0.016950 0.874000
-0.025815 -0.013533 0.868000
0.038806 -0.011733 0.867000
0.025362 0.005062 0.871000
-0.032679 -0.005686 0.870000
-0.020527 0.001477 0.871000
-0.030495 -0.009972 0.869000
-0.027339 -0.004617 0.871000
0.024975 0.002550 0.870000
0.027513 0.006496 0.871000
0.032966 0.003277 0.873000
-0.003681 -0.006058 0.872000
0.046797 -0.019493 0.863000
0.027341 -0.031721 0.877000
0.025362 0.021194 0.871000
-0.014155 -0.025916 0.876000
-0.009446 0.018389 0.874000
-0.004017 -0.019583 0.867000
-0.042853 0.006870 0.873000
0.044873 -0.009949 0.867000
0.009992 0.011207 0.875000
-0.027245 -0.015676 0.868000
0.037130 -0.033203 0.878000
0.019513 -0.019561 0.866000
0.018865 -0.003534 0.869000
-0.021603 -0.001749 0.871000
-0.045316 -0.000316 0.872000
-0.025101 -0.013533 0.868000
0.009533 -0.018848 0.866000
0.018129 -0.007102 0.868000
0.026765 -0.000315 0.870000
0.034564 -0.009246 0.868000
-0.017380 0.022372 0.875000
0.033020 -0.024523 0.865000
-0.020456 -0.018892 0.868000
-0.013403 0.017310 0.874000
-0.023010 -0.005328 0.870000
0.015967 -0.015658 0.867000
-0.008676 -0.023921 0.869000
0.000979 -0.015658 0.867000
-0.025274 0.025943 0.874000
0.011432 0.011568 0.875000
-0.027307 -0.006044 0.870000
0.033530 0.022576 0.869000
-0.038225 0.014072 0.874000
-0.014466 0.000402 0.873000
0.033287 0.013681 0.872000
-0.044239 0.001120 0.872000
-0.019878 0.014432 0.874000
-0.025487 -0.021059 0.869000
0.022747 -0.012803 0.867000
0.039657 0.005772 0.870000
-0.015757 -0.028368 0.885000
-0.031210 -0.019629 0.869000
-0.010177 0.013008 0.875000
-0.020862 -0.002822 0.870000
0.032100 -0.009256 0.869000
0.019915 -0.027466 0.868000
0.031705 -0.009960 0.868000
-0.031426 0.014449 0.875000
-0.000452 0.018749 0.874000
0.014281 -0.000676 0.873000
-0.027697 -0.022542 0.871000
-0.016262 0.010104 0.873000
0.047673 -0.007279 0.847000
0.031027 -0.029643 0.869000
-0.041795 -0.023888 0.881000
-0.027634 -0.012475 0.869000
-0.006515 -0.019940 0.867000
0.034088 -0.019182 0.865000
0.022800 -0.003534 0.869000
-0.026384 0.020931 0.875000
0.003145 0.016231 0.874000
-0.028905 0.017330 0.875000
-0.032109 0.009396 0.874000
-0.043931 0.007948 0.873000
0.037379 -0.011376 0.867000
0.031925 0.006518 0.874000
-0.003303 -0.019940 0.867000
0.035868 -0.022030 0.865000
0.019851 -0.031866 0.881000
0.033888 -0.005680 0.869000
-0.006928 0.017310 0.874000
-0.045060 0.011554 0.874000
0.017515 0.013697 0.873000
0.034800 -0.024879 0.865000
-0.014842 0.010475 0.874000
-0.019742 -0.021035 0.868000
0.033810 -0.011376 0.867000
0.015967 -0.013874 0.867000
-0.007952 -0.014247 0.868000
-0.036593 -0.023807 0.878000
0.012153 0.010847 0.875000
0.016343 -0.009603 0.868000
-0.016545 -0.010329 0.869000
-0.002241 0.022960 0.870000
-0.029490 -0.004976 0.871000
-0.000093 0.014105 0.876000
-0.037649 -0.013191 0.869000
0.021011 0.022933 0.869000
0.042732 -0.009949 0.867000
0.034404 -0.024139 0.864000
-0.038945 0.009756 0.874000
-0.038364 -0.014621 0.869000
0.008820 -0.019561 0.866000
0.037379 -0.008165 0.867000
0.021060 0.009005 0.871000
0.026468 0.013322 0.872000
0.018952 0.014056 0.873000
-0.010897 0.007966 0.875000
-0.017360 0.016231 0.874000
-0.004374 -0.017799 0.867000
0.000988 0.016249 0.875000
-0.017241 -0.014247 0.868000
0.005637 0.021886 0.870000
0.025187 -0.022386 0.865000
-0.050052 0.001827 0.867000
0.000626 -0.006776 0.872000
0.046975 -0.015297 0.847000
0.018192 0.002552 0.871000
-0.003690 0.019108 0.874000
-0.013311 -0.013533 0.868000
0.042472 0.003262 0.869000
0.030660 -0.032517 0.879000
-0.028217 0.021315 0.876000
-0.024829 -0.001032 0.871000
-0.006880 -0.022821 0.868000
0.033325 0.019087 0.873000
-0.000450 0.021886 0.870000
-0.041009 0.003632 0.872000
-0.048769 0.012035 0.857000
0.006743 0.016950 0.874000
-0.032246 -0.013890 0.868000
-0.015490 -0.007119 0.870000
-0.039886 -0.004617 0.871000
-0.017618 -0.010687 0.869000
0.027576 0.016571 0.873000
-0.032999 -0.012833 0.869000
0.036392 0.000758 0.869000
0.046797 -0.020559 0.863000
0.012785 0.021860 0.869000
-0.010810 -0.022821 0.868000
-0.028905 0.016249 0.875000
0.026468 0.011887 0.872000
-0.022345 0.003991 0.872000
-0.008696 -0.025051 0.871000
-0.038722 -0.014621 0.869000
0.037299 -0.034080 0.882000
0.003909 -0.030519 0.884000
-0.040510 -0.014264 0.869000
0.040853 -0.020962 0.865000
0.017751 -0.026007 0.867000
0.028262 0.009733 0.872000
0.019738 -0.029882 0.876000
0.028947 -0.002825 0.871000
0.015700 -0.001751 0.872000
-0.025815 -0.016391 0.868000
-0.035543 -0.006044 0.870000
-0.034229 0.007948 0.873000
0.026862 -0.033832 0.885000
0.012125 0.019805 0.873000
0.016004 -0.006753 0.869000
0.017394 -0.011733 0.867000
-0.024801 -0.022158 0.870000
0.026346 -0.010317 0.868000
-0.031750 0.008677 0.874000
0.007462 0.015871 0.874000
-0.037334 -0.009625 0.870000
-0.022782 0.021651 0.875000
-0.023808 0.009745 0.873000
0.005676 0.012302 0.876000
-0.023726 -0.003538 0.870000
0.041042 -0.000672 0.869000
0.043088 0.002898 0.867000
0.022695 -0.023098 0.865000
0.044108 0.013231 0.866000
0.032290 -0.034157 0.884000
-0.029456 -0.021442 0.870000
0.040141 -0.017402 0.865000
-0.026683 -0.023671 0.873000
-0.033869 0.003996 0.873000
0.004210 -0.010353 0.871000
0.028980 0.012605 0.872000
0.015949 -0.024194 0.866000
-0.007586 -0.020654 0.867000
0.033646 0.015117 0.872000
0.004584 0.017670 0.874000
0.017515 0.016571 0.873000
-0.020598 0.014432 0.874000
-0.038811 -0.000674 0.871000
-0.015561 0.013713 0.874000
0.047492 -0.018850 0.850000
-0.016641 0.014792 0.874000
0.031348 -0.010317 0.868000
-0.026652 -0.002469 0.872000
0.028980 -0.000675 0.872000
0.039429 -0.018114 0.865000
-0.007603 -0.024278 0.869000
0.000627 0.017310 0.874000
-0.001161 -0.020274 0.866000
0.005968 -0.021343 0.866000
-0.017976 -0.006753 0.869000
-0.041842 -0.024278 0.882000
-0.005129 0.018389 0.874000
0.025779 0.019087 0.873000
0.037534 -0.033602 0.879000
-0.050225 -0.001031 0.870000
0.031312 -0.032082 0.877000
0.033732 -0.022030 0.865000
0.027935 0.018009 0.873000
-0.011219 -0.007135 0.872000
0.034444 -0.026659 0.865000
0.034723 0.010810 0.872000
-0.040837 -0.022671 0.876000
-0.028185 0.005805 0.875000
0.026377 -0.007110 0.869000
0.035471 -0.023427 0.864000
-0.001891 0.016950 0.874000
-0.049509 0.001833 0.870000
0.027154 0.003628 0.871000
-0.037018 -0.000315 0.871000
-0.034509 -0.002466 0.871000
0.018844 -0.027466 0.868000
0.011354 -0.027140 0.869000
0.003116 -0.018492 0.866000
0.033096 -0.013160 0.867000
-0.019049 -0.011402 0.869000
0.019157 -0.024194 0.866000
0.001702 -0.006776 0.872000
-0.034667 0.016609 0.875000
0.028287 -0.033793 0.884000
0.015017 0.004360 0.874000
-0.044290 0.005433 0.873000
0.044821 0.011805 0.866000
-0.009727 -0.018156 0.867000
-0.023449 0.009026 0.873000
-0.046087 0.014416 0.873000
-0.026414 0.023839 0.876000
-0.013873 -0.027514 0.881000
0.037150 0.002550 0.870000
0.017833 0.003269 0.871000
0.016059 0.001479 0.872000
-0.011964 0.001122 0.874000
0.017374 -0.024907 0.866000
-0.033831 0.001838 0.872000
-0.011564 0.027288 0.871000
-0.001545 -0.029361 0.882000
-0.014074 -0.005693 0.871000
-0.009096 0.004725 0.875000
0.025720 0.004703 0.871000
0.047268 -0.010404 0.846000
0.036792 0.003624 0.870000
-0.025458 -0.015676 0.868000
0.047207 -0.008847 0.864000
0.031852 0.011887 0.872000
0.034444 -0.022030 0.865000
-0.008726 0.020907 0.874000
0.044108 -0.011719 0.866000
0.045837 -0.016690 0.865000
-0.027697 -0.004617 0.871000
-0.013326 -0.010329 0.869000
-0.038629 0.016970 0.875000
0.022186 0.017290 0.873000
0.002763 -0.014588 0.867000
-0.025000 -0.024863 0.877000
0.010724 -0.029161 0.876000
0.044465 0.009666 0.866000
-0.010897 0.013368 0.875000
0.007768 -0.013533 0.868000
0.031240 -0.022030 0.865000
0.014931 0.021860 0.869000
0.024314 0.014040 0.872000
-0.019049 -0.007110 0.869000
-0.025605 0.004355 0.873000
0.009632 0.009047 0.875000
-0.001530 0.020524 0.873000
-0.022957 -0.014962 0.868000
0.026765 0.000401 0.870000
0.037022 -0.008521 0.867000
-0.032829 0.027742 0.874000
0.003489 -0.011057 0.870000
0.020701 0.008288 0.871000
0.027807 0.021860 0.869000
-0.016583 -0.002466 0.871000
0.041352 0.017548 0.868000
0.021983 -0.020962 0.865000
0.012858 0.016590 0.874000
0.020007 0.009733 0.872000
0.011072 0.009767 0.875000
0.016343 -0.009960 0.868000
-0.008025 0.013383 0.876000
-0.032550 -0.026577 0.886000
-0.038364 -0.011760 0.869000
-0.037649 -0.010329 0.869000
-0.024527 0.005433 0.873000
0.010688 0.019805 0.873000
-0.042327 -0.011868 0.877000
-0.001161 -0.019561 0.866000
0.047616 -0.010404 0.846000
-0.039709 0.020211 0.875000
0.027839 -0.003538 0.870000
0.029816 -0.025947 0.865000
0.020226 -0.019917 0.866000
0.038627 0.008288 0.871000
0.037062 -0.034560 0.885000
-0.046034 0.000402 0.872000
0.036476 0.005779 0.871000
0.000985 -0.005699 0.872000
-0.033395 -0.006402 0.870000
-0.044189 -0.001032 0.871000
0.018058 -0.031902 0.882000
-0.001883 -0.025739 0.870000
0.032928 0.009733 0.872000
-0.039214 0.001479 0.872000
0.016362 -0.006395 0.869000
0.036517 0.014399 0.872000
0.021271 -0.020250 0.865000
-0.014466 0.001480 0.873000
0.023983 0.018009 0.873000
0.037292 -0.021318 0.865000
0.004200 -0.011402 0.869000
0.013500 -0.009972 0.869000
0.008463 -0.020274 0.866000
-0.036468 0.015529 0.875000
0.022365 -0.016353 0.866000
0.018865 -0.003176 0.869000
-0.033064 -0.027429 0.890000
-0.031963 -0.006044 0.870000
0.005346 -0.030053 0.881000
-0.051242 0.001819 0.863000
0.016796 0.015493 0.873000
0.034922 -0.032443 0.877000
0.040994 -0.004601 0.868000
0.003138 -0.007853 0.872000
-0.029985 0.020211 0.875000
-0.042754 -0.020032 0.871000
-0.011180 -0.010687 0.869000
-0.031750 0.005799 0.874000
-0.032395 -0.001751 0.872000
-0.002977 0.013023 0.876000
0.031815 -0.005693 0.871000
-0.028142 -0.026911 0.885000
-0.010165 0.018389 0.874000
-0.011978 0.005085 0.875000
0.016004 0.022218 0.869000
-0.010822 -0.010329 0.869000
0.009889 -0.020630 0.866000
0.025003 0.006137 0.871000
-0.001876 -0.023152 0.867000
0.012499 0.007238 0.874000
-0.000092 0.019108 0.874000
-0.037735 -0.002466 0.871000
-0.016526 -0.021750 0.868000
-0.016961 0.001120 0.872000
0.014657 0.007238 0.874000
0.012873 0.012648 0.875000
-0.007387 -0.029858 0.886000
0.030172 -0.019182 0.865000
0.019938 0.022218 0.869000
-0.014139 0.024892 0.875000
-0.025518 0.031118 0.858000
-0.040615 -0.023472 0.879000
0.017394 -0.012803 0.867000
0.026999 -0.014571 0.866000
-0.022243 -0.014962 0.868000
-0.033548 0.012274 0.874000
-0.027104 0.006165 0.875000
0.026407 0.003266 0.870000
-0.031066 0.015889 0.875000
0.012456 -0.007844 0.871000
-0.020244 0.030448 0.859000
0.027092 0.022576 0.869000
-0.009044 -0.024664 0.870000
0.035441 0.014040 0.872000
0.024917 -0.009603 0.868000
0.036159 0.012605 0.872000
-0.011617 0.009047 0.875000
-0.020934 0.008307 0.873000
-0.015903 0.007229 0.873000
0.006696 -0.025322 0.868000
0.016324 -0.011733 0.867000
-0.005135 0.015889 0.875000
0.033211 -0.005686 0.870000
-0.008696 0.024062 0.871000
0.032457 0.022218 0.869000
-0.021122 0.028557 0.866000
-0.012698 0.021291 0.875000
0.031852 0.014040 0.872000
-0.007647 0.019108 0.874000
0.014297 0.011914 0.874000
-0.015508 -0.004976 0.871000
0.013906 0.020500 0.872000
0.026528 -0.033870 0.886000
-0.017221 -0.019227 0.867000
-0.021268 0.006144 0.872000
-0.001528 -0.006417 0.872000
-0.020480 -0.010329 0.869000
-0.002593 -0.012461 0.868000
0.043395 0.006459 0.866000
-0.004026 -0.024636 0.869000
-0.024246 0.029524 0.863000
0.035594 -0.029575 0.867000
0.021652 -0.024551 0.866000
0.003120 -0.014231 0.867000
-0.036933 -0.014621 0.869000
-0.024943 0.015169 0.875000
0.028748 -0.022386 0.865000
-0.025905 -0.003183 0.871000
-0.040650 0.000402 0.872000
-0.028349 -0.019629 0.869000
-0.009817 0.015889 0.875000
0.025304 0.021503 0.869000
-0.022396 0.025943 0.874000
-0.019407 -0.008183 0.869000
-0.029780 -0.019271 0.869000
0.045534 -0.012789 0.866000
0.008901 0.015871 0.874000
0.012028 -0.019204 0.866000
0.030563 -0.017422 0.866000
-0.037061 0.001838 0.872000
-0.049711 0.008488 0.855000
-0.032183 -0.023753 0.876000
0.044108 -0.016353 0.866000
-0.034787 -0.011045 0.869000
0.007037 -0.020630 0.866000
-0.014106 -0.001394 0.873000
0.005279 -0.011057 0.870000
0.023928 0.005420 0.871000
-0.015794 -0.018870 0.867000
-0.001166 0.022602 0.870000
-0.039124 -0.006402 0.870000
0.036308 -0.008521 0.867000
-0.016923 -0.004612 0.870000
-0.030853 -0.009614 0.869000
0.026642 -0.017779 0.866000
0.039030 0.016194 0.872000
0.009176 -0.020630 0.866000
0.033530 0.021503 0.869000
0.031276 -0.027759 0.866000
0.029339 0.010092 0.872000
-0.023422 0.003632 0.872000
0.002064 -0.027264 0.873000
-0.005457 -0.010687 0.869000
-0.042853 0.006151 0.873000
-0.034430 -0.018198 0.869000
0.034921 -0.006745 0.868000
0.039702 0.011156 0.871000
0.005637 0.021528 0.870000
-0.037779 0.001479 0.872000
-0.030207 -0.004976 0.871000
-0.015866 -0.002825 0.871000
0.035718 -0.030752 0.870000
-0.035902 -0.006044 0.870000
-0.050005 0.007423 0.854000
-0.040153 -0.014979 0.869000
-0.027464 0.025253 0.875000
0.030451 0.002558 0.873000
-0.041941 -0.013906 0.869000
0.030451 -0.030858 0.873000
0.046140 -0.020938 0.864000
-0.028806 -0.003187 0.872000
-0.022782 0.025253 0.875000
0.023434 -0.015640 0.866000
-0.024443 -0.006402 0.870000
-0.009370 -0.016372 0.867000
0.031169 0.004714 0.873000
0.047771 -0.004181 0.855000
-0.041727 0.002914 0.872000
0.025959 -0.013160 0.867000
-0.034509 -0.003542 0.871000
-0.038006 -0.019271 0.869000
0.024258 0.000401 0.870000
0.018844 -0.009603 0.868000
-0.036786 0.011195 0.874000
-0.022678 -0.002466 0.871000
0.014879 -0.020630 0.866000
-0.027634 -0.008541 0.869000
-0.015455 -0.016034 0.868000
-0.031066 0.013728 0.875000
0.026079 0.005420 0.871000
-0.018821 0.019851 0.875000
0.005261 -0.016015 0.867000
0.031205 -0.031253 0.874000
0.031852 0.000043 0.872000
0.023983 0.016931 0.873000
0.022365 -0.015640 0.866000
-0.045727 0.008667 0.873000
-0.000813 0.015529 0.875000
-0.035266 0.002914 0.872000
0.033287 0.020500 0.872000
0.027839 0.021169 0.870000
-0.043880 0.003632 0.872000
-0.042445 0.000761 0.872000
0.041467 -0.023446 0.878000
0.011009 -0.009983 0.870000
-0.002596 -0.011045 0.869000
-0.016923 -0.023590 0.870000
-0.015903 0.010104 0.873000
-0.041463 0.009396 0.874000
0.011072 0.001124 0.875000
-0.028217 0.023479 0.876000
-0.025815 -0.019963 0.868000
0.022084 -0.000672 0.869000
-0.005111 -0.008919 0.871000
-0.025458 -0.019249 0.868000
-0.035748 0.021291 0.875000
-0.015219 0.022011 0.875000
0.019892 -0.011733 0.867000
0.023818 -0.012447 0.867000
-0.032109 0.004000 0.874000
0.025750 0.013322 0.872000
-0.017976 -0.008899 0.869000
0.044717 -0.022716 0.864000
0.041399 0.002547 0.869000
0.037193 0.010439 0.871000
0.005261 -0.017086 0.867000
0.021084 0.010451 0.872000
0.034524 -0.009592 0.867000
-0.009013 -0.019583 0.867000
-0.017997 -0.003896 0.870000
0.002785 0.016590 0.874000
-0.037692 -0.008909 0.870000
-0.035625 0.003273 0.872000
0.032702 -0.017422 0.866000
-0.011868 -0.019227 0.867000
0.019311 0.016571 0.873000
-0.030530 -0.007119 0.870000
0.021084 0.009733 0.872000
-0.042231 0.018770 0.875000
-0.027352 -0.025760 0.883000
0.032815 0.021503 0.869000
0.008473 -0.014231 0.867000
0.034364 0.005068 0.872000
-0.044341 0.011554 0.874000
-0.008386 -0.026637 0.876000
-0.043608 -0.002495 0.881000
-0.018498 0.030129 0.860000
0.037465 -0.002461 0.869000
0.018233 0.016931 0.873000
0.043088 0.014316 0.867000
0.024314 0.010451 0.872000
0.019870 -0.017422 0.866000
-0.020527 -0.002108 0.871000
0.007454 -0.006065 0.873000
-0.039115 -0.025847 0.886000
0.033849 -0.007817 0.868000
0.019829 -0.031467 0.880000
0.022905 0.014775 0.873000
0.026019 0.022218 0.869000
0.000636 -0.030987 0.887000
0.025720 0.005062 0.871000
0.001347 0.016950 0.874000
0.032815 -0.008541 0.869000
-0.044906 0.019401 0.871000
-0.024744 -0.013533 0.868000
0.009229 -0.009278 0.871000
-0.037549 0.017330 0.875000
-0.018808 0.032531 0.858000
-0.031210 -0.009614 0.869000
0.027481 -0.003180 0.870000
-0.023315 -0.018534 0.868000
-0.047966 0.011118 0.868000
0.024917 -0.006745 0.868000
0.016796 0.008667 0.873000
-0.032716 -0.021825 0.871000
-0.025592 -0.027275 0.885000
-0.018376 -0.001032 0.871000
-0.004409 0.019828 0.874000
0.044873 -0.008165 0.867000
0.037215 -0.033640 0.880000
0.020226 -0.025264 0.866000
-0.036912 -0.023419 0.877000
-0.013668 -0.021750 0.868000
-0.041320 -0.001749 0.871000
-0.037779 0.004350 0.872000
0.035993 -0.007817 0.868000
0.024946 -0.028928 0.869000
-0.035584 -0.000674 0.871000
0.033927 -0.003180 0.870000
-0.048569 0.008954 0.866000
-0.020903 0.031435 0.857000
0.024258 0.000759 0.870000
-0.031318 -0.002828 0.872000
0.047696 -0.021903 0.860000
0.016437 0.006151 0.873000
-0.028185 0.004725 0.875000
0.027481 0.000043 0.870000
-0.007254 -0.025022 0.870000
-0.004731 -0.016729 0.867000
0.023488 -0.027823 0.868000
-0.021005 0.022758 0.876000
0.032607 0.004714 0.873000
0.045534 -0.011719 0.866000
-0.002590 -0.018156 0.867000
-0.006180 0.022602 0.870000
0.014896 -0.025293 0.867000
0.037866 0.005414 0.870000
0.024645 0.008647 0.871000
0.009889 -0.017779 0.866000
-0.034588 0.009745 0.873000
0.044465 0.012161 0.866000
0.021394 0.000043 0.870000
0.002417 -0.009995 0.871000
-0.021702 0.020931 0.875000
-0.049122 0.016268 0.857000
0.011432 0.009407 0.875000
0.043445 -0.011733 0.867000
0.006383 0.018389 0.874000
-0.013684 -0.010687 0.869000
-0.032716 -0.004259 0.871000
-0.032283 -0.012833 0.869000
-0.023476 0.011554 0.874000
-0.027665 -0.006044 0.870000
-0.030741 0.022397 0.876000
0.045943 -0.007451 0.867000
0.032569 0.014758 0.872000
0.017854 0.004709 0.872000
0.025750 0.014040 0.872000
0.001342 -0.009995 0.871000
0.001336 -0.022795 0.867000
0.010614 -0.013517 0.867000
-0.039437 -0.017125 0.869000
-0.012239 -0.022464 0.868000
-0.018821 0.021291 0.875000
0.003493 -0.009995 0.871000
0.039611 -0.001388 0.869000
0.004933 -0.006417 0.872000
-0.023315 -0.016748 0.868000
0.013112 -0.015658 0.867000
0.046549 -0.011706 0.865000
-0.004022 -0.023893 0.868000
-0.023010 -0.005686 0.870000
-0.036468 0.020571 0.875000
0.040900 -0.015640 0.866000
0.015646 -0.007468 0.869000
0.014129 -0.032411 0.886000
0.039208 -0.006388 0.868000
0.030775 -0.000675 0.872000
-0.016206 -0.004612 0.870000
-0.019407 -0.022490 0.869000
-0.040743 -0.004993 0.874000
-0.031963 -0.007119 0.870000
0.045837 -0.018114 0.865000
-0.026713 0.004360 0.874000
0.037866 0.006130 0.870000
0.015844 -0.031105 0.880000
0.014281 0.015853 0.873000
0.005663 0.018029 0.874000
-0.010465 -0.023921 0.869000
-0.049867 0.000401 0.870000
0.034600 -0.032841 0.878000
-0.030706 0.009407 0.875000
-0.041320 0.022986 0.871000
-0.000805 -0.019561 0.866000
-0.024583 0.019851 0.875000
0.017833 0.000760 0.871000
0.010712 0.008326 0.875000
-0.021171 -0.013533 0.868000
-0.011551 -0.024306 0.870000
-0.038452 -0.004259 0.871000
-0.025845 -0.009256 0.869000
0.024342 0.015853 0.873000
0.035718 0.003624 0.870000
-0.004040 -0.007853 0.872000
-0.022626 -0.011045 0.869000
-0.008357 -0.005347 0.873000
0.005996 0.022960 0.870000
0.008830 -0.014231 0.867000
-0.002644 -0.030189 0.885000
-0.020456 -0.017105 0.868000
0.045784 -0.020938 0.864000
-0.036618 -0.008551 0.870000
-0.035145 -0.018198 0.869000
-0.034307 0.021291 0.875000
0.017077 -0.006753 0.869000
0.045943 -0.008878 0.867000
0.002417 -0.008919 0.871000
-0.040337 0.005433 0.873000
-0.025188 -0.001391 0.871000
-0.036576 -0.013191 0.869000
-0.031568 -0.009614 0.869000
0.006354 0.021528 0.870000
-0.047057 0.014024 0.871000
-0.035145 -0.009972 0.869000
-0.003694 0.015169 0.875000
0.047177 -0.020768 0.857000
0.019135 -0.022030 0.865000
-0.011167 -0.011389 0.868000
0.027871 0.004345 0.871000
-0.032641 -0.010329 0.869000
0.013188 -0.004623 0.872000
-0.023368 -0.005686 0.870000
-0.000807 -0.025351 0.869000
0.032664 -0.018826 0.865000
0.002779 -0.007135 0.872000
0.033810 -0.028504 0.867000
-0.042231 0.017690 0.875000
-0.032679 -0.020725 0.870000
0.010316 0.020859 0.872000
-0.034907 0.000761 0.872000
0.005612 -0.019561 0.866000
0.048370 -0.014948 0.847000
-0.011978 0.022011 0.875000
0.007428 0.022602 0.870000
0.014590 -0.007477 0.870000
-0.017241 -0.012818 0.868000
0.016096 0.010115 0.874000
0.039565 -0.003172 0.868000
-0.005117 -0.006058 0.872000
0.047197 -0.004862 0.851000
-0.023341 -0.009972 0.869000
-0.001531 -0.005353 0.874000
-0.021317 0.015152 0.874000
-0.024972 0.023839 0.876000
-0.034469 -0.007835 0.870000
0.044873 -0.007808 0.867000
0.027871 0.020835 0.871000
-0.030345 0.005805 0.875000
0.002779 -0.007853 0.872000
-0.051361 0.001111 0.865000
-0.012756 -0.027090 0.879000
0.002760 -0.020274 0.866000
-0.038021 -0.025847 0.886000
0.038449 -0.011733 0.867000
0.039429 -0.019538 0.865000
0.042584 -0.022361 0.864000
0.013469 -0.014231 0.867000
-0.043063 -0.018577 0.870000
-0.025487 -0.020344 0.869000
0.008473 -0.017086 0.867000
0.010316 -0.005699 0.872000
0.035319 -0.003534 0.869000
0.030416 0.015476 0.872000
0.022008 -0.019917 0.866000
-0.037018 -0.002108 0.871000
-0.030959 -0.003187 0.872000
0.030563 -0.018492 0.866000
0.025216 -0.015284 0.866000
0.019984 0.003986 0.871000
-0.022243 -0.020321 0.868000
-0.021244 0.001835 0.871000
0.034683 0.002552 0.871000
-0.014350 0.028914 0.866000
-0.000092 -0.019561 0.866000
-0.031889 -0.014247 0.868000
0.026796 0.007213 0.871000
0.015000 0.018009 0.873000
-0.038811 -0.004617 0.871000
-0.029298 0.006533 0.876000
-0.048132 -0.001032 0.871000
-0.020814 -0.014604 0.868000
0.031952 -0.019894 0.865000
-0.012669 -0.025468 0.873000
-0.006880 -0.012818 0.868000
-0.030530 -0.008193 0.870000
0.018952 0.015853 0.873000
0.005304 0.017310 0.874000
-0.039978 0.005073 0.873000
-0.034628 0.011914 0.874000
0.029954 0.021860 0.869000
0.039969 0.000401 0.869000
0.015359 0.018368 0.873000
-0.006251 -0.028207 0.880000
-0.019496 0.010463 0.873000
0.012384 -0.016709 0.866000
0.041495 0.009005 0.871000
-0.004059 0.011220 0.876000
0.029596 0.021860 0.869000
0.000998 -0.030155 0.884000
0.031669 -0.013517 0.867000
-0.031390 0.024864 0.874000
-0.017955 -0.013533 0.868000
-0.017935 -0.018870 0.867000
-0.020238 0.013713 0.874000
0.004899 -0.019917 0.866000
-0.021342 0.018770 0.875000
0.031240 -0.020606 0.865000
-0.048849 0.003628 0.871000
-0.039795 -0.011760 0.869000
-0.033510 0.003277 0.873000
-0.016942 0.026930 0.871000
-0.021553 -0.011760 0.869000
0.038538 -0.001745 0.869000
0.018150 -0.005680 0.869000
-0.018004 -0.028829 0.888000
-0.035625 0.000043 0.872000
0.020366 0.012605 0.872000
-0.021936 -0.005328 0.870000
0.018844 -0.008174 0.868000
0.004215 -0.006776 0.872000
0.024831 -0.022742 0.865000
0.035082 0.015476 0.872000
0.004547 -0.016372 0.867000
0.030634 -0.010317 0.868000
0.045481 -0.015266 0.865000
-0.041510 0.019851 0.875000
-0.005088 -0.018513 0.867000
-0.040976 -0.023472 0.879000
0.012028 -0.020274 0.866000
-0.014757 -0.011045 0.869000
-0.017997 -0.004970 0.870000
-0.026530 -0.014962 0.868000
0.014523 -0.017066 0.866000
-0.036468 0.017690 0.875000
0.040994 -0.003172 0.868000
0.006398 0.009417 0.876000
-0.019181 0.024532 0.875000
-0.009446 0.000043 0.874000
0.022110 0.001833 0.870000
