-0.011895 0.018999 0.869000
-0.024001 -0.021011 0.867000
0.042163 -0.012848 0.870000
0.018380 0.002884 0.863000
0.004944 -0.030893 0.874000
0.007037 -0.006373 0.866000
0.034325 -0.016447 0.871000
0.009533 -0.005304 0.866000
0.022313 0.011422 0.864000
0.021932 0.008567 0.863000
0.004176 -0.010270 0.864000
0.003807 -0.020157 0.861000
0.032715 -0.005249 0.857000
0.029885 0.030017 0.867000
-0.026112 -0.025977 0.866000
-0.012183 -0.020938 0.864000
0.041485 -0.002072 0.856000
0.004220 0.015853 0.873000
0.039155 -0.008443 0.859000
0.041630 0.011710 0.859000
0.033615 0.011396 0.862000
-0.001891 0.009036 0.874000
0.021108 -0.023312 0.873000
0.020842 0.003236 0.862000
-0.011841 -0.017402 0.865000
-0.027959 -0.022821 0.868000
0.045766 0.008155 0.857000
-0.005848 0.006518 0.874000
0.032867 -0.012715 0.861000
-0.038225 -0.008590 0.874000
0.018887 0.031554 0.870000
-0.021220 -0.005686 0.870000
-0.026683 -0.003909 0.873000
-0.026384 0.012288 0.875000
-0.027824 0.006886 0.875000
-0.017241 -0.009960 0.868000
-0.012197 -0.017046 0.865000
0.032982 0.022090 0.864000
0.023051 0.013215 0.865000
-0.028641 -0.024579 0.867000
-0.028931 0.017132 0.865000
0.032009 -0.005954 0.857000
0.016004 0.025437 0.869000
-0.032183 0.004370 0.876000
0.028847 0.030767 0.868000
0.021345 -0.021035 0.868000
0.008079 -0.008482 0.863000
-0.043212 -0.017204 0.873000
-0.003643 -0.028018 0.863000
0.000622 -0.029218 0.867000
0.038582 0.017072 0.862000
-0.021171 -0.016034 0.868000
-0.022473 -0.044354 0.877000
0.003102 -0.016277 0.862000
0.027030 0.013246 0.867000
0.034126 -0.005601 0.857000
-0.007212 -0.015266 0.865000
0.015930 0.005027 0.865000
0.012069 0.032233 0.869000
0.023184 0.021886 0.870000
0.007070 0.028331 0.870000
0.028615 0.004295 0.861000
-0.004384 0.024364 0.869000
-0.034430 -0.022490 0.869000
-0.041631 -0.025022 0.870000
-0.023315 -0.040327 0.868000
-0.032004 -0.027152 0.881000
-0.031963 -0.018577 0.870000
0.031767 -0.011992 0.860000
0.021369 0.021145 0.869000
0.045150 0.016617 0.839000
0.001326 -0.020511 0.861000
-0.013589 -0.031570 0.863000
0.028714 0.035248 0.864000
0.007822 -0.029814 0.874000
0.026396 -0.010552 0.858000
-0.004050 0.011554 0.874000
-0.001170 -0.033013 0.873000
0.028068 0.022141 0.866000
0.014879 -0.022769 0.866000
0.029643 0.003228 0.860000
0.025959 0.015387 0.867000
-0.044598 -0.001393 0.872000
0.045692 -0.010687 0.869000
-0.048344 -0.013794 0.862000
-0.016825 -0.020962 0.865000
-0.041056 -0.013970 0.873000
-0.026744 0.006526 0.875000
-0.035135 0.015971 0.860000
-0.000092 0.021218 0.872000
-0.044547 -0.018957 0.871000
-0.046192 -0.005359 0.875000
0.029255 -0.000311 0.859000
-0.024274 -0.033029 0.864000
0.025362 -0.020749 0.871000
0.017334 0.003599 0.864000
-0.003311 0.024364 0.869000
-0.020790 -0.019583 0.867000
-0.006832 -0.026566 0.862000
-0.021073 -0.030895 0.864000
-0.008357 0.005433 0.873000
-0.028512 0.002202 0.874000
0.004171 -0.025176 0.863000
-0.042558 -0.026720 0.867000
0.029816 0.010367 0.865000
-0.051182 -0.017820 0.868000
0.011110 -0.029950 0.878000
-0.001874 -0.029897 0.866000
0.022184 -0.010918 0.859000
-0.008961 -0.024792 0.862000
-0.004031 0.022602 0.870000
-0.017873 -0.028406 0.864000
0.016998 0.007163 0.865000
0.008051 -0.017656 0.860000
-0.033625 0.005451 0.876000
0.036057 0.012800 0.861000
-0.037103 0.007948 0.873000
0.011958 -0.012006 0.861000
0.023158 0.020072 0.869000
0.025690 -0.009492 0.858000
0.038050 0.004280 0.858000
0.029643 -0.012700 0.860000
-0.034707 0.003288 0.876000
-0.006123 -0.024792 0.862000
-0.046446 -0.001035 0.873000
-0.034867 -0.014655 0.871000
0.029460 0.018556 0.865000
0.040075 -0.002424 0.856000
0.027906 0.003586 0.861000
0.007078 0.025137 0.871000
-0.016113 -0.020606 0.865000
-0.025605 0.001840 0.873000
-0.044545 -0.025917 0.864000
-0.011206 -0.006768 0.871000
-0.002223 -0.015941 0.863000
0.017941 -0.014807 0.859000
0.034599 0.006414 0.860000
0.021394 0.034418 0.870000
0.001695 -0.006745 0.868000
0.042093 -0.015460 0.876000
0.036284 0.023703 0.858000
-0.024886 0.000762 0.873000
-0.019787 -0.007477 0.870000
-0.020362 -0.028761 0.864000
-0.030635 0.011900 0.873000
0.017334 -0.020583 0.864000
0.014914 0.036840 0.868000
-0.033472 -0.012160 0.872000
0.019961 0.034418 0.870000
-0.002220 -0.025502 0.862000
0.046934 -0.005614 0.859000
-0.007187 -0.022664 0.862000
0.031632 0.026062 0.866000
0.007385 -0.025591 0.865000
0.020487 0.003590 0.862000
0.040216 0.009588 0.859000
0.044105 0.015245 0.859000
0.022416 0.027551 0.868000
-0.023261 -0.038095 0.866000
0.007037 -0.006017 0.866000
0.004215 0.017629 0.872000
0.039601 0.016698 0.861000
0.022261 -0.017342 0.862000
-0.041775 -0.013251 0.873000
-0.024443 -0.018577 0.870000
-0.008338 0.022269 0.871000
-0.033680 0.018427 0.859000
-0.006538 0.023318 0.870000
0.011236 -0.014824 0.860000
0.000626 0.017649 0.873000
0.006719 0.026213 0.871000
0.021727 0.036167 0.869000
-0.023261 -0.038452 0.866000
0.030457 0.035562 0.863000
0.013516 0.024392 0.870000
-0.019093 -0.001391 0.871000
-0.027506 -0.032355 0.865000
0.029460 0.011079 0.865000
0.018444 -0.020987 0.866000
-0.016469 -0.019894 0.865000
-0.023918 -0.033029 0.864000
0.037387 -0.008796 0.859000
-0.001521 -0.009603 0.868000
-0.018584 -0.027695 0.864000
0.010675 -0.027233 0.872000
0.034872 0.000749 0.858000
0.035931 0.001102 0.858000
0.008860 0.007204 0.870000
-0.037188 0.006526 0.875000
0.000623 0.026837 0.868000
0.038760 -0.016144 0.874000
0.008125 0.031481 0.868000
0.022442 0.025795 0.869000
0.017751 0.036797 0.867000
0.022313 0.010355 0.864000
-0.019385 -0.011389 0.868000
-0.045009 -0.014329 0.873000
0.038359 -0.003838 0.857000
0.035075 0.020289 0.863000
-0.001509 -0.021929 0.861000
0.023353 -0.017717 0.863000
-0.037692 -0.023590 0.870000
-0.032544 0.005451 0.876000
0.013485 0.005402 0.868000
-0.017380 -0.041012 0.875000
0.035744 0.015298 0.862000
-0.000092 0.019424 0.872000
-0.038855 -0.015748 0.872000
0.008060 -0.012715 0.861000
-0.010798 -0.034214 0.867000
-0.001168 0.023703 0.871000
0.031204 0.019601 0.864000
0.019824 0.006799 0.864000
-0.015812 -0.009960 0.868000
0.033693 0.026002 0.864000
0.027165 0.000042 0.860000
0.037692 -0.012076 0.866000
-0.036108 -0.000677 0.875000
0.027134 -0.003847 0.859000
-0.028023 -0.016787 0.870000
0.012427 0.019714 0.869000
0.044516 -0.013626 0.874000
0.020915 0.013571 0.865000
0.007360 -0.011310 0.862000
0.026043 -0.011258 0.858000
0.013037 -0.021244 0.862000
-0.010380 -0.026921 0.862000
0.000625 0.024062 0.871000
-0.021961 -0.003183 0.871000
-0.031175 -0.022821 0.868000
-0.020862 -0.005328 0.870000
0.024889 0.016101 0.867000
-0.011882 -0.009960 0.868000
-0.029882 -0.012160 0.872000
-0.013605 -0.024494 0.864000
-0.018670 -0.013890 0.868000
0.015556 -0.021294 0.864000
-0.022878 -0.027727 0.865000
0.035225 0.001808 0.858000
-0.012324 0.002561 0.874000
0.007037 -0.025977 0.866000
-0.007915 -0.030539 0.864000
0.022184 -0.011978 0.859000
0.023515 0.035452 0.869000
-0.014155 -0.039977 0.876000
0.018150 0.035809 0.869000
-0.031641 -0.013580 0.871000
-0.045453 -0.021929 0.861000
-0.041870 -0.001397 0.875000
-0.042299 -0.025351 0.869000
-0.024858 0.016911 0.872000
-0.005451 -0.011389 0.868000
-0.040115 -0.001038 0.876000
0.039884 -0.016163 0.875000
0.044303 -0.000310 0.856000
0.021197 0.001462 0.862000
-0.015757 -0.034135 0.865000
0.019223 0.024722 0.869000
-0.020598 0.012633 0.874000
0.044459 0.011710 0.859000
-0.046786 -0.016353 0.866000
-0.031604 -0.015712 0.870000
0.008830 -0.025650 0.867000
0.003149 0.011568 0.875000
-0.023503 0.010847 0.875000
0.012398 0.000757 0.867000
0.003497 0.021936 0.872000
0.003497 0.023013 0.872000
-0.009338 -0.017382 0.864000
-0.025605 -0.008580 0.873000
-0.019318 -0.024167 0.865000
-0.011813 -0.030149 0.863000
-0.015561 -0.039526 0.874000
0.003834 -0.007808 0.867000
0.016343 0.020406 0.868000
-0.041941 -0.024994 0.869000
0.015857 -0.007399 0.861000
0.009466 -0.015532 0.860000
-0.001865 -0.024083 0.862000
-0.006545 0.020477 0.871000
-0.049244 -0.017512 0.853000
0.000269 -0.035814 0.880000
-0.032904 0.007975 0.876000
-0.033587 0.001124 0.875000
0.020464 -0.003501 0.861000
0.037077 0.021988 0.860000
-0.045832 -0.008600 0.875000
-0.030711 0.016064 0.865000
0.027743 0.018599 0.867000
-0.012524 -0.025531 0.863000
-0.014366 -0.012090 0.867000
0.008154 0.008647 0.871000
0.016700 0.022550 0.868000
0.028847 0.031481 0.868000
0.001345 0.013697 0.873000
0.015130 -0.009160 0.860000
0.000626 0.018009 0.873000
-0.010037 -0.029083 0.863000
0.007013 -0.024466 0.863000
-0.017320 -0.000675 0.872000
0.012069 0.013992 0.869000
-0.024527 0.001121 0.873000
-0.023754 -0.008202 0.871000
0.020226 0.015369 0.866000
0.021727 0.028656 0.869000
-0.027433 -0.001755 0.874000
0.013858 0.023649 0.869000
-0.042445 -0.019337 0.872000
-0.014333 -0.033779 0.865000
0.000267 0.015511 0.874000
-0.024112 -0.006051 0.871000
0.020915 0.013215 0.865000
-0.048417 -0.015830 0.857000
-0.011644 -0.039662 0.877000
0.035931 0.024056 0.858000
0.015306 0.032986 0.870000
-0.013234 -0.029794 0.863000
-0.009435 0.014416 0.873000
-0.032358 -0.013938 0.871000
-0.045623 -0.016447 0.871000
-0.027073 0.000763 0.874000
0.042944 0.002159 0.857000
0.004882 -0.010613 0.863000
0.006642 -0.016967 0.861000
-0.040557 -0.023948 0.870000
0.009577 0.019737 0.870000
-0.038677 0.009689 0.868000
-0.027307 -0.017861 0.870000
0.038985 -0.014655 0.871000
-0.013250 -0.032673 0.864000
-0.045400 -0.022611 0.860000
0.014811 -0.020180 0.862000
-0.026499 -0.023509 0.867000
0.024008 -0.000666 0.861000
0.008424 -0.022664 0.862000
0.000974 -0.026597 0.863000
0.019135 0.010367 0.865000
-0.046034 -0.014672 0.872000
-0.016262 0.005433 0.873000
-0.007287 0.009396 0.874000
0.030528 -0.015266 0.865000
0.037163 0.016363 0.862000
-0.041320 -0.020391 0.871000
-0.008972 -0.023045 0.863000
0.019223 0.036167 0.869000
0.025720 -0.006675 0.859000
-0.027824 -0.004999 0.875000
0.032400 -0.002783 0.858000
0.044105 -0.013611 0.873000
0.007795 0.010798 0.871000
-0.007577 -0.032392 0.866000
0.014506 -0.001025 0.865000
0.021856 -0.015532 0.860000
0.026936 0.008933 0.864000
0.041533 0.002511 0.857000
0.034049 0.021735 0.864000
0.011958 -0.010234 0.861000
-0.034509 -0.013938 0.871000
-0.016981 0.006151 0.873000
0.006332 -0.003882 0.867000
-0.046408 -0.023645 0.859000
-0.003323 0.019783 0.872000
-0.039428 0.013154 0.861000
0.012814 0.030873 0.871000
-0.006222 -0.036732 0.876000
0.003812 -0.013439 0.862000
-0.004753 0.021552 0.871000
-0.023503 0.013008 0.875000
0.041485 0.021181 0.856000
0.020770 -0.014453 0.859000
0.003138 0.021218 0.872000
0.021123 -0.008089 0.859000
0.018025 0.002174 0.863000
0.000978 -0.010650 0.866000
0.038227 0.018137 0.862000
0.021246 0.008222 0.864000
-0.040137 0.012800 0.861000
0.042239 -0.004190 0.857000
-0.012683 0.010115 0.874000
-0.034271 0.013927 0.865000
0.010293 0.012934 0.870000
-0.023341 -0.040731 0.869000
0.008191 0.007966 0.875000
0.043347 0.008871 0.858000
0.026346 0.035768 0.868000
0.025304 0.021860 0.869000
-0.027276 -0.019629 0.869000
-0.014482 0.005439 0.874000
-0.025341 -0.034096 0.864000
0.035889 -0.002427 0.857000
-0.028281 -0.037900 0.878000
-0.024471 -0.008561 0.871000
-0.005801 -0.032073 0.867000
-0.008616 -0.022690 0.863000
0.023598 -0.013746 0.859000
-0.026408 -0.033384 0.864000
0.040875 0.006399 0.858000
-0.013977 -0.018114 0.865000
0.037163 0.017782 0.862000
-0.010537 -0.035610 0.875000
0.022918 -0.004205 0.860000
0.015610 0.016101 0.867000
-0.005432 -0.030575 0.865000
0.024659 -0.012332 0.859000
0.016681 0.015387 0.867000
0.044105 0.015952 0.859000
-0.024527 -0.000676 0.873000
0.027323 0.010011 0.865000
-0.021073 -0.033384 0.864000
0.013500 0.020072 0.869000
-0.021098 -0.035915 0.865000
-0.006613 -0.038711 0.880000
0.014085 -0.018739 0.861000
-0.032544 0.005812 0.876000
0.018046 0.005377 0.864000
0.021036 0.033344 0.870000
-0.027475 -0.035874 0.864000
-0.034229 -0.009299 0.873000
0.022034 0.017528 0.867000
0.021148 -0.015532 0.860000
0.037163 0.016008 0.862000
0.028003 0.007866 0.864000
0.008952 -0.031431 0.879000
0.046223 0.013273 0.846000
-0.048491 -0.008919 0.871000
0.005696 -0.032879 0.879000
0.019892 0.018955 0.867000
-0.047088 -0.015978 0.865000
-0.015721 -0.030149 0.863000
-0.007897 -0.026566 0.862000
-0.044031 -0.002478 0.875000
-0.029745 -0.023179 0.868000
-0.024223 0.008686 0.875000
-0.040115 -0.001399 0.876000
0.035702 0.013154 0.861000
0.002744 -0.021220 0.861000
0.016546 -0.009160 0.860000
-0.034707 0.005812 0.876000
-0.013342 -0.007119 0.870000
-0.012324 0.009036 0.874000
0.007706 -0.014487 0.861000
-0.033443 0.016008 0.862000
0.019603 0.031912 0.870000
-0.001169 0.017988 0.872000
-0.008696 -0.003542 0.871000
-0.017997 0.015798 0.870000
-0.005768 -0.024437 0.862000
-0.021652 0.004714 0.873000
0.013531 0.027647 0.871000
0.015592 0.008241 0.866000
-0.002248 0.009026 0.873000
0.001689 -0.027727 0.865000
-0.036618 -0.020725 0.870000
0.033117 -0.019809 0.877000
-0.010501 0.000043 0.872000
-0.031532 -0.023536 0.868000
-0.033492 -0.025730 0.882000
0.013624 -0.028472 0.877000
-0.010872 0.001840 0.873000
-0.015383 -0.023072 0.864000
0.031276 -0.020508 0.876000
-0.015028 -0.025561 0.864000
0.034760 0.022090 0.864000
0.002412 -0.004964 0.869000
-0.022496 -0.029473 0.864000
0.042790 -0.008462 0.861000
0.036595 -0.005249 0.857000
-0.028839 -0.011096 0.873000
-0.051049 -0.020193 0.878000
-0.010513 0.000762 0.873000
0.033812 0.000396 0.858000
0.008144 0.020811 0.870000
-0.039304 -0.007871 0.874000
0.032233 0.014250 0.863000
0.010281 0.007554 0.869000
0.030670 0.000042 0.859000
0.045113 0.009930 0.858000
-0.004720 -0.013842 0.865000
0.044656 -0.002776 0.856000
-0.015939 -0.040292 0.875000
-0.024744 -0.020321 0.868000
0.024258 0.022244 0.870000
-0.034667 -0.001397 0.875000
-0.011244 0.010475 0.874000
-0.013731 -0.002110 0.872000
-0.019071 -0.004970 0.870000
0.008860 0.029405 0.870000
0.043802 0.015617 0.860000
-0.017000 0.009756 0.874000
0.023845 -0.019963 0.868000
0.018529 0.034776 0.870000
-0.015848 -0.037913 0.870000
-0.034947 -0.009658 0.873000
0.019581 0.027225 0.869000
0.038847 0.010307 0.860000
-0.012625 0.017589 0.870000
-0.034469 -0.021084 0.870000
-0.026713 -0.010029 0.874000
0.006727 0.014040 0.872000
-0.038989 -0.006439 0.875000
0.010614 -0.002098 0.867000
0.020654 0.036167 0.869000
-0.044189 -0.025561 0.864000
0.014183 0.013960 0.867000
-0.002950 -0.010675 0.868000
0.013021 -0.009880 0.861000
-0.018605 -0.024167 0.865000
0.003453 -0.019802 0.861000
-0.008666 -0.033896 0.868000
0.021148 -0.006683 0.860000
-0.000805 -0.010662 0.867000
0.027134 -0.004200 0.859000
-0.037420 0.008298 0.872000
0.037518 0.016717 0.862000
0.026255 0.038137 0.865000
-0.011103 -0.022335 0.863000
0.038359 -0.003132 0.857000
-0.031066 0.002204 0.875000
0.012427 -0.025351 0.869000
-0.000092 0.024750 0.870000
0.019961 0.030121 0.870000
0.039769 -0.004896 0.857000
-0.002933 -0.017007 0.863000
0.047043 -0.006336 0.861000
-0.027729 0.014399 0.872000
-0.007568 -0.031999 0.865000
-0.023476 0.005799 0.874000
0.015930 0.002179 0.865000
-0.006173 0.023291 0.869000
-0.032506 -0.003558 0.875000
0.031989 0.026775 0.866000
0.019400 -0.004564 0.861000
0.006361 0.024062 0.871000
-0.010405 -0.020227 0.864000
0.002770 0.026868 0.869000
0.032944 0.016737 0.863000
-0.016884 -0.011746 0.868000
0.023790 0.014300 0.866000
0.015271 0.020049 0.868000
0.036224 -0.012418 0.865000
-0.017340 0.005073 0.873000
-0.022548 -0.038095 0.866000
0.025989 0.021478 0.868000
-0.027213 -0.023152 0.867000
-0.023395 -0.005693 0.871000
-0.034469 -0.020367 0.870000
-0.005088 -0.012447 0.867000
-0.002964 0.019783 0.872000
-0.048187 -0.003546 0.872000
0.038711 -0.003485 0.857000
-0.009682 -0.023400 0.863000
-0.013028 0.012978 0.873000
0.030987 -0.002076 0.858000
-0.001531 0.014792 0.874000
0.021477 -0.014807 0.859000
0.005225 -0.015195 0.861000
-0.040115 0.000043 0.876000
0.034126 -0.006307 0.857000
-0.033227 -0.000317 0.875000
-0.038313 0.000764 0.876000
-0.001512 -0.027307 0.863000
0.024063 0.007502 0.863000
0.026673 0.014673 0.867000
0.022537 -0.008089 0.859000
-0.004040 0.019783 0.872000
0.008154 0.011156 0.871000
-0.028218 -0.031999 0.865000
-0.002241 0.023676 0.870000
0.017374 0.013587 0.866000
0.025989 0.023979 0.868000
0.018046 0.007155 0.864000
-0.027830 -0.035162 0.864000
0.029816 -0.015978 0.865000
0.049649 0.008448 0.851000
0.014248 0.028722 0.871000
0.011354 0.013992 0.869000
0.024889 0.015387 0.867000
0.021830 -0.008089 0.859000
-0.015757 -0.034847 0.865000
-0.005848 0.010475 0.874000
-0.004050 0.013713 0.874000
0.007411 0.031838 0.868000
0.018066 0.012503 0.865000
0.001710 -0.033127 0.876000
0.011315 -0.003165 0.866000
0.017669 0.001819 0.863000
-0.019496 -0.040918 0.873000
0.041299 0.023691 0.845000
-0.025905 -0.017523 0.871000
0.017962 -0.008807 0.860000
0.001704 -0.031936 0.873000
0.010882 -0.018717 0.860000
0.022008 0.038537 0.866000
0.034325 -0.016806 0.871000
0.022774 0.018620 0.868000
-0.020503 -0.004970 0.870000
-0.010154 0.016212 0.873000
-0.045570 -0.018219 0.870000
-0.025964 0.000043 0.873000
-0.010154 0.004355 0.873000
-0.009034 -0.009972 0.869000
-0.025605 -0.001753 0.873000
0.040428 -0.001719 0.856000
0.002779 0.024448 0.872000
0.033498 -0.010918 0.859000
-0.013403 0.009756 0.874000
0.012667 -0.008462 0.861000
-0.028773 -0.015013 0.871000
0.033537 -0.011638 0.860000
-0.021961 -0.005693 0.871000
-0.017882 -0.044607 0.882000
0.000264 -0.028050 0.864000
0.038538 0.014572 0.861000
0.045820 0.012402 0.858000
0.034639 0.025912 0.861000
0.036680 -0.008796 0.859000
0.008860 0.010785 0.870000
0.002392 -0.025147 0.862000
0.034679 0.014234 0.862000
0.028100 0.014316 0.867000
-0.028251 0.017864 0.866000
0.019892 0.018599 0.867000
0.040419 -0.013938 0.871000
-0.008716 0.014056 0.873000
-0.014482 0.006158 0.874000
-0.002272 -0.037347 0.882000
0.007437 0.026930 0.871000
0.035430 0.022420 0.863000
-0.027538 -0.026333 0.866000
-0.022037 0.007957 0.874000
0.014281 -0.026546 0.873000
-0.000450 0.024722 0.869000
0.019355 -0.011978 0.859000
0.033537 0.007122 0.860000
0.034245 0.005352 0.860000
0.018129 -0.022464 0.868000
0.026980 -0.022697 0.877000
0.035889 -0.001721 0.857000
-0.032716 -0.015730 0.871000
-0.045472 -0.005359 0.875000
-0.034548 -0.013595 0.872000
0.006658 -0.010258 0.863000
0.039110 0.002161 0.858000
0.039630 0.022538 0.854000
-0.018121 -0.041780 0.876000
-0.002605 0.018706 0.872000
0.008512 0.014383 0.871000
-0.036976 -0.021084 0.870000
-0.026082 -0.037695 0.865000
0.000972 -0.020511 0.861000
0.026346 0.022907 0.868000
-0.032146 -0.005359 0.875000
0.021577 0.005726 0.863000
-0.010525 0.009036 0.874000
0.008830 -0.026007 0.867000
0.032853 -0.017145 0.870000
0.027292 0.037026 0.864000
0.034559 0.003224 0.859000
0.035075 0.019934 0.863000
0.012652 -0.016240 0.860000
-0.003292 -0.029473 0.864000
-0.015721 -0.030504 0.863000
-0.014383 -0.009603 0.868000
0.004955 0.011581 0.876000
-0.026980 0.015099 0.871000
-0.051653 -0.018345 0.876000
0.008769 -0.014841 0.861000
0.023653 0.002523 0.861000
-0.044341 -0.011828 0.874000
-0.015739 -0.032318 0.864000
0.016880 -0.011271 0.859000
-0.014058 0.017589 0.870000
-0.027464 -0.006439 0.875000
-0.017720 -0.040605 0.874000
0.039064 0.001453 0.857000
-0.029848 -0.013938 0.871000
-0.038983 0.014538 0.859000
-0.014432 -0.004259 0.871000
-0.044290 -0.014689 0.873000
-0.025072 -0.039923 0.867000
0.031340 -0.002783 0.858000
-0.036702 -0.013954 0.872000
-0.008686 -0.006044 0.870000
-0.040230 0.011764 0.863000
0.016738 0.029763 0.870000
0.021552 0.003236 0.862000
-0.022345 0.015117 0.872000
-0.025663 0.012648 0.875000
0.030172 0.020692 0.865000
-0.016113 -0.021318 0.865000
0.042939 -0.009559 0.864000
-0.037735 -0.017164 0.871000
0.015857 -0.018739 0.861000
0.036159 -0.012877 0.872000
0.041796 0.021502 0.841000
0.029528 0.030731 0.867000
0.024231 0.035809 0.869000
-0.039932 -0.018620 0.872000
0.003098 -0.020865 0.861000
-0.018648 -0.014945 0.867000
-0.047993 -0.002478 0.875000
-0.006137 -0.030539 0.864000
-0.010785 -0.012789 0.866000
-0.031532 -0.022821 0.868000
0.026377 0.034736 0.869000
-0.001521 0.025051 0.868000
0.041630 0.011356 0.859000
0.029562 -0.017463 0.868000
-0.025217 0.015476 0.872000
-0.042542 -0.011108 0.874000
0.015682 0.029797 0.871000
0.005934 -0.019448 0.861000
-0.037188 -0.003558 0.875000
-0.003686 0.016571 0.873000
0.021881 -0.001729 0.861000
0.002747 -0.014858 0.862000
0.014068 -0.012346 0.860000
0.015484 -0.008807 0.860000
0.045061 -0.003132 0.857000
-0.000092 0.021936 0.872000
-0.028872 0.002202 0.874000
0.036099 0.015298 0.862000
0.022210 -0.005975 0.860000
-0.044391 -0.007880 0.875000
0.011249 -0.019802 0.861000
-0.008300 -0.033143 0.867000
0.028457 0.027520 0.867000
-0.017181 -0.020606 0.865000
-0.033587 -0.002478 0.875000
0.017813 0.034060 0.870000
0.011341 0.032196 0.868000
-0.047952 -0.017905 0.855000
-0.013945 -0.025176 0.863000
-0.001165 -0.006753 0.869000
-0.027433 -0.004993 0.874000
0.021907 0.003236 0.862000
0.017983 -0.004564 0.861000
-0.044803 -0.006086 0.876000
0.035744 0.023103 0.862000
0.002398 -0.011692 0.864000
0.028615 -0.014132 0.861000
-0.034190 -0.010365 0.872000
-0.011578 0.016194 0.872000
-0.011538 0.018284 0.869000
-0.017221 -0.013517 0.867000
-0.012983 0.019021 0.870000
0.038359 -0.005601 0.857000
0.014540 0.006109 0.867000
0.029574 -0.005961 0.858000
0.002398 -0.026628 0.864000
-0.029591 -0.000317 0.874000
0.013500 0.022218 0.869000
-0.035185 -0.020009 0.870000
-0.009693 -0.031962 0.864000
0.000264 -0.018051 0.862000
-0.009749 0.019714 0.869000
0.003878 -0.032804 0.877000
0.016192 -0.009514 0.860000
0.023708 0.006791 0.863000
0.031023 0.000750 0.859000
-0.001530 0.011900 0.873000
0.026967 0.010723 0.865000
0.047502 -0.012936 0.876000
-0.029557 -0.010736 0.873000
-0.031175 0.013976 0.868000
-0.016488 -0.019204 0.866000
-0.012894 -0.031962 0.864000
-0.007212 -0.013842 0.865000
0.007343 -0.019425 0.860000
0.007795 0.025137 0.871000
-0.024499 0.016911 0.872000
-0.014366 -0.035641 0.867000
-0.016132 -0.018492 0.866000
0.022944 0.000751 0.861000
0.044805 0.015235 0.839000
0.002420 0.019065 0.872000
-0.032679 -0.017861 0.870000
0.048911 -0.009614 0.869000
0.020606 0.017528 0.867000
0.037387 0.004992 0.859000
-0.041056 0.003996 0.873000
-0.021098 -0.024167 0.865000
-0.006856 -0.014198 0.865000
0.028003 -0.015960 0.864000
-0.017156 -0.044244 0.882000
-0.028217 0.010139 0.876000
0.013052 -0.021979 0.863000
0.024447 0.010711 0.864000
-0.032904 0.005812 0.876000
-0.013700 -0.006402 0.870000
0.013112 0.033943 0.867000
0.016758 0.031231 0.871000
0.003098 -0.016967 0.861000
-0.004003 -0.014537 0.864000
-0.001530 0.011541 0.873000
0.010037 -0.031070 0.879000
0.012298 -0.019071 0.860000
-0.012924 -0.013145 0.866000
-0.017679 0.001120 0.872000
-0.007897 -0.023728 0.862000
0.038312 -0.015390 0.872000
0.035082 -0.015390 0.872000
-0.032506 -0.002118 0.875000
0.043398 0.011710 0.859000
0.044054 -0.005608 0.858000
0.014523 -0.022769 0.866000
-0.031713 -0.008940 0.873000
-0.036108 0.007246 0.875000
0.016362 0.022576 0.869000
-0.024330 -0.039521 0.866000
0.046173 0.010990 0.858000
-0.046951 -0.020040 0.856000
-0.002575 -0.023018 0.862000
0.042815 -0.015100 0.876000
-0.025964 -0.004628 0.873000
0.026104 -0.001727 0.860000
0.011698 0.003258 0.868000
0.018735 0.005015 0.863000
0.038892 0.017052 0.861000
0.036680 -0.009503 0.859000
0.046851 -0.008136 0.864000
0.002049 -0.028861 0.867000
-0.021195 -0.014621 0.869000
0.013097 -0.001383 0.866000
-0.004050 0.012274 0.874000
0.005940 -0.023373 0.862000
-0.025964 -0.011814 0.873000
0.022059 0.026837 0.868000
0.038356 -0.013251 0.873000
0.042489 0.021156 0.841000
0.041153 0.021874 0.842000
-0.007551 -0.020914 0.863000
0.000624 -0.030752 0.870000
0.008799 -0.007781 0.864000
-0.006888 -0.008183 0.869000
0.010293 0.015798 0.870000
0.003142 0.013697 0.873000
-0.001523 -0.031074 0.869000
-0.038050 -0.024664 0.870000
0.019445 0.004305 0.863000
-0.022496 -0.035162 0.864000
-0.023590 -0.036983 0.865000
-0.022782 0.010847 0.875000
0.030351 0.003936 0.860000
0.025573 0.013587 0.866000
0.019778 0.001107 0.862000
-0.044744 -0.024409 0.861000
-0.022011 0.002199 0.873000
-0.029524 0.012963 0.872000
-0.006553 0.018706 0.872000
0.021752 0.031912 0.870000
0.039325 0.022212 0.855000
-0.018334 -0.007468 0.869000
-0.038983 0.014891 0.859000
-0.000447 -0.013115 0.864000
0.009946 0.026213 0.871000
-0.012183 -0.021649 0.864000
0.004961 -0.032082 0.877000
0.039509 0.007113 0.859000
-0.033265 0.007254 0.876000
0.005586 -0.012375 0.862000
0.016211 -0.007045 0.861000
0.014068 -0.015532 0.860000
0.041229 0.007105 0.858000
-0.026652 0.014758 0.872000
0.006681 -0.026333 0.866000
-0.003326 0.010104 0.873000
-0.025964 0.000402 0.873000
0.045820 0.008518 0.858000
-0.000452 -0.033051 0.874000
0.034639 0.012800 0.861000
0.035973 0.024791 0.859000
0.042239 -0.003838 0.857000
-0.045754 -0.024381 0.860000
-0.002950 -0.009960 0.868000
0.026704 0.021478 0.868000
0.004904 -0.006737 0.867000
-0.040650 -0.019337 0.872000
-0.029232 0.002202 0.874000
-0.031210 -0.020702 0.869000
-0.038269 0.005805 0.875000
0.036366 -0.018365 0.877000
0.015664 0.026183 0.870000
-0.032641 -0.020344 0.869000
-0.013043 0.010115 0.874000
-0.017117 -0.043420 0.880000
0.016738 0.026899 0.870000
-0.024499 -0.001751 0.872000
-0.004780 0.006894 0.876000
0.049236 0.005327 0.856000
0.007086 0.013322 0.872000
-0.009055 -0.003183 0.871000
0.023434 -0.019204 0.866000
0.015236 0.013231 0.866000
0.036242 -0.003485 0.857000
-0.031786 -0.005719 0.875000
0.023542 0.033344 0.870000
-0.042493 0.003277 0.873000
-0.022345 0.016552 0.872000
0.031656 -0.005249 0.857000
-0.034192 0.015316 0.863000
-0.010405 -0.031606 0.864000
0.018692 -0.003856 0.861000
-0.021936 -0.040420 0.870000
-0.004704 -0.023728 0.862000
-0.019005 -0.015301 0.867000
-0.039886 -0.020749 0.871000
-0.030068 -0.028504 0.867000
0.010281 0.018284 0.869000
0.033020 0.024252 0.865000
0.005579 -0.022637 0.861000
0.028457 0.033943 0.867000
-0.020766 -0.020274 0.866000
-0.000449 -0.006745 0.868000
-0.005064 -0.020203 0.863000
-0.033625 0.003649 0.876000
-0.021268 0.001479 0.872000
-0.036660 -0.019315 0.871000
0.023653 0.000397 0.861000
-0.017700 0.006511 0.873000
0.005968 -0.007086 0.866000
-0.016622 0.009385 0.873000
0.031693 -0.003489 0.858000
-0.015903 0.013697 0.873000
-0.018713 0.015798 0.870000
0.028548 -0.003847 0.859000
-0.011964 0.003640 0.874000
-0.003319 0.021911 0.871000
-0.044952 -0.021674 0.865000
0.027387 0.028590 0.867000
-0.046139 -0.004633 0.874000
0.024475 0.038137 0.865000
-0.015704 -0.043518 0.882000
0.031632 0.026419 0.866000
0.040923 0.020195 0.859000
0.029221 -0.005608 0.858000
0.019824 0.009644 0.864000
-0.016981 0.008307 0.873000
0.024588 -0.019986 0.869000
0.033812 -0.002430 0.858000
-0.008676 -0.009972 0.869000
0.000267 0.018009 0.873000
-0.019519 0.009756 0.874000
0.036948 -0.005601 0.857000
-0.031462 0.007254 0.876000
0.042424 -0.011746 0.868000
-0.031713 0.011541 0.873000
-0.004369 -0.013145 0.866000
0.020511 0.005015 0.863000
0.051350 0.006384 0.856000
-0.043521 -0.018261 0.872000
0.037518 0.018491 0.862000
-0.008676 -0.010329 0.869000
-0.024687 -0.027046 0.866000
0.026704 0.020049 0.868000
0.016380 0.033702 0.870000
0.020416 -0.009503 0.859000
-0.039259 0.006511 0.873000
0.031450 0.006776 0.861000
-0.040337 -0.012892 0.873000
-0.015045 -0.034491 0.865000
0.042130 -0.008827 0.862000
-0.017976 -0.006753 0.869000
-0.013388 0.000402 0.873000
-0.016825 -0.035203 0.865000
-0.026918 -0.019629 0.869000
-0.026713 -0.010389 0.874000
0.033222 0.029810 0.861000
-0.020886 -0.040466 0.871000
0.012741 -0.001739 0.866000
0.033337 0.021379 0.864000
0.016192 -0.011638 0.860000
-0.024658 -0.030575 0.865000
0.024560 0.029338 0.868000
-0.045368 -0.002113 0.873000
0.005225 -0.022283 0.861000
-0.011950 0.001121 0.873000
-0.027150 -0.036983 0.865000
-0.004349 -0.025147 0.862000
0.015538 -0.001733 0.863000
-0.008367 0.008677 0.874000
0.035389 0.014943 0.862000
-0.014300 -0.026952 0.863000
-0.009705 -0.015266 0.865000
0.022537 -0.010918 0.859000
-0.037952 0.001846 0.876000
0.020794 -0.007037 0.860000
-0.014859 -0.039932 0.875000
0.004215 -0.030104 0.872000
-0.046859 -0.009669 0.874000
-0.018397 0.002914 0.872000
0.040122 -0.005954 0.857000
0.034881 -0.013160 0.867000
-0.011813 -0.030859 0.863000
-0.015561 0.004360 0.874000
0.027165 -0.001373 0.860000
0.017936 -0.026277 0.876000
-0.034707 0.002567 0.876000
-0.012553 -0.019182 0.865000
-0.049475 -0.013009 0.857000
-0.033203 0.014639 0.865000
-0.023142 -0.043533 0.875000
0.010577 -0.006003 0.864000
-0.020099 -0.016391 0.868000
-0.035428 0.006533 0.876000
0.006288 -0.021929 0.861000
-0.007187 -0.026566 0.862000
0.007351 -0.021574 0.861000
-0.027729 -0.015390 0.872000
0.029391 0.034852 0.863000
-0.046762 -0.019403 0.859000
0.041727 0.018470 0.861000
0.036099 0.018137 0.862000
-0.001164 0.025408 0.868000
-0.000806 -0.009246 0.868000
0.020440 -0.007391 0.860000
0.012028 -0.003878 0.866000
0.036327 0.006760 0.859000
0.006997 -0.016259 0.861000
0.035619 -0.009150 0.859000
-0.021317 0.009036 0.874000
-0.016076 -0.029794 0.863000
-0.006508 -0.031679 0.866000
-0.052195 -0.015767 0.873000
-0.004364 -0.030575 0.865000
-0.020122 -0.039300 0.869000
0.017710 0.009655 0.865000
0.006727 0.016552 0.872000
-0.013605 -0.022005 0.864000
0.006642 -0.022283 0.861000
0.022236 0.001460 0.861000
0.032121 0.004644 0.860000
-0.028512 0.002561 0.874000
-0.015167 -0.001393 0.872000
0.020156 -0.019138 0.863000
0.026346 0.020049 0.868000
-0.017098 -0.042647 0.879000
0.041278 -0.015065 0.874000
-0.040603 -0.019674 0.871000
-0.011458 -0.027663 0.863000
0.002763 -0.007094 0.867000
0.019581 0.027941 0.869000
0.013485 0.010403 0.868000
0.030528 0.021760 0.865000
0.011944 -0.014470 0.860000
-0.025905 0.016892 0.871000
0.020226 0.016082 0.866000
0.030669 -0.017483 0.869000
0.032982 0.021379 0.864000
0.014573 0.022218 0.869000
0.014914 0.021121 0.868000
-0.028251 -0.028115 0.866000
-0.018756 0.003273 0.872000
0.007786 0.028689 0.870000
0.006390 -0.030568 0.875000
-0.020814 -0.016391 0.868000
0.048531 0.007089 0.856000
0.028068 0.023567 0.866000
-0.021122 -0.023482 0.866000
0.010293 0.021528 0.870000
0.015236 0.002538 0.866000
-0.019295 -0.031962 0.864000
-0.014399 -0.007468 0.869000
0.035348 0.012446 0.861000
0.022998 0.006791 0.863000
0.030241 0.028947 0.867000
-0.020598 0.012993 0.874000
0.042288 0.006399 0.858000
-0.040337 -0.015048 0.873000
0.007479 0.009417 0.876000
0.013714 -0.015178 0.860000
0.002390 -0.020157 0.861000
-0.023918 -0.030895 0.864000
0.005650 0.016911 0.872000
0.047681 0.011810 0.841000
0.014793 -0.008108 0.861000
-0.028545 0.011568 0.875000
0.046173 0.008871 0.858000
-0.010760 -0.020583 0.864000
-0.020957 0.009036 0.874000
0.036723 0.008184 0.860000
0.009229 0.024062 0.871000
-0.011232 0.012978 0.873000
0.037518 0.018137 0.862000
0.023598 -0.008796 0.859000
0.010565 -0.023045 0.863000
0.021727 0.030444 0.869000
0.017649 -0.002441 0.862000
0.002064 0.013338 0.873000
-0.027856 0.011220 0.876000
0.032905 0.028780 0.862000
-0.012538 -0.023427 0.864000
-0.015775 -0.017066 0.866000
0.020319 0.035492 0.870000
-0.000801 -0.018406 0.862000
-0.025964 -0.005347 0.873000
-0.014300 -0.026242 0.863000
-0.009794 0.012978 0.873000
-0.004026 -0.007826 0.869000
0.022494 -0.021825 0.871000
-0.018439 0.011914 0.874000
0.018713 0.000752 0.862000
0.006989 -0.019071 0.860000
0.040280 -0.012818 0.868000
0.034519 -0.001723 0.858000
0.024716 0.003232 0.861000
-0.021195 -0.013191 0.869000
0.027102 -0.008080 0.858000
0.003856 0.020141 0.872000
-0.016450 -0.034096 0.864000
-0.009034 -0.009614 0.869000
-0.012611 -0.036081 0.869000
0.043126 -0.014722 0.875000
0.016642 0.006095 0.865000
0.033891 0.027651 0.860000
0.000618 -0.019094 0.861000
0.018046 0.008577 0.864000
0.020487 0.000397 0.862000
-0.026052 -0.035518 0.864000
-0.003342 -0.036052 0.877000
0.036327 0.005699 0.859000
-0.011827 -0.031606 0.864000
-0.047358 -0.019005 0.857000
-0.021652 0.005792 0.873000
0.008830 -0.003882 0.867000
-0.007577 -0.013502 0.866000
0.030281 -0.004195 0.858000
-0.005070 -0.014537 0.864000
-0.018648 -0.037782 0.867000
-0.039346 0.009678 0.867000
-0.002261 -0.036093 0.878000
0.017415 0.019692 0.868000
0.024774 0.007147 0.863000
-0.010885 0.004000 0.874000
0.050234 0.006376 0.855000
0.030884 0.022116 0.865000
-0.044496 -0.020725 0.870000
0.023873 0.024722 0.869000
-0.013265 -0.019182 0.865000
0.000624 0.024750 0.870000
-0.028479 -0.012173 0.873000
0.022236 0.000751 0.861000
-0.001165 0.024722 0.869000
0.021752 0.032628 0.870000
0.013112 0.001113 0.867000
0.011354 0.020787 0.869000
-0.001178 -0.035773 0.879000
-0.006920 0.015134 0.873000
-0.009500 -0.039391 0.879000
0.004882 -0.010258 0.863000
-0.045108 -0.020321 0.868000
-0.040650 0.007580 0.872000
0.024745 0.004300 0.862000
-0.026683 -0.004628 0.873000
-0.041583 -0.026067 0.869000
-0.034268 -0.003554 0.874000
-0.028938 0.007254 0.876000
0.026967 0.037781 0.865000
-0.051179 -0.011936 0.856000
0.028195 -0.001725 0.859000
0.006361 0.026213 0.871000
0.043752 0.012770 0.859000
-0.035707 -0.006072 0.874000
0.008871 0.027647 0.871000
-0.026024 0.008686 0.875000
0.021172 -0.002084 0.861000
-0.000445 -0.020865 0.861000
0.000263 -0.022992 0.861000
0.022313 0.009644 0.864000
-0.007187 -0.027276 0.862000
-0.009086 0.009756 0.874000
-0.023563 -0.031962 0.864000
0.019068 -0.001377 0.862000
0.006332 -0.005667 0.867000
0.002747 -0.023728 0.862000
-0.002220 -0.021244 0.862000
-0.044952 -0.022030 0.865000
-0.013731 -0.003187 0.872000
0.032853 -0.015712 0.870000
0.031841 0.030909 0.862000
-0.025370 -0.028083 0.865000
0.006339 0.029695 0.868000
-0.038945 -0.008590 0.874000
0.018422 0.010723 0.865000
0.017455 0.030838 0.870000
-0.029985 -0.007159 0.875000
-0.017221 -0.014945 0.867000
0.032475 0.004644 0.860000
0.020842 0.003945 0.862000
0.015148 -0.007754 0.861000
0.009112 -0.015178 0.860000
0.028548 -0.000311 0.859000
0.024831 -0.018114 0.865000
-0.000802 -0.015231 0.863000
-0.019924 -0.042501 0.876000
-0.032183 0.008696 0.876000
0.026780 -0.012685 0.859000
-0.043880 0.000402 0.872000
-0.024001 -0.039567 0.867000
-0.008290 -0.013145 0.866000
0.034872 -0.000311 0.858000
-0.036660 0.009364 0.871000
-0.029814 -0.017503 0.870000
-0.042493 0.003996 0.873000
-0.008716 0.013338 0.873000
0.040758 -0.009903 0.863000
-0.019027 -0.011746 0.868000
-0.031426 -0.005719 0.875000
-0.002575 -0.026566 0.862000
0.040923 0.011002 0.859000
-0.036905 0.015263 0.860000
0.038532 -0.017283 0.877000
-0.034464 -0.025281 0.879000
-0.017221 -0.014588 0.867000
-0.024167 0.000043 0.873000
-0.035027 0.000043 0.875000
0.031878 0.014250 0.863000
0.038183 0.020596 0.861000
-0.007897 -0.026921 0.862000
-0.025188 -0.017164 0.871000
0.023542 -0.021084 0.870000
-0.036510 0.000404 0.876000
-0.023974 -0.026689 0.866000
0.012327 -0.007763 0.862000
0.040522 0.004280 0.858000
-0.020718 -0.031251 0.864000
0.025396 0.000396 0.860000
-0.001165 0.026152 0.869000
0.022669 0.010355 0.864000
0.008144 -0.002105 0.870000
-0.040837 -0.002481 0.876000
0.009912 0.033625 0.868000
0.037235 -0.012518 0.872000
0.020249 -0.020654 0.867000
-0.026469 -0.028472 0.866000
0.023924 -0.008786 0.858000
-0.035789 0.005451 0.876000
-0.033510 -0.009658 0.873000
-0.013133 -0.041609 0.880000
-0.039169 -0.020391 0.871000
0.013127 0.011475 0.868000
-0.030311 -0.008230 0.874000
0.032905 0.013524 0.862000
-0.001889 0.015493 0.873000
-0.029895 0.018846 0.862000
0.044864 -0.006683 0.860000
0.025839 0.008212 0.863000
0.040711 -0.009537 0.862000
-0.005117 -0.034411 0.872000
-0.034987 -0.006792 0.874000
-0.007229 -0.012447 0.867000
-0.030706 0.002204 0.875000
-0.005426 -0.029473 0.864000
-0.010084 -0.034214 0.867000
0.019870 0.016795 0.866000
-0.043571 -0.015407 0.873000
-0.033151 -0.007862 0.873000
0.032084 -0.010918 0.859000
0.012153 -0.028407 0.875000
0.000618 -0.019802 0.861000
0.005612 -0.008155 0.866000
0.012413 0.006473 0.868000
0.038050 0.001808 0.858000
0.004547 -0.004953 0.867000
-0.034307 0.000763 0.875000
-0.049653 -0.016126 0.854000
0.005934 -0.018030 0.861000
-0.022756 0.007238 0.874000
-0.013747 0.012978 0.873000
0.007360 -0.010601 0.862000
0.016380 0.033344 0.870000
-0.028284 -0.025293 0.867000
-0.028905 -0.002838 0.875000
0.023845 0.027194 0.868000
0.012370 -0.023454 0.865000
-0.025399 -0.027046 0.866000
0.046173 0.010636 0.858000
-0.004349 -0.024437 0.862000
0.017983 -0.003856 0.861000
0.044917 -0.007399 0.861000
-0.014706 -0.014927 0.866000
0.016546 -0.008099 0.860000
-0.005489 0.006878 0.874000
0.004933 0.023730 0.872000
-0.010142 -0.001751 0.872000
0.003882 -0.033203 0.878000
0.024063 -0.017362 0.863000
-0.029232 -0.002115 0.874000
0.007402 -0.005310 0.867000
-0.002605 0.021936 0.872000
-0.005445 -0.012090 0.867000
-0.002575 -0.021244 0.862000
-0.021603 -0.003542 0.871000
-0.048344 -0.014149 0.862000
0.028068 0.011092 0.866000
-0.027104 0.005085 0.875000
0.020487 0.003236 0.862000
-0.021627 -0.000675 0.872000
-0.002967 0.015134 0.873000
0.018108 0.017885 0.867000
0.017314 -0.000313 0.863000
-0.035902 -0.022516 0.870000
-0.027602 -0.022107 0.868000
-0.026052 -0.036229 0.864000
-0.025605 -0.001035 0.873000
-0.002223 -0.027663 0.863000
-0.036576 -0.024278 0.869000
-0.046393 -0.002110 0.872000
-0.000451 0.020500 0.872000
-0.018983 -0.022056 0.866000
-0.028284 -0.024579 0.867000
0.015574 0.000043 0.865000
-0.024112 -0.005693 0.871000
-0.029265 0.006165 0.875000
0.044355 0.006039 0.857000
-0.021553 -0.016767 0.869000
0.040971 0.014201 0.860000
0.018887 0.034060 0.870000
-0.031426 -0.002478 0.875000
-0.017976 -0.008541 0.869000
0.028424 0.022854 0.866000
0.041132 -0.001719 0.856000
0.001345 -0.031936 0.873000
0.014523 0.001825 0.866000
0.021197 0.002171 0.862000
0.034912 0.002164 0.859000
0.000981 0.027941 0.869000
0.014232 0.032270 0.870000
0.010293 0.015082 0.870000
0.036723 0.007830 0.860000
-0.031066 0.010847 0.875000
-0.021961 -0.002108 0.871000
0.029747 0.034497 0.863000
0.017057 0.037912 0.868000
0.036948 -0.006307 0.857000
-0.033559 0.014639 0.865000
-0.050415 -0.012274 0.855000
-0.029677 0.016082 0.866000
-0.037103 -0.010018 0.873000
-0.005123 0.014775 0.873000
-0.031139 -0.026007 0.867000
-0.000092 -0.032258 0.872000
0.028714 0.036315 0.864000
0.024532 0.015387 0.867000
-0.001538 -0.035371 0.878000
0.032400 -0.004195 0.858000
0.021123 -0.013746 0.859000
0.006368 0.016911 0.872000
-0.000452 0.013713 0.874000
0.030563 0.032121 0.866000
0.033067 -0.003838 0.857000
-0.027634 -0.018913 0.869000
0.020582 0.016082 0.866000
-0.010525 0.008677 0.874000
0.027809 -0.007374 0.858000
0.029928 -0.003842 0.858000
-0.001164 -0.009246 0.868000
-0.017935 -0.014588 0.867000
0.015844 -0.028570 0.880000
-0.033326 0.017720 0.859000
0.022287 0.005371 0.863000
-0.016806 -0.025561 0.864000
-0.009772 -0.003900 0.871000
-0.038900 0.006870 0.873000
-0.020598 0.009756 0.874000
0.015949 0.009666 0.866000
-0.018271 -0.017779 0.866000
-0.011604 0.004000 0.874000
0.016719 0.026510 0.869000
0.017077 0.034736 0.869000
-0.023395 -0.010712 0.871000
0.020416 -0.013039 0.859000
0.031878 0.015316 0.863000
-0.023918 -0.031251 0.864000
0.032233 0.017447 0.863000
0.036991 -0.007020 0.858000
-0.000092 -0.029184 0.866000
0.012313 -0.008462 0.861000
0.028814 0.030374 0.867000
0.005940 -0.013439 0.862000
0.034205 0.002871 0.859000
0.007488 -0.031360 0.877000
0.008414 -0.020511 0.861000
-0.022496 -0.034096 0.864000
-0.020238 0.009036 0.874000
-0.015903 0.002199 0.873000
-0.044696 -0.028602 0.881000
-0.018038 0.000402 0.872000
-0.000091 -0.015231 0.863000
0.019513 0.015369 0.866000
-0.033792 -0.016806 0.871000
0.039862 0.007113 0.859000
-0.013311 -0.009960 0.868000
0.026780 -0.002786 0.859000
-0.008616 -0.029794 0.863000
-0.044752 -0.005719 0.875000
0.019068 -0.000667 0.862000
0.010933 -0.006003 0.864000
-0.010119 -0.008551 0.870000
0.002390 -0.017676 0.861000
-0.032506 -0.005719 0.875000
-0.016603 -0.001393 0.872000
0.003477 -0.007094 0.867000
0.013826 0.012175 0.867000
0.027809 -0.010552 0.858000
-0.004050 0.014072 0.874000
0.030416 -0.018979 0.872000
0.016681 0.017171 0.867000
-0.016431 -0.030859 0.863000
0.032905 0.011396 0.862000
0.002420 0.024089 0.872000
-0.044291 -0.023125 0.866000
-0.022496 -0.030184 0.864000
0.028162 -0.008080 0.858000
0.030705 0.002166 0.860000
-0.014122 0.005799 0.874000
-0.022704 -0.001034 0.872000
0.003481 -0.004959 0.868000
-0.021911 -0.014621 0.869000
0.036948 -0.004543 0.857000
0.021856 -0.004205 0.860000
0.003453 -0.019448 0.861000
0.031413 0.004290 0.860000
-0.040070 -0.005719 0.875000
-0.017340 0.012978 0.873000
-0.033481 0.015316 0.863000
-0.018481 -0.041780 0.876000
0.040971 0.012431 0.860000
0.024588 0.021145 0.869000
0.019135 0.012503 0.865000
-0.035428 0.004009 0.876000
-0.010393 -0.028373 0.863000
-0.007279 0.016212 0.873000
0.039816 0.002867 0.858000
0.016738 0.027615 0.870000
-0.009403 -0.009267 0.870000
0.010293 0.022602 0.870000
-0.037692 -0.021800 0.870000
0.051461 0.008458 0.852000
0.020794 -0.015178 0.860000
-0.016812 -0.044294 0.883000
-0.001865 -0.019116 0.862000
0.032867 0.007130 0.861000
0.015592 0.006102 0.866000
0.000267 0.016931 0.873000
0.027418 0.030052 0.868000
0.018316 -0.007391 0.860000
-0.052853 -0.011083 0.872000
0.005243 -0.009914 0.864000
-0.010465 0.019714 0.869000
-0.021627 -0.001393 0.872000
0.010174 -0.019071 0.860000
0.014931 -0.024278 0.869000
-0.007568 -0.031643 0.865000
0.011685 0.033229 0.867000
0.027743 0.018242 0.867000
-0.014074 -0.003542 0.871000
-0.018249 -0.023810 0.865000
-0.035067 0.004370 0.876000
0.003856 0.017629 0.872000
-0.012567 -0.034174 0.866000
-0.036407 0.012859 0.865000
-0.020790 -0.018156 0.867000
-0.017893 -0.023098 0.865000
-0.013684 0.017568 0.869000
0.003102 -0.015923 0.862000
0.023708 -0.017362 0.863000
0.047618 -0.008146 0.865000
0.019558 0.021121 0.868000
0.003457 -0.013794 0.862000
-0.005835 0.018347 0.872000
-0.015419 -0.035244 0.866000
0.034205 0.001457 0.859000
0.031841 0.031973 0.862000
-0.016469 -0.022742 0.865000
-0.035789 0.000764 0.876000
0.049009 0.010140 0.846000
-0.039256 0.011079 0.865000
0.025869 0.010000 0.864000
-0.043621 -0.011108 0.874000
-0.005470 0.020835 0.871000
0.045980 -0.006691 0.861000
0.029928 -0.009845 0.858000
-0.023726 -0.041494 0.870000
-0.017914 -0.017779 0.866000
-0.025274 0.006158 0.874000
0.025989 0.035411 0.868000
0.010971 0.001470 0.867000
-0.015010 -0.030859 0.863000
-0.012197 -0.017758 0.865000
0.013730 -0.009880 0.861000
-0.007204 -0.030895 0.864000
-0.017997 -0.004970 0.870000
0.041935 0.006046 0.858000
-0.002264 -0.036496 0.879000
0.003453 -0.020157 0.861000
0.004220 0.015134 0.873000
-0.041056 0.006511 0.873000
0.027679 -0.016690 0.865000
0.027743 -0.017442 0.867000
0.010626 0.003258 0.868000
0.046247 -0.009224 0.866000
-0.015921 0.011914 0.874000
0.015592 0.008954 0.866000
-0.031632 0.017407 0.861000
0.000267 0.011900 0.873000
0.016230 -0.002441 0.862000
0.009555 0.032553 0.868000
0.006002 0.021194 0.871000
-0.022217 -0.021011 0.867000
0.029036 0.007502 0.863000
-0.034387 0.018781 0.859000
-0.024029 -0.040327 0.868000
-0.032544 0.007254 0.876000
-0.020957 0.010115 0.874000
-0.013280 -0.013145 0.866000
-0.018418 0.005792 0.873000
0.032084 -0.010564 0.859000
-0.034867 -0.015013 0.871000
-0.047544 -0.020696 0.854000
0.024093 -0.024141 0.877000
-0.021578 -0.006402 0.870000
0.019558 0.038983 0.868000
-0.009805 0.007957 0.874000
-0.039573 -0.016466 0.872000
-0.017679 0.014399 0.872000
0.022084 0.023291 0.869000
0.043398 -0.007029 0.859000
0.020794 -0.016594 0.860000
0.040971 0.019864 0.860000
-0.041727 -0.019337 0.872000
-0.001891 0.014072 0.874000
-0.047303 -0.022153 0.856000
0.037474 0.012800 0.861000
-0.008261 -0.020559 0.863000
-0.032506 -0.001397 0.875000
-0.043471 -0.020032 0.871000
0.000994 -0.035451 0.880000
-0.024223 0.013368 0.875000
0.024362 -0.000312 0.861000
0.009187 -0.003526 0.867000
0.013127 0.010403 0.868000
-0.008319 0.020787 0.869000
0.032513 0.006776 0.861000
-0.000091 -0.016632 0.862000
-0.018584 -0.029117 0.864000
0.036411 0.022722 0.861000
0.009923 0.007554 0.869000
-0.016622 0.005792 0.873000
0.050176 0.007072 0.854000
-0.038408 -0.025022 0.870000
0.010908 -0.022309 0.862000
0.021394 0.035851 0.870000
0.043448 0.016325 0.860000
0.050879 0.007072 0.854000
-0.027073 -0.010389 0.874000
0.007786 0.019021 0.870000
-0.003686 0.008307 0.873000
-0.019833 0.000043 0.872000
-0.018562 -0.031215 0.863000
0.005579 -0.021929 0.861000
0.043651 -0.009203 0.864000
-0.015921 0.010835 0.874000
0.028068 0.012518 0.866000
0.031241 -0.020124 0.875000
-0.024886 0.001480 0.873000
0.009935 -0.000673 0.870000
0.034165 -0.009139 0.858000
0.048385 0.003963 0.866000
-0.023288 -0.021368 0.867000
-0.031963 -0.017145 0.870000
-0.000091 -0.021929 0.861000
0.031915 -0.014182 0.864000
0.010626 -0.025322 0.868000
-0.036510 0.002928 0.876000
-0.010154 0.012978 0.873000
0.010651 0.014008 0.870000
0.027061 0.018263 0.868000
0.041984 0.011356 0.859000
-0.019608 -0.043321 0.878000
0.019355 -0.011625 0.859000
-0.022396 0.007238 0.874000
0.017792 0.024722 0.869000
0.010639 -0.026067 0.869000
-0.028512 0.001482 0.874000
0.029816 0.012147 0.865000
0.024983 -0.011258 0.858000
0.008116 -0.003882 0.867000
-0.042737 0.005464 0.878000
-0.000808 0.024392 0.870000
-0.018778 0.005433 0.873000
-0.004389 0.022244 0.870000
0.018713 -0.001022 0.862000
-0.021220 -0.006402 0.870000
-0.038225 -0.008950 0.874000
-0.026414 0.011220 0.876000
0.032588 0.018513 0.863000
-0.003284 -0.026921 0.862000
0.028935 0.001458 0.860000
0.026488 0.002877 0.861000
0.021369 0.023291 0.869000
-0.032416 0.016382 0.863000
-0.039383 0.015263 0.860000
0.023980 -0.004205 0.860000
-0.024858 -0.007853 0.872000
0.015985 0.020049 0.868000
0.041685 -0.015443 0.875000
-0.042591 -0.008960 0.875000
0.010971 -0.000671 0.867000
-0.035027 -0.003198 0.875000
-0.016825 -0.022030 0.865000
0.007437 0.012949 0.871000
0.024091 0.010711 0.864000
0.024983 -0.007727 0.858000
0.013052 -0.005640 0.863000
0.001343 0.019065 0.872000
-0.016262 0.013697 0.873000
0.022590 0.000397 0.861000
0.050290 0.008438 0.850000
-0.038983 0.015245 0.859000
0.044465 -0.013251 0.873000
-0.001156 -0.016987 0.862000
-0.040337 0.006151 0.873000
-0.017517 -0.027339 0.864000
0.028424 0.034973 0.866000
-0.004003 -0.014182 0.864000
0.010281 0.019714 0.869000
-0.040557 -0.027529 0.870000
-0.017340 0.005433 0.873000
0.011590 -0.014116 0.860000
0.035931 -0.000311 0.858000
0.017314 -0.000668 0.863000
-0.036314 -0.025672 0.880000
-0.028056 -0.016089 0.871000
0.038756 0.005339 0.858000
-0.041056 0.007229 0.873000
0.020770 -0.008089 0.859000
0.015893 -0.002089 0.863000
-0.042445 0.001120 0.872000
-0.017320 0.000761 0.872000
0.017234 -0.013746 0.859000
0.024831 0.038137 0.865000
-0.006144 -0.014198 0.865000
-0.016864 -0.036712 0.867000
-0.022191 -0.022412 0.866000
-0.008686 -0.007477 0.870000
-0.037952 -0.000678 0.876000
0.009555 0.031481 0.868000
-0.036155 0.015952 0.859000
0.004215 0.023372 0.872000
-0.045754 -0.024027 0.860000
-0.023754 -0.015013 0.871000
-0.005058 -0.020890 0.862000
-0.046859 -0.005712 0.874000
0.004547 -0.005667 0.867000
-0.029985 0.004005 0.875000
-0.014706 -0.016353 0.866000
-0.011909 0.019737 0.870000
-0.006123 -0.023373 0.862000
-0.012408 -0.041246 0.880000
0.009134 -0.023018 0.862000
0.004215 0.017988 0.872000
-0.000807 -0.031074 0.869000
-0.022574 -0.021368 0.867000
0.041837 -0.001719 0.856000
0.002038 -0.017342 0.862000
-0.014672 -0.031962 0.864000
-0.043212 -0.015767 0.873000
0.029146 -0.021614 0.877000
-0.008606 -0.025857 0.862000
0.003106 -0.025887 0.863000
-0.003690 0.014072 0.874000
0.019709 -0.014453 0.859000
-0.033472 -0.011801 0.872000
0.047098 -0.006698 0.862000
-0.030923 0.019179 0.861000
0.012441 -0.025739 0.870000
-0.027927 0.016814 0.867000
0.016604 -0.020559 0.863000
-0.000092 -0.011007 0.866000
-0.017261 -0.008541 0.869000
-0.047193 -0.020344 0.854000
0.024277 -0.008786 0.858000
0.008492 -0.027140 0.869000
0.007714 -0.011310 0.862000
-0.040024 -0.010749 0.874000
0.008154 0.023703 0.871000
-0.012183 -0.031962 0.864000
-0.027856 0.008336 0.876000
0.024203 0.029695 0.868000
0.021932 0.008212 0.863000
0.009208 0.030802 0.869000
0.006689 -0.004239 0.867000
-0.037205 0.011462 0.867000
0.013407 -0.005285 0.863000
0.025573 -0.018135 0.866000
-0.001530 0.017290 0.873000
-0.027150 -0.032355 0.865000
-0.013605 -0.023072 0.864000
0.002747 -0.015213 0.862000
-0.036976 -0.025380 0.870000
-0.009065 -0.002110 0.872000
0.017435 0.035452 0.869000
-0.002933 -0.017717 0.863000
-0.035984 -0.012160 0.872000
0.046824 0.009919 0.857000
0.035348 0.012800 0.861000
-0.034469 -0.018935 0.870000
-0.015383 -0.032318 0.864000
-0.028479 -0.011455 0.873000
0.002392 -0.016632 0.862000
