0.000624 -0.018219 0.870000
0.031915 0.026713 0.864000
0.018930 0.025166 0.872000
0.032982 0.021735 0.864000
-0.014842 0.016231 0.874000
-0.030951 -0.002861 0.882000
0.000989 0.018431 0.876000
0.042033 0.007476 0.860000
-0.017781 -0.016200 0.877000
0.015324 0.031231 0.871000
0.022826 0.021886 0.870000
0.005273 -0.019986 0.869000
-0.022188 -0.000319 0.880000
-0.003319 -0.029353 0.871000
-0.044848 -0.028728 0.863000
0.014183 0.042864 0.867000
0.014248 0.034099 0.871000
0.008881 0.028037 0.872000
-0.035268 -0.023526 0.881000
0.026377 -0.012475 0.869000
-0.004465 -0.040024 0.885000
-0.007988 -0.033693 0.872000
-0.042865 -0.029184 0.866000
-0.015958 -0.020868 0.876000
-0.022550 0.005114 0.880000
0.028424 0.018577 0.866000
0.009240 0.029832 0.872000
0.000266 -0.027171 0.870000
0.007062 -0.013906 0.869000
0.039909 0.010307 0.860000
0.023380 -0.004225 0.864000
-0.009467 0.018792 0.876000
-0.027983 -0.019153 0.880000
-0.042568 -0.005765 0.882000
0.013469 -0.016372 0.867000
-0.036397 -0.018470 0.882000
-0.042205 -0.022100 0.882000
-0.012366 0.015564 0.877000
-0.004133 -0.043645 0.892000
0.005996 -0.024306 0.870000
0.019491 -0.007790 0.865000
0.026936 -0.006003 0.864000
-0.042301 -0.014874 0.884000
0.041018 0.018470 0.861000
-0.004769 -0.013986 0.874000
0.004224 0.019468 0.874000
-0.000092 -0.026455 0.870000
-0.004101 -0.040752 0.885000
0.006376 0.034178 0.873000
-0.023610 -0.006107 0.879000
0.006376 0.028429 0.873000
-0.002960 -0.017881 0.871000
-0.008706 -0.026157 0.872000
-0.022912 0.000043 0.880000
0.014607 0.031590 0.871000
0.008840 -0.010317 0.868000
0.011380 0.022269 0.871000
-0.035348 -0.005044 0.883000
-0.026836 -0.028866 0.878000
-0.020716 -0.000318 0.879000
0.009957 0.000761 0.872000
-0.006605 0.006194 0.879000
0.031204 0.017467 0.864000
0.025869 -0.000669 0.864000
0.032815 -0.008183 0.869000
0.032271 0.017823 0.864000
0.014590 0.000759 0.870000
-0.045770 -0.024222 0.867000
-0.012366 -0.008620 0.877000
-0.007988 -0.029028 0.872000
0.020654 0.036525 0.869000
-0.026474 -0.027059 0.878000
-0.041209 -0.018512 0.884000
-0.026565 0.007296 0.881000
-0.021801 -0.002489 0.879000
-0.046456 -0.020964 0.880000
-0.025839 -0.001770 0.881000
-0.031968 -0.023861 0.880000
0.034364 0.022065 0.863000
0.032532 -0.009278 0.871000
-0.001173 -0.008960 0.875000
-0.033167 0.000407 0.883000
0.031168 0.003595 0.863000
-0.036551 -0.034248 0.877000
-0.024361 -0.005752 0.880000
-0.037165 -0.008679 0.883000
0.020249 0.012175 0.867000
0.011739 0.023703 0.871000
0.004229 0.018770 0.875000
-0.000808 -0.022874 0.870000
0.019245 0.038357 0.870000
-0.023248 -0.022749 0.879000
-0.041083 0.005033 0.866000
-0.035943 0.006496 0.871000
-0.032766 -0.008669 0.882000
0.013624 -0.024863 0.877000
-0.011950 0.020165 0.873000
-0.007656 0.021651 0.875000
0.011752 0.006862 0.872000
0.016681 -0.000671 0.867000
0.007078 -0.025410 0.871000
0.020701 0.021911 0.871000
-0.012046 0.002941 0.880000
0.037474 0.004649 0.861000
0.028969 0.032290 0.861000
0.005657 0.019805 0.873000
0.025187 0.004315 0.865000
-0.026474 -0.027782 0.878000
0.022313 -0.006003 0.864000
-0.037892 -0.002864 0.883000
0.017772 0.013261 0.868000
0.045183 -0.004303 0.880000
0.016041 0.023703 0.871000
-0.015219 -0.026247 0.875000
-0.011644 0.014121 0.877000
0.021369 0.028656 0.869000
0.014248 0.003986 0.871000
0.023380 -0.003869 0.864000
-0.009828 -0.011134 0.876000
-0.030225 -0.003950 0.882000
-0.010142 -0.032258 0.872000
0.019135 -0.008502 0.865000
0.033970 0.005364 0.862000
-0.040707 -0.024976 0.881000
-0.038400 0.000766 0.878000
-0.008405 -0.004293 0.878000
-0.006208 -0.035569 0.874000
0.022695 -0.008858 0.865000
-0.017059 -0.044354 0.877000
0.011034 0.032344 0.872000
0.040412 0.021848 0.841000
0.049000 -0.000318 0.877000
-0.003345 0.013414 0.878000
-0.011309 -0.002127 0.879000
0.011887 -0.028272 0.882000
-0.019246 -0.016941 0.878000
0.003865 0.030620 0.874000
0.024175 0.012175 0.867000
-0.017400 -0.043943 0.876000
-0.018864 -0.014034 0.877000
0.012829 0.006144 0.872000
-0.037528 -0.014493 0.883000
-0.047138 -0.016001 0.886000
-0.015958 -0.010773 0.876000
-0.007682 0.013053 0.878000
-0.023275 -0.001405 0.880000
0.013890 0.002194 0.871000
0.021229 -0.020193 0.878000
0.032495 -0.008909 0.870000
0.035075 0.025617 0.863000
-0.004068 0.008716 0.878000
0.024063 0.037693 0.863000
0.046407 0.001116 0.869000
-0.003345 0.014498 0.878000
-0.013495 0.006563 0.880000
0.030528 0.020336 0.865000
0.008881 0.023372 0.872000
-0.041747 -0.006114 0.880000
0.006376 0.019087 0.873000
0.009946 0.020835 0.871000
-0.024361 -0.020239 0.880000
0.023515 -0.014621 0.869000
-0.008405 0.014137 0.878000
-0.023664 0.006933 0.881000
-0.005842 -0.034451 0.873000
0.016059 0.025525 0.872000
0.005657 0.027710 0.873000
0.021369 0.027583 0.869000
-0.017720 -0.039886 0.874000
0.040309 0.021659 0.861000
0.033287 -0.009288 0.872000
0.031204 0.013556 0.864000
-0.020015 -0.020964 0.880000
0.016041 0.031590 0.871000
0.003505 0.027742 0.874000
-0.006951 0.016647 0.877000
-0.000092 -0.019651 0.870000
0.014590 0.021886 0.870000
0.017038 0.000757 0.867000
-0.027590 -0.026005 0.879000
0.015592 -0.009581 0.866000
0.023845 0.027194 0.868000
0.004921 -0.012848 0.870000
-0.009500 0.009811 0.879000
0.023488 0.026837 0.868000
0.044812 0.016659 0.859000
-0.034905 -0.026064 0.881000
0.005273 -0.014621 0.869000
-0.012408 0.008012 0.880000
-0.018460 -0.027327 0.875000
-0.007007 -0.042162 0.884000
0.035744 0.017072 0.862000
-0.039982 -0.002857 0.881000
0.020226 -0.002096 0.866000
0.023736 -0.002802 0.864000
-0.030588 -0.002498 0.882000
-0.039754 -0.016693 0.884000
-0.019246 -0.004293 0.878000
0.015646 0.010058 0.869000
0.028523 -0.011045 0.869000
0.007102 0.010475 0.874000
0.000629 0.015204 0.877000
0.035430 0.025617 0.863000
-0.041320 -0.029353 0.871000
0.017136 0.028396 0.872000
-0.014842 -0.031253 0.874000
0.019892 0.007893 0.867000
-0.036356 -0.029327 0.881000
0.043550 0.002881 0.862000
-0.019608 -0.005739 0.878000
-0.042980 -0.020308 0.883000
0.007419 -0.022490 0.869000
0.011498 -0.027483 0.880000
-0.040615 -0.001404 0.879000
-0.016660 -0.027327 0.875000
-0.045989 -0.020916 0.878000
0.026225 -0.006714 0.864000
-0.022704 -0.037152 0.886000
0.023051 0.003247 0.865000
0.019870 0.003251 0.866000
-0.029136 -0.001772 0.882000
0.003865 0.024864 0.874000
-0.035952 0.001854 0.880000
-0.031101 0.007975 0.876000
-0.006967 0.012344 0.879000
-0.031677 -0.002135 0.882000
0.002431 0.013383 0.876000
-0.034905 -0.027514 0.881000
0.016041 0.025137 0.871000
-0.029432 -0.022775 0.880000
-0.004419 0.019152 0.876000
0.011022 0.024062 0.871000
0.013158 0.012576 0.870000
-0.013403 -0.028015 0.874000
0.031878 0.013895 0.863000
0.022339 0.000399 0.865000
-0.028346 -0.019515 0.880000
-0.023664 -0.013735 0.881000
-0.037165 -0.009042 0.883000
0.006376 -0.003550 0.873000
-0.010885 -0.018662 0.874000
-0.036115 -0.005050 0.884000
-0.036034 0.000407 0.882000
-0.034905 -0.020987 0.881000
-0.014482 0.016231 0.874000
0.035430 0.019578 0.863000
0.038582 0.022394 0.862000
0.021036 0.019021 0.870000
0.010675 0.002914 0.872000
-0.004045 -0.015048 0.873000
-0.016318 -0.012215 0.876000
0.024946 0.018641 0.869000
0.032905 0.001107 0.862000
-0.026535 -0.018428 0.880000
-0.030311 0.010475 0.874000
-0.023275 -0.000319 0.880000
0.008182 0.015152 0.874000
-0.019901 0.011568 0.875000
-0.031713 0.000044 0.883000
0.009957 0.023730 0.872000
0.014183 -0.004953 0.867000
-0.019541 -0.040292 0.875000
-0.034984 -0.001410 0.883000
0.024946 0.020072 0.869000
0.023220 -0.021811 0.885000
0.033260 0.008912 0.862000
-0.029761 -0.025281 0.879000
-0.016012 0.006194 0.879000
0.015646 0.004335 0.869000
0.004224 -0.004274 0.874000
-0.038255 -0.007952 0.883000
0.033693 0.023513 0.864000
0.024447 -0.007425 0.864000
0.034325 0.010331 0.862000
-0.010235 0.006925 0.880000
0.034679 0.012460 0.862000
0.050805 0.000765 0.877000
0.016738 0.033344 0.870000
-0.021464 0.003303 0.880000
0.035162 -0.008230 0.874000
0.019157 -0.013858 0.866000
0.014965 0.026213 0.871000
-0.028378 -0.016274 0.881000
-0.007735 -0.042525 0.884000
-0.022188 0.003303 0.880000
0.026673 0.028233 0.867000
0.033654 0.013185 0.863000
-0.025448 0.008374 0.880000
0.025869 -0.001024 0.864000
-0.002964 -0.031899 0.872000
-0.034548 0.006862 0.872000
-0.001172 0.027382 0.874000
0.011393 0.035933 0.872000
-0.012669 -0.034810 0.873000
0.011752 0.007221 0.872000
0.039955 0.015281 0.861000
0.025869 0.003243 0.864000
0.007454 0.029147 0.873000
-0.026232 -0.015203 0.882000
0.017116 0.029081 0.871000
0.002071 0.014465 0.876000
-0.015650 0.008003 0.879000
0.019870 0.003607 0.866000
0.029494 -0.008868 0.866000
-0.016281 -0.029814 0.874000
-0.037486 -0.024278 0.882000
0.023678 -0.016883 0.875000
-0.023999 -0.010460 0.880000
0.012814 0.000402 0.871000
-0.040568 -0.027782 0.878000
0.038227 0.001816 0.862000
0.010675 0.033421 0.872000
0.014573 -0.019986 0.869000
-0.014515 -0.013657 0.876000
-0.027952 -0.025281 0.879000
-0.046966 -0.028440 0.876000
-0.001533 0.021651 0.875000
-0.023637 -0.010822 0.880000
-0.043871 -0.033240 0.879000
-0.015579 -0.024086 0.875000
0.009610 0.012260 0.873000
-0.001900 0.013414 0.878000
-0.026595 -0.014477 0.882000
0.017057 0.008974 0.868000
0.022721 0.005746 0.866000
0.022339 -0.002449 0.865000
-0.027290 -0.002132 0.881000
-0.009086 -0.016504 0.874000
-0.030122 -0.025643 0.879000
0.030528 0.022828 0.865000
-0.028047 -0.008306 0.882000
0.023845 0.034339 0.868000
0.010688 0.035615 0.873000
0.035444 -0.011560 0.881000
0.005644 -0.008919 0.871000
0.015985 0.012547 0.868000
-0.029466 0.005845 0.881000
0.013890 0.001835 0.871000
0.012413 -0.018892 0.868000
-0.040299 -0.002492 0.880000
-0.020354 0.009088 0.879000
0.037120 0.011737 0.861000
0.000986 -0.031576 0.873000
-0.040482 -0.011963 0.884000
-0.027050 -0.031646 0.885000
-0.023637 0.008736 0.880000
0.029816 0.021404 0.865000
-0.008706 -0.033335 0.872000
0.025869 0.000398 0.864000
-0.019630 -0.001765 0.879000
0.009610 0.010104 0.873000
-0.006236 0.013775 0.878000
-0.004399 0.028037 0.872000
0.004916 -0.022132 0.869000
-0.042754 -0.027202 0.871000
-0.035993 0.001494 0.881000
-0.015219 -0.023365 0.875000
0.026611 0.010011 0.865000
-0.017078 -0.003570 0.878000
0.036766 0.008193 0.861000
-0.014944 0.000768 0.880000
0.012785 -0.004249 0.869000
0.011739 0.020477 0.871000
-0.007046 -0.044230 0.889000
0.000626 -0.012533 0.873000
-0.008357 -0.034451 0.873000
-0.013058 -0.016523 0.875000
0.006704 -0.011760 0.869000
0.010614 -0.017086 0.867000
0.001370 -0.038741 0.889000
-0.016660 -0.026247 0.875000
0.012470 0.001838 0.872000
-0.009794 -0.024749 0.873000
0.010328 0.033459 0.873000
0.011752 0.033421 0.872000
0.017374 -0.010650 0.866000
0.034720 0.025617 0.863000
0.029816 0.025676 0.865000
0.020606 0.014316 0.867000
0.044510 0.013139 0.860000
-0.018162 -0.004293 0.878000
0.016362 0.014707 0.869000
-0.029828 -0.014461 0.881000
-0.010935 -0.042237 0.878000
0.007086 0.020859 0.872000
-0.038212 -0.001772 0.882000
-0.010947 -0.002851 0.879000
-0.030951 -0.003950 0.882000
-0.034582 -0.013751 0.882000
0.009969 0.005792 0.873000
0.005631 -0.012118 0.869000
-0.010165 -0.020101 0.874000
0.032233 -0.003154 0.863000
-0.012032 -0.002489 0.879000
0.016114 -0.022285 0.875000
0.013158 0.021169 0.870000
-0.035024 0.010023 0.866000
0.007094 -0.004987 0.873000
-0.001538 0.015582 0.878000
-0.004394 -0.027561 0.871000
-0.010525 0.019828 0.874000
0.024203 -0.013533 0.868000
-0.037779 0.004350 0.872000
-0.004045 -0.033373 0.873000
-0.025477 -0.000682 0.881000
0.009577 -0.023232 0.870000
-0.044547 -0.024334 0.871000
0.008942 -0.028505 0.878000
-0.010154 0.021242 0.873000
-0.011296 -0.006823 0.878000
-0.023583 0.010162 0.878000
-0.014482 -0.038807 0.874000
0.036099 0.008912 0.862000
-0.027653 -0.003583 0.881000
0.009250 0.007589 0.873000
0.041679 0.011723 0.860000
0.006016 0.023398 0.873000
0.020915 -0.007790 0.865000
-0.011950 -0.027624 0.873000
-0.027290 -0.016274 0.881000
-0.029004 0.008716 0.878000
-0.036870 -0.036011 0.876000
-0.043657 -0.013025 0.882000
0.044156 0.017740 0.860000
-0.013058 -0.014362 0.875000
0.035389 0.009622 0.862000
0.033996 0.029256 0.845000
0.008891 0.007948 0.873000
0.004584 -0.029814 0.874000
0.012413 -0.006030 0.868000
-0.029136 0.002948 0.882000
-0.023248 0.009088 0.879000
-0.024389 0.003670 0.881000
-0.041573 -0.012691 0.884000
-0.004414 0.023452 0.875000
-0.008386 -0.011855 0.876000
0.035034 0.005364 0.862000
0.014248 0.026571 0.871000
0.025661 -0.012833 0.869000
0.023488 0.015047 0.868000
-0.005470 -0.026844 0.871000
-0.001898 0.018091 0.877000
-0.014219 0.006563 0.880000
-0.017740 -0.034170 0.875000
0.019581 0.032590 0.869000
0.007062 0.038671 0.869000
-0.014482 -0.029094 0.874000
-0.035711 -0.012313 0.883000
-0.039212 -0.027845 0.880000
-0.011591 -0.027264 0.873000
0.041679 0.009599 0.860000
-0.006959 -0.039346 0.878000
-0.028938 0.009778 0.876000
0.034009 0.026682 0.863000
-0.008043 -0.005739 0.878000
0.020296 0.032590 0.869000
-0.011950 -0.037325 0.873000
0.005663 0.017670 0.874000
-0.022808 0.011581 0.876000
0.013158 0.019737 0.870000
0.001708 0.027053 0.875000
0.016305 -0.012789 0.866000
-0.013403 -0.038447 0.874000
0.033970 0.006429 0.862000
0.013826 0.042864 0.867000
0.036411 0.003941 0.861000
-0.001893 0.022732 0.875000
0.036766 0.008902 0.861000
0.025455 0.034811 0.862000
0.003860 -0.008221 0.873000
-0.004404 -0.015048 0.873000
0.030471 -0.016329 0.884000
0.020296 0.033306 0.869000
-0.019608 -0.003209 0.878000
-0.040430 0.000403 0.875000
-0.016337 -0.007537 0.877000
0.012829 0.033062 0.872000
-0.041937 -0.016329 0.884000
0.017038 0.000043 0.867000
-0.020377 0.005839 0.880000
0.034364 0.026327 0.863000
0.023104 0.012175 0.867000
-0.030054 0.008345 0.877000
0.004200 -0.021775 0.869000
-0.026474 -0.030312 0.878000
0.021277 -0.020964 0.880000
0.003860 -0.009299 0.873000
-0.007638 -0.019360 0.873000
0.039955 0.019533 0.861000
-0.025419 0.009811 0.879000
-0.022163 -0.005745 0.879000
0.005285 0.035175 0.871000
-0.025751 -0.024530 0.878000
0.014909 -0.028862 0.889000
0.032617 -0.014493 0.883000
-0.017801 -0.005016 0.878000
-0.042250 0.002186 0.868000
0.027323 -0.008858 0.865000
0.007462 0.008677 0.874000
0.025449 -0.015425 0.874000
-0.030225 -0.001408 0.882000
0.038982 0.000043 0.863000
-0.030484 -0.027452 0.879000
0.006346 0.037240 0.869000
0.006361 -0.026485 0.871000
-0.008716 -0.024031 0.873000
-0.040615 -0.001765 0.879000
0.018800 0.000399 0.866000
-0.013043 -0.039526 0.874000
0.024175 -0.018791 0.880000
-0.001887 0.028396 0.872000
0.023488 0.032553 0.868000
0.001704 -0.030498 0.873000
0.013890 -0.021825 0.871000
-0.026866 0.009450 0.879000
-0.005141 0.018071 0.876000
0.008172 0.033100 0.873000
-0.033817 -0.024976 0.881000
-0.021439 -0.006107 0.879000
0.015271 0.000400 0.868000
0.014607 0.029439 0.871000
0.036057 0.002523 0.861000
0.042741 0.007476 0.860000
0.032253 -0.014493 0.883000
0.031596 -0.006010 0.865000
0.034720 0.016026 0.863000
-0.000093 0.014121 0.877000
-0.035348 -0.011949 0.883000
0.035744 0.010686 0.862000
0.013173 0.002194 0.871000
0.031926 -0.015238 0.884000
0.020007 0.024807 0.872000
-0.021415 -0.009714 0.878000
-0.037039 -0.030381 0.880000
-0.036075 -0.001410 0.883000
0.026316 0.022524 0.867000
0.032715 0.029319 0.857000
-0.029399 -0.025643 0.879000
-0.032766 -0.014114 0.882000
0.000628 0.021651 0.875000
-0.025448 -0.005027 0.880000
0.021295 0.010379 0.866000
0.000991 -0.033925 0.878000
-0.010501 -0.031181 0.872000
-0.021464 0.008374 0.880000
-0.009128 -0.006100 0.878000
0.042033 0.011015 0.860000
-0.006912 -0.026874 0.872000
0.025929 0.012161 0.866000
0.032944 0.014606 0.863000
0.010724 -0.026277 0.876000
0.027892 -0.017764 0.883000
-0.021801 -0.006107 0.879000
-0.018885 -0.002848 0.878000
0.027355 0.012518 0.866000
0.022008 -0.012432 0.866000
0.022721 0.009666 0.866000
0.001698 -0.016429 0.870000
-0.028313 -0.025643 0.879000
-0.017059 -0.020892 0.877000
0.003856 -0.028310 0.872000
-0.040476 -0.028800 0.876000
-0.002608 -0.013970 0.873000
-0.004105 -0.039340 0.886000
0.012456 0.024062 0.871000
0.016681 -0.014945 0.867000
-0.017781 -0.019809 0.877000
0.029643 0.030837 0.860000
-0.027684 0.004037 0.882000
-0.041209 -0.012327 0.884000
0.026255 -0.008146 0.865000
-0.023999 -0.009374 0.880000
0.003127 -0.017840 0.869000
-0.026625 -0.010496 0.883000
-0.016736 0.004023 0.879000
0.031523 0.007502 0.863000
0.000267 -0.011108 0.874000
0.037474 0.006776 0.861000
-0.012669 -0.032654 0.873000
0.018529 0.032270 0.870000
-0.001168 0.030514 0.871000
0.019603 0.038357 0.870000
0.036449 -0.010086 0.879000
-0.020716 0.002938 0.879000
0.019157 -0.013145 0.866000
-0.040390 -0.006854 0.882000
-0.036075 -0.000683 0.883000
-0.005855 -0.037051 0.875000
0.002057 -0.019293 0.870000
-0.036801 -0.010132 0.883000
-0.038212 -0.025367 0.882000
0.021983 0.000755 0.865000
0.029747 -0.000313 0.863000
0.011393 0.003991 0.872000
-0.019992 -0.023111 0.879000
-0.006222 -0.011494 0.876000
-0.028346 -0.017342 0.880000
0.007768 -0.016748 0.868000
0.025573 0.012161 0.866000
0.003513 0.013383 0.876000
-0.027621 -0.019153 0.880000
0.017116 0.023703 0.871000
0.019488 -0.022438 0.881000
0.012097 -0.022900 0.871000
-0.012032 -0.001765 0.879000
0.006071 -0.031866 0.881000
-0.012727 -0.042911 0.877000
-0.026565 0.002944 0.881000
-0.019630 -0.019131 0.879000
0.030172 0.021048 0.865000
0.034303 0.027832 0.844000
0.027647 -0.006003 0.864000
0.013826 -0.013874 0.867000
-0.016679 -0.020147 0.876000
0.029460 0.019268 0.865000
-0.024723 -0.007563 0.880000
-0.020692 0.009800 0.878000
-0.011964 -0.019382 0.874000
-0.032040 -0.008306 0.882000
0.012829 0.035574 0.872000
-0.004040 -0.020055 0.872000
0.026673 0.027163 0.867000
-0.004791 0.013775 0.878000
0.015985 0.012189 0.868000
-0.009435 -0.024031 0.873000
0.019289 0.025166 0.872000
0.028424 0.026775 0.866000
0.040664 0.018824 0.861000
0.018822 0.011819 0.867000
0.008840 -0.018892 0.868000
0.006704 0.037955 0.869000
-0.013403 -0.037728 0.874000
-0.013495 0.000406 0.880000
-0.017059 -0.010424 0.877000
-0.024723 0.008374 0.880000
-0.005842 -0.016844 0.873000
0.023488 0.031124 0.868000
0.013906 0.037369 0.872000
-0.032729 -0.016999 0.881000
0.003489 -0.025022 0.870000
-0.010525 -0.037368 0.874000
0.005273 0.036882 0.869000
0.030137 0.013911 0.864000
0.032588 -0.003154 0.863000
-0.018524 -0.006823 0.878000
-0.021751 -0.027389 0.877000
-0.025839 -0.017724 0.881000
-0.033856 -0.010121 0.882000
0.020654 0.030087 0.869000
0.012799 -0.021442 0.870000
-0.026202 0.004395 0.881000
0.016022 0.022960 0.870000
0.040337 -0.005732 0.877000
0.000266 -0.016089 0.871000
-0.002981 0.018091 0.877000
-0.030588 -0.007580 0.882000
0.018822 0.005039 0.867000
0.019536 0.007893 0.867000
0.015682 0.034099 0.871000
-0.039709 -0.017037 0.883000
-0.018524 -0.003570 0.878000
-0.034219 -0.010847 0.882000
0.028781 -0.009224 0.866000
-0.011257 -0.012201 0.875000
-0.042157 -0.005758 0.881000
0.006704 -0.012833 0.869000
0.004921 0.036567 0.870000
-0.018885 -0.005377 0.878000
0.037163 0.015298 0.862000
-0.018142 -0.013312 0.877000
-0.015561 -0.039526 0.874000
-0.020645 -0.029521 0.876000
0.036141 0.020644 0.863000
0.023184 0.018305 0.870000
0.007086 0.022295 0.872000
0.017772 0.014333 0.868000
0.032196 0.005364 0.862000
0.007419 -0.011045 0.869000
-0.032367 -0.034766 0.881000
-0.022499 -0.024530 0.878000
0.018529 0.039431 0.870000
0.040309 0.014572 0.861000
-0.001883 -0.024664 0.870000
-0.034542 -0.021713 0.881000
-0.021046 -0.041121 0.893000
-0.027715 -0.010132 0.883000
-0.039346 -0.022125 0.883000
0.047862 -0.000678 0.876000
0.008522 0.024807 0.872000
-0.021826 -0.022050 0.880000
-0.010872 -0.022953 0.873000
-0.016679 -0.022671 0.876000
0.013531 0.002194 0.871000
-0.016299 -0.026247 0.875000
0.022052 -0.021374 0.882000
0.010639 -0.021059 0.869000
-0.041023 -0.002492 0.880000
0.007813 0.033459 0.873000
-0.014139 -0.040652 0.875000
0.006781 0.009088 0.879000
0.018887 0.031912 0.870000
0.030172 0.017844 0.865000
-0.025086 -0.007200 0.880000
0.006719 -0.008202 0.871000
-0.021826 -0.015169 0.880000
0.034679 0.002171 0.862000
-0.029951 0.010115 0.874000
-0.037039 0.001130 0.880000
-0.030881 -0.025310 0.880000
-0.016318 -0.020868 0.876000
-0.001537 0.012677 0.877000
0.024588 0.021145 0.869000
-0.015306 0.005114 0.880000
0.007929 -0.032776 0.886000
0.004637 -0.034157 0.884000
-0.005520 -0.038667 0.879000
0.024917 -0.012818 0.868000
-0.021826 0.001854 0.880000
0.030492 0.014623 0.864000
0.004579 0.023039 0.873000
-0.012727 -0.007898 0.877000
0.020582 -0.000670 0.866000
-0.037591 0.002207 0.876000
-0.027290 -0.006846 0.881000
0.037474 0.009965 0.861000
0.019581 0.033306 0.869000
-0.009500 0.007641 0.879000
0.006696 -0.017463 0.868000
0.013858 -0.002461 0.869000
0.008881 -0.004623 0.872000
-0.032766 -0.005765 0.882000
0.012456 0.026213 0.871000
0.017374 -0.006373 0.866000
0.027030 0.020026 0.867000
0.004205 0.035851 0.870000
-0.003323 -0.031899 0.872000
0.003149 -0.030928 0.875000
-0.026113 -0.023807 0.878000
0.015236 -0.010650 0.866000
0.029747 -0.003509 0.863000
0.011739 0.027647 0.871000
0.033615 0.005364 0.862000
0.018087 -0.005660 0.866000
-0.003334 0.024532 0.875000
-0.032077 -0.001410 0.883000
0.025514 -0.004936 0.864000
0.039719 0.022541 0.841000
-0.007691 0.009088 0.879000
0.003131 0.033702 0.870000
-0.033455 -0.020987 0.881000
-0.039612 0.007875 0.865000
-0.003677 -0.020391 0.871000
0.016777 0.027319 0.872000
-0.002253 0.024532 0.875000
-0.031570 -0.030708 0.879000
0.035785 0.020289 0.863000
0.008901 0.012633 0.874000
-0.006912 -0.032976 0.872000
-0.039256 0.007875 0.865000
0.021320 0.014316 0.867000
-0.007656 -0.037771 0.875000
-0.005862 -0.037453 0.876000
-0.009862 0.011259 0.879000
-0.038255 -0.019945 0.883000
0.035348 0.005004 0.861000
0.016041 0.036250 0.871000
-0.013133 0.006925 0.880000
0.015257 -0.028464 0.888000
-0.035711 -0.013403 0.883000
0.036808 0.019201 0.862000
0.039976 -0.006454 0.877000
0.004927 -0.027202 0.871000
0.002061 0.031267 0.872000
0.007530 -0.031176 0.882000
-0.001530 -0.033013 0.873000
0.021752 0.018663 0.870000
0.024532 0.026449 0.867000
0.032144 -0.013358 0.880000
-0.039709 -0.019218 0.883000
-0.016012 0.007641 0.879000
-0.002243 0.030156 0.871000
0.020343 0.024779 0.871000
-0.019541 -0.035250 0.875000
0.015985 0.006473 0.868000
0.042081 0.003941 0.861000
0.016041 0.033024 0.871000
0.027292 -0.006714 0.864000
-0.006545 -0.029353 0.871000
0.025089 -0.015785 0.874000
0.027186 -0.013236 0.872000
-0.017039 -0.023392 0.876000
-0.030776 0.007623 0.877000
-0.034311 0.010379 0.866000
-0.012019 0.010523 0.878000
-0.014859 -0.041732 0.875000
-0.002977 0.018431 0.876000
-0.009128 -0.008268 0.878000
0.013686 -0.026427 0.881000
-0.032604 0.010760 0.868000
0.022695 -0.002449 0.865000
-0.014482 -0.038447 0.874000
0.011022 -0.003900 0.871000
0.035702 0.007130 0.861000
0.019234 -0.025118 0.886000
0.035471 -0.003158 0.864000
-0.014499 -0.020124 0.875000
0.007454 -0.027264 0.873000
0.031705 -0.008531 0.868000
-0.038541 0.003277 0.873000
0.007777 -0.009256 0.869000
-0.015650 -0.001765 0.879000
0.024900 -0.018428 0.880000
0.030848 0.019601 0.864000
-0.013418 -0.015082 0.875000
-0.046678 -0.026628 0.864000
-0.041890 -0.021035 0.883000
-0.025839 -0.009022 0.881000
0.016661 0.042101 0.866000
0.009229 0.019760 0.871000
0.007102 0.016231 0.874000
0.004297 -0.036546 0.889000
-0.014499 -0.019404 0.875000
0.027647 0.003599 0.864000
0.015646 0.005766 0.869000
0.042309 -0.003191 0.873000
-0.031279 -0.016999 0.881000
0.019558 0.017191 0.868000
0.030172 0.027100 0.865000
0.011752 0.029832 0.872000
-0.029136 0.001496 0.882000
0.000266 -0.027529 0.870000
0.008881 0.021577 0.872000
0.002773 -0.025380 0.870000
0.002785 0.028461 0.874000
-0.029985 0.009407 0.875000
0.043095 0.006768 0.860000
0.013112 -0.006737 0.867000
-0.006308 -0.043449 0.888000
-0.024026 0.007658 0.881000
-0.018183 0.005832 0.879000
-0.014910 -0.005739 0.878000
-0.011322 0.006201 0.880000
0.042485 0.002171 0.862000
0.015610 -0.004953 0.867000
-0.022550 0.005839 0.880000
-0.007062 -0.045429 0.891000
-0.009065 -0.032617 0.872000
-0.037763 -0.029656 0.880000
0.017116 0.035533 0.871000
0.002426 0.024864 0.874000
-0.039346 -0.005408 0.883000
-0.040436 -0.010859 0.883000
-0.009435 -0.035529 0.873000
-0.012698 -0.014722 0.875000
0.032905 -0.001377 0.862000
0.008901 0.009036 0.874000
-0.041163 -0.022125 0.883000
0.021011 0.036167 0.869000
-0.025477 0.007658 0.881000
0.029460 0.021404 0.865000
0.014215 0.010773 0.869000
-0.019268 0.005832 0.879000
-0.021053 -0.007184 0.878000
0.032233 0.011764 0.863000
0.037829 0.012800 0.861000
-0.017740 -0.032009 0.875000
-0.044848 -0.026952 0.863000
0.013173 0.029439 0.871000
-0.016318 -0.012576 0.876000
0.014948 0.021886 0.870000
-0.023637 -0.009374 0.880000
0.011406 0.006870 0.873000
-0.003677 -0.022183 0.871000
-0.017821 0.004747 0.879000
-0.002243 -0.019674 0.871000
0.000628 0.018071 0.876000
-0.012683 -0.022979 0.874000
0.016418 0.026602 0.872000
0.035430 0.022065 0.863000
-0.022550 -0.014082 0.880000
0.018213 0.024807 0.872000
0.000988 0.021651 0.875000
0.017854 0.024089 0.872000
-0.018460 -0.029848 0.875000
0.019892 -0.014945 0.867000
0.030102 0.003950 0.863000
-0.008776 0.004747 0.879000
0.018275 -0.020845 0.875000
-0.025000 -0.031360 0.877000
0.015324 0.037326 0.871000
-0.015579 -0.027327 0.875000
0.031204 0.014267 0.864000
-0.011232 -0.030498 0.873000
-0.004419 0.020234 0.876000
0.008993 -0.030484 0.883000
0.041533 0.020500 0.857000
0.038937 0.018491 0.862000
-0.036676 -0.031467 0.880000
0.010663 0.024420 0.871000
-0.005501 0.021676 0.876000
-0.030225 -0.008306 0.882000
0.006743 0.011195 0.874000
0.010060 -0.028965 0.881000
0.015552 -0.026517 0.884000
-0.011591 -0.035888 0.873000
0.026771 -0.018107 0.882000
0.012799 -0.002105 0.870000
-0.002256 0.019513 0.876000
-0.031968 -0.029294 0.880000
-0.023301 -0.015548 0.881000
0.029643 0.031191 0.860000
0.018635 -0.020484 0.875000
-0.004430 0.012330 0.878000
-0.024361 -0.019153 0.880000
-0.029794 -0.021326 0.880000
-0.004419 -0.009691 0.876000
0.016362 0.014349 0.869000
-0.009435 -0.022593 0.873000
0.035075 0.021354 0.863000
0.017374 -0.008868 0.866000
0.005310 0.012288 0.875000
0.014540 -0.014588 0.867000
0.050631 0.001842 0.874000
-0.014499 -0.041732 0.875000
-0.026143 -0.022749 0.879000
0.008522 0.018706 0.872000
0.012069 -0.020702 0.869000
0.029816 -0.007434 0.865000
0.017455 0.032986 0.870000
-0.013826 -0.005016 0.878000
-0.010223 0.002938 0.879000
0.037474 0.002169 0.861000
0.014931 0.018999 0.869000
0.037249 -0.002091 0.864000
0.021702 0.016476 0.868000
-0.030916 -0.016636 0.881000
-0.037892 -0.005408 0.883000
-0.002991 -0.036900 0.880000
0.014965 0.035533 0.871000
0.015236 -0.011363 0.866000
0.022852 -0.015730 0.871000
-0.041747 -0.006838 0.880000
-0.023275 -0.011184 0.880000
0.022416 0.014690 0.868000
0.018778 -0.010994 0.865000
-0.002960 0.028722 0.871000
-0.006222 -0.010773 0.876000
0.010749 -0.027421 0.878000
-0.019268 0.003661 0.879000
0.011380 -0.003183 0.871000
-0.028281 -0.031034 0.878000
-0.004802 -0.038711 0.880000
0.001342 -0.014655 0.871000
0.016022 0.021169 0.870000
0.004220 -0.007862 0.873000
0.015967 -0.016372 0.867000
0.016738 0.022244 0.870000
0.005334 -0.031431 0.879000
-0.013043 -0.024778 0.874000
-0.013763 -0.038447 0.874000
-0.040482 -0.015601 0.884000
0.023736 -0.001024 0.864000
0.035034 0.000752 0.862000
0.016835 -0.021565 0.875000
-0.020739 -0.020964 0.880000
-0.035268 -0.030053 0.881000
-0.015561 -0.037008 0.874000
0.018108 0.005752 0.867000
-0.019181 -0.038131 0.875000
-0.036034 -0.022463 0.882000
-0.006983 -0.040931 0.881000
-0.015921 -0.035569 0.874000
-0.011322 0.008012 0.880000
0.019847 -0.004942 0.865000
0.019915 -0.015676 0.868000
-0.020015 -0.018791 0.880000
0.010316 0.000043 0.872000
-0.009076 -0.024390 0.873000
-0.042915 0.003968 0.867000
0.033554 -0.011895 0.879000
-0.005476 -0.021132 0.872000
-0.022188 -0.022050 0.880000
0.000629 0.013399 0.877000
-0.024389 0.007296 0.881000
0.033745 -0.013782 0.884000
0.043387 -0.002472 0.873000
-0.017000 -0.036289 0.874000
0.011022 -0.023259 0.871000
-0.002620 0.017369 0.877000
-0.039664 -0.003950 0.882000
-0.038662 -0.009416 0.884000
-0.030588 0.002222 0.882000
-0.002256 0.020594 0.876000
-0.026202 0.007658 0.881000
-0.045732 -0.016980 0.880000
-0.018545 0.007279 0.879000
-0.029533 -0.011949 0.883000
0.022442 0.034736 0.869000
0.019536 0.012175 0.867000
-0.043657 -0.013751 0.882000
-0.038212 -0.026457 0.882000
-0.002290 -0.040936 0.889000
0.017415 0.012904 0.868000
-0.025986 -0.032046 0.886000
-0.028410 0.001859 0.882000
-0.009478 0.017369 0.877000
-0.004419 0.020955 0.876000
0.010293 -0.004970 0.870000
0.046872 0.000760 0.871000
-0.002608 -0.032654 0.873000
-0.001524 -0.022516 0.870000
0.019491 0.040629 0.865000
0.034285 -0.007477 0.870000
0.025187 0.010367 0.865000
-0.037806 -0.027514 0.881000
-0.036997 -0.032155 0.879000
0.015288 0.013277 0.869000
0.014523 -0.010650 0.866000
0.026225 -0.002447 0.864000
-0.004068 0.009439 0.878000
-0.014219 0.000043 0.880000
0.013173 0.031231 0.871000
0.002412 -0.024278 0.869000
0.012829 0.031626 0.872000
-0.022525 -0.002127 0.879000
0.011328 -0.016372 0.867000
0.035702 0.005712 0.861000
-0.002253 0.021291 0.875000
-0.026927 -0.000682 0.881000
-0.017781 -0.017644 0.877000
0.034679 0.006074 0.862000
0.032944 -0.002089 0.863000
0.046208 -0.000316 0.872000
0.011380 0.021911 0.871000
0.034650 0.028526 0.844000
-0.026172 0.009098 0.880000
0.010675 -0.001751 0.872000
-0.013133 0.002579 0.880000
0.035348 0.004649 0.861000
0.028035 0.012503 0.865000
-0.013495 -0.044868 0.880000
0.024831 0.007163 0.865000
-0.012380 -0.007184 0.878000
-0.034621 -0.003954 0.883000
0.015646 0.008985 0.869000
0.028748 0.020692 0.865000
-0.032804 -0.004681 0.883000
-0.007312 -0.010785 0.877000
-0.019541 -0.030568 0.875000
0.030812 -0.002799 0.863000
0.027743 0.017885 0.867000
0.019915 0.014333 0.868000
-0.009839 0.015564 0.877000
-0.014876 0.014465 0.876000
0.045943 0.001827 0.867000
0.020296 0.034021 0.869000
0.024532 0.025022 0.867000
0.045902 -0.001035 0.873000
0.000627 0.028821 0.874000
0.007804 -0.006417 0.872000
-0.030519 -0.019877 0.880000
-0.031931 -0.030708 0.879000
0.025682 -0.018833 0.882000
-0.011232 -0.034091 0.873000
0.016004 0.019714 0.869000
-0.019901 0.012648 0.875000
-0.016012 0.005832 0.879000
-0.006236 0.008716 0.878000
-0.028047 0.002948 0.882000
-0.026927 0.008021 0.881000
-0.038982 -0.022489 0.883000
-0.020716 -0.004298 0.879000
0.020678 0.019021 0.870000
0.003878 -0.031721 0.877000
-0.000451 -0.030463 0.872000
-0.024278 -0.029916 0.877000
0.026134 -0.019626 0.885000
0.011712 -0.005680 0.869000
-0.005828 -0.026844 0.871000
0.042093 -0.004644 0.876000
-0.014548 0.010162 0.878000
0.027292 0.004310 0.864000
0.025543 0.009655 0.865000
0.007804 0.021577 0.872000
-0.032692 -0.024223 0.880000
0.025514 -0.005647 0.864000
0.007216 -0.033946 0.888000
0.005657 0.023039 0.873000
-0.003686 -0.033013 0.873000
0.041325 0.006768 0.860000
-0.010885 -0.017943 0.874000
0.010435 -0.029361 0.882000
-0.019992 -0.023472 0.879000
0.007419 0.037955 0.869000
-0.005117 -0.017902 0.872000
0.027373 -0.015857 0.878000
-0.036438 -0.010132 0.883000
-0.023637 0.002579 0.880000
0.013842 -0.004601 0.868000
0.021418 0.024062 0.871000
-0.010200 -0.041106 0.877000
-0.012669 -0.028702 0.873000
0.040337 -0.006454 0.877000
-0.018142 -0.011507 0.877000
-0.031570 -0.033240 0.879000
0.003847 0.034418 0.870000
0.013874 0.019379 0.870000
0.029080 -0.013282 0.875000
-0.001526 -0.017881 0.871000
0.007804 0.024089 0.872000
0.034720 -0.002089 0.863000
-0.010573 -0.005739 0.878000
-0.037849 -0.026094 0.882000
0.044186 0.018518 0.847000
-0.039346 -0.006135 0.883000
0.017116 0.023345 0.871000
0.011393 0.002555 0.872000
-0.012310 -0.036966 0.873000
-0.020716 0.001129 0.879000
-0.030588 0.002585 0.882000
0.008172 0.028788 0.873000
0.014607 0.035533 0.871000
0.010663 0.019043 0.871000
0.020582 0.006815 0.866000
0.029678 0.031936 0.861000
-0.027983 0.008374 0.880000
0.043802 0.017033 0.860000
-0.012741 0.013414 0.878000
-0.013073 -0.010052 0.876000
0.007454 0.033818 0.873000
-0.013043 -0.021180 0.874000
0.009599 0.026961 0.872000
-0.000092 0.031231 0.871000
-0.007354 -0.041340 0.882000
0.030172 0.018912 0.865000
-0.030588 -0.012662 0.882000
-0.018460 -0.029128 0.875000
0.009282 -0.027358 0.876000
0.022517 -0.022565 0.886000
-0.036075 -0.005771 0.883000
-0.029499 -0.003950 0.882000
-0.002602 -0.023617 0.871000
0.039373 0.023579 0.841000
0.010663 -0.003542 0.871000
-0.001533 0.024172 0.875000
0.045392 0.017884 0.850000
0.034760 0.024935 0.864000
-0.026565 -0.001770 0.881000
0.026673 0.021453 0.867000
0.014265 -0.022209 0.872000
-0.003698 -0.010773 0.876000
0.022774 0.028266 0.868000
0.034246 -0.007110 0.869000
-0.012005 0.015564 0.877000
-0.020692 -0.006100 0.878000
-0.008053 0.008003 0.879000
-0.041163 -0.021762 0.883000
-0.041432 -0.008659 0.881000
0.038405 -0.002809 0.866000
-0.005895 -0.039843 0.881000
-0.003757 -0.042448 0.890000
0.016022 0.040506 0.870000
0.016343 0.010046 0.868000
0.023736 -0.003158 0.864000
-0.011270 -0.011494 0.876000
0.022721 0.010023 0.866000
0.048441 0.003611 0.867000
-0.006343 -0.045531 0.893000
-0.012046 0.005839 0.880000
-0.029037 -0.025643 0.879000
-0.027952 -0.026367 0.879000
0.008901 0.013353 0.874000
0.032626 -0.004225 0.864000
-0.005862 -0.011855 0.876000
-0.007656 -0.013282 0.875000
0.008135 -0.009972 0.869000
0.037120 0.006421 0.861000
0.030172 0.020692 0.865000
0.038892 0.013154 0.861000
-0.010305 -0.045174 0.886000
-0.030484 -0.031070 0.879000
0.026999 0.023924 0.866000
0.005657 -0.006784 0.873000
-0.008736 0.020211 0.875000
0.015682 0.036609 0.871000
-0.041440 0.006459 0.866000
-0.044070 -0.016311 0.883000
-0.038082 -0.030346 0.879000
0.032233 0.011054 0.863000
0.005650 -0.008571 0.872000
-0.030519 -0.025310 0.880000
-0.004068 0.013414 0.878000
0.025304 0.019714 0.869000
-0.026444 0.011233 0.877000
0.027647 0.008222 0.864000
0.016041 -0.020391 0.871000
0.024831 0.008943 0.865000
0.042033 0.009599 0.860000
-0.033417 -0.030743 0.880000
-0.006553 -0.025080 0.872000
0.006346 -0.022848 0.869000
-0.026504 -0.021302 0.879000
-0.004040 -0.018979 0.872000
0.028068 0.030696 0.866000
-0.011322 0.008374 0.880000
-0.040799 -0.022489 0.883000
-0.009076 0.023758 0.873000
-0.029432 -0.021326 0.880000
-0.010200 0.014121 0.877000
0.006016 0.025195 0.873000
-0.045266 -0.020555 0.878000
0.035806 -0.011560 0.881000
0.006023 0.018389 0.874000
0.013485 -0.003887 0.868000
-0.004769 -0.035569 0.874000
0.030402 -0.015566 0.882000
0.005657 0.023758 0.873000
-0.013449 -0.043272 0.877000
0.036808 0.012460 0.862000
0.007445 -0.005340 0.872000
-0.015579 -0.042453 0.875000
-0.008126 -0.044130 0.887000
-0.033054 0.004390 0.880000
-0.038619 -0.016674 0.883000
0.009957 0.038086 0.872000
-0.015597 -0.012576 0.876000
-0.035348 -0.006498 0.883000
0.033337 -0.004580 0.864000
0.009599 0.037727 0.872000
0.016305 -0.013502 0.866000
-0.014482 -0.025137 0.874000
0.006712 0.039431 0.870000
0.003509 0.019130 0.875000
-0.009794 0.022320 0.873000
0.009588 0.017967 0.871000
0.001347 0.028461 0.874000
-0.019225 -0.012951 0.877000
0.013826 -0.007808 0.867000
-0.008716 -0.016485 0.873000
0.007768 -0.016391 0.868000
0.026936 0.004666 0.864000
0.014183 -0.017442 0.867000
-0.017459 0.003299 0.879000
-0.031243 -0.025672 0.880000
0.020678 0.020095 0.870000
0.046941 -0.002851 0.879000
-0.025086 0.008736 0.880000
-0.022163 -0.022749 0.879000
0.017374 -0.007086 0.866000
-0.010718 -0.047210 0.890000
0.011022 -0.002825 0.871000
0.017077 0.020430 0.869000
-0.038169 -0.027514 0.881000
-0.033894 -0.004318 0.883000
-0.003338 0.018431 0.876000
0.032944 0.015316 0.863000
-0.012324 -0.025497 0.874000
0.019558 0.016119 0.868000
0.014808 -0.026850 0.883000
0.003513 0.017710 0.876000
-0.033817 -0.026427 0.881000
0.001734 -0.037967 0.888000
-0.026083 0.011594 0.877000
0.010675 -0.002828 0.872000
0.003505 0.026663 0.874000
0.029104 0.029236 0.865000
0.023873 0.023291 0.869000
-0.038125 -0.028932 0.880000
-0.024417 -0.015566 0.882000
0.028068 0.013944 0.866000
0.018465 0.008250 0.867000
-0.006215 -0.037411 0.875000
-0.031243 -0.022775 0.880000
0.025632 0.020764 0.868000
-0.022834 -0.026307 0.877000
-0.040027 -0.025004 0.882000
0.019245 -0.017861 0.870000
-0.011283 -0.009703 0.877000
0.023818 -0.012447 0.867000
-0.019630 0.002938 0.879000
-0.008726 -0.015425 0.874000
0.013188 0.004350 0.872000
0.029391 -0.002799 0.863000
-0.013763 0.018749 0.874000
0.025304 0.018284 0.869000
-0.020692 -0.010798 0.878000
-0.012683 -0.023699 0.874000
-0.020331 -0.008268 0.878000
-0.013388 -0.031936 0.873000
-0.001166 -0.025022 0.870000
0.026316 0.030374 0.867000
0.000626 -0.012877 0.872000
0.000982 -0.015712 0.870000
0.014232 0.008995 0.870000
0.030919 -0.007799 0.866000
0.014590 0.002550 0.870000
0.031384 -0.009256 0.869000
0.022468 0.024034 0.870000
0.019847 -0.005298 0.865000
-0.017098 0.004385 0.879000
-0.008706 -0.032976 0.872000
-0.005828 -0.029711 0.871000
0.016700 0.004687 0.868000
-0.035630 -0.027514 0.881000
0.017018 -0.014214 0.866000
0.010675 -0.001034 0.872000
-0.042931 -0.021737 0.882000
-0.010212 0.013053 0.878000
0.021369 0.032233 0.869000
0.024831 0.009299 0.865000
0.033299 0.009633 0.863000
0.030884 0.023896 0.865000
-0.039619 0.001840 0.873000
-0.011671 0.000767 0.879000
-0.011964 -0.022260 0.874000
0.028424 0.013587 0.866000
0.048528 0.000043 0.875000
-0.006598 0.006909 0.878000
0.001698 -0.020009 0.870000
0.038892 0.003941 0.861000
-0.013778 -0.020484 0.875000
-0.026927 0.000769 0.881000
-0.024361 0.001854 0.880000
-0.024306 -0.024168 0.878000
0.027061 -0.011389 0.868000
-0.033417 -0.030381 0.880000
0.028714 -0.004936 0.864000
0.021345 0.015405 0.868000
0.026967 0.010723 0.865000
-0.028773 0.005489 0.882000
-0.034905 -0.024251 0.881000
0.004944 0.020188 0.874000
0.030848 0.019245 0.864000
0.034049 -0.004225 0.864000
0.009566 0.041532 0.869000
0.005273 -0.013906 0.869000
-0.019181 -0.036330 0.875000
0.021205 -0.019448 0.877000
0.018444 -0.013145 0.866000
-0.011657 -0.006461 0.878000
0.037873 0.001107 0.862000
-0.035671 -0.017018 0.882000
0.028424 0.014300 0.866000
-0.004059 0.020594 0.876000
0.031559 0.017467 0.864000
0.033773 0.030377 0.857000
-0.008357 -0.017563 0.873000
0.009250 0.006151 0.873000
0.013173 0.009364 0.871000
0.044108 0.001112 0.866000
-0.021439 -0.007554 0.879000
0.017394 0.006109 0.867000
-0.008756 0.015204 0.877000
-0.008034 -0.008981 0.877000
-0.031605 -0.025672 0.880000
-0.016698 -0.010063 0.877000
0.013874 0.008995 0.870000
0.002066 -0.006432 0.874000
0.007804 0.020500 0.872000
-0.024278 -0.030638 0.877000
-0.005507 0.015564 0.877000
-0.015306 0.004752 0.880000
0.043955 0.002529 0.863000
0.015985 0.006831 0.868000
-0.003753 -0.042034 0.889000
-0.004394 -0.026127 0.871000
-0.006912 -0.033335 0.872000
-0.020645 -0.030243 0.876000
0.006016 0.019087 0.873000
0.019806 -0.021302 0.879000
-0.038452 -0.034372 0.871000
0.014965 0.038043 0.871000
-0.009783 -0.030104 0.872000
0.047715 0.017968 0.854000
-0.022834 -0.025585 0.877000
0.006030 0.016970 0.875000
0.002426 0.021627 0.874000
0.022721 -0.012432 0.866000
-0.000450 -0.025380 0.870000
0.009208 -0.009256 0.869000
0.042741 0.015971 0.860000
-0.041131 -0.031002 0.867000
0.013369 -0.027972 0.884000
0.021983 -0.002805 0.865000
0.032588 0.014961 0.863000
-0.023999 -0.020964 0.880000
0.000987 -0.008230 0.874000
-0.012338 -0.015803 0.875000
0.014232 0.000043 0.870000
-0.035671 0.001133 0.882000
-0.006967 0.010535 0.879000
0.034961 -0.006395 0.869000
-0.039124 -0.032900 0.870000
0.039601 0.022368 0.861000
0.011034 0.030191 0.872000
-0.026565 -0.003945 0.881000
0.030102 0.000753 0.863000
-0.037207 -0.007961 0.884000
0.022365 0.005033 0.866000
-0.040153 -0.031789 0.869000
-0.016299 -0.023005 0.875000
0.006016 -0.003191 0.873000
-0.014842 -0.030893 0.874000
-0.015958 -0.011134 0.876000
-0.019992 0.001129 0.879000
0.027551 0.033353 0.861000
-0.002960 -0.018598 0.871000
-0.030951 -0.002135 0.882000
0.038893 -0.006815 0.877000
0.014183 -0.009592 0.867000
0.009946 0.016175 0.871000
0.009923 -0.007110 0.869000
0.020319 0.019379 0.870000
-0.037123 -0.025004 0.882000
-0.022188 0.004752 0.880000
0.037518 0.018491 0.862000
0.041161 0.000043 0.864000
0.019157 0.002181 0.866000
0.016324 -0.001028 0.867000
0.030102 -0.003509 0.863000
0.007813 -0.001394 0.873000
0.015271 -0.018534 0.868000
0.019938 0.032233 0.869000
0.016399 0.029797 0.871000
0.015085 -0.024168 0.878000
0.028003 0.003954 0.864000
0.042551 -0.005377 0.878000
-0.002261 0.016666 0.878000
0.044465 0.001112 0.866000
-0.016299 -0.028767 0.875000
-0.020331 -0.011520 0.878000
0.002057 -0.025380 0.870000
-0.040707 -0.005758 0.881000
0.022339 -0.001025 0.865000
-0.015579 -0.020124 0.875000
0.007086 -0.006417 0.872000
0.010269 0.040770 0.868000
-0.005868 0.016647 0.877000
-0.014842 -0.031612 0.874000
-0.014565 -0.003936 0.879000
-0.003694 0.023452 0.875000
0.030884 0.024964 0.865000
0.014573 0.008985 0.869000
0.019157 -0.002809 0.866000
-0.026625 -0.012313 0.883000
-0.020284 -0.030243 0.876000
0.007143 -0.030346 0.879000
0.032905 -0.000312 0.862000
-0.010573 -0.006461 0.878000
-0.018162 -0.020555 0.878000
-0.022912 0.001130 0.880000
0.047893 0.015082 0.870000
-0.006553 -0.022568 0.872000
-0.022087 0.011220 0.876000
-0.011657 0.011607 0.878000
-0.004399 -0.018261 0.872000
0.040256 0.024039 0.845000
-0.036997 -0.032517 0.879000
0.011354 0.040459 0.869000
0.029816 0.025320 0.865000
-0.047031 -0.017057 0.884000
-0.030519 -0.023137 0.880000
-0.009467 -0.012215 0.876000
0.019603 0.034418 0.870000
-0.031279 0.004757 0.881000
0.041795 0.019936 0.848000
-0.009783 -0.030822 0.872000
-0.041440 0.004676 0.866000
0.005631 -0.018913 0.869000
-0.011296 0.013053 0.878000
-0.012046 0.006201 0.880000
-0.001883 -0.024306 0.870000
0.043095 0.013493 0.860000
0.031878 0.007147 0.863000
-0.033894 0.000770 0.883000
-0.027527 0.011233 0.877000
0.014232 0.009353 0.870000
0.007813 0.034896 0.873000
-0.004856 -0.043180 0.890000
0.007813 -0.003191 0.873000
0.019941 -0.023997 0.885000
0.033926 0.028446 0.852000
-0.014122 -0.031612 0.874000
-0.032961 0.010403 0.868000
-0.023248 -0.005383 0.879000
0.003485 -0.017483 0.869000
0.021983 -0.008146 0.865000
0.030800 -0.015584 0.883000
-0.021101 0.004028 0.880000
-0.006943 -0.038535 0.876000
-0.038982 -0.021762 0.883000
0.040048 0.000398 0.863000
-0.045361 -0.025264 0.866000
0.000982 -0.022874 0.870000
-0.026444 0.011594 0.877000
-0.027290 -0.017361 0.881000
-0.015236 -0.015100 0.876000
0.040664 0.014572 0.861000
0.001696 -0.022848 0.869000
0.036453 0.019201 0.862000
0.024560 -0.012818 0.868000
-0.032330 -0.022775 0.880000
-0.001173 -0.008240 0.875000
0.007777 -0.009614 0.869000
-0.029794 -0.023137 0.880000
0.011393 0.005068 0.872000
-0.012756 -0.005383 0.879000
0.018930 0.026602 0.872000
0.019870 -0.002452 0.866000
0.025929 0.011805 0.866000
0.025869 -0.003158 0.864000
0.018909 -0.018598 0.871000
0.011833 -0.026337 0.878000
0.011698 -0.019963 0.868000
0.005298 0.031662 0.873000
-0.005501 0.018792 0.876000
0.000266 -0.029353 0.871000
-0.025477 -0.016636 0.881000
-0.007682 0.012691 0.878000
0.043802 0.017740 0.860000
0.034325 0.008557 0.862000
0.035348 0.003586 0.861000
0.000269 -0.034648 0.878000
-0.006590 -0.009342 0.877000
0.038538 0.002523 0.861000
0.013188 0.033062 0.872000
0.016324 -0.000671 0.867000
-0.023917 -0.030638 0.877000
0.036851 -0.001733 0.863000
0.030457 0.003239 0.863000
-0.013857 0.001854 0.880000
0.031204 0.027424 0.864000
0.018465 0.005039 0.867000
0.004224 0.024504 0.874000
-0.000813 -0.008600 0.875000
0.040971 0.008184 0.860000
0.042741 0.015617 0.860000
-0.014927 0.006917 0.879000
0.028714 0.005377 0.864000
-0.032403 0.002585 0.882000
-0.040482 -0.014874 0.884000
0.020249 0.011105 0.867000
-0.016355 0.010884 0.878000
0.043802 0.000400 0.867000
-0.021101 -0.022412 0.880000
-0.031570 -0.029984 0.879000
0.028619 -0.017401 0.883000
-0.000450 -0.020367 0.870000
0.023515 0.016495 0.869000
0.021652 0.002538 0.866000
-0.022938 -0.015548 0.881000
-0.046456 -0.018791 0.880000
-0.004867 -0.044012 0.892000
0.010663 -0.004259 0.871000
0.019179 0.007893 0.867000
-0.006553 -0.023644 0.872000
0.036496 0.025261 0.863000
0.044259 0.012460 0.862000
-0.012032 0.008364 0.879000
-0.003741 -0.040798 0.886000
0.019892 0.013603 0.867000
-0.015306 0.002217 0.880000
-0.023917 -0.032443 0.877000
-0.032403 -0.007943 0.882000
0.005982 -0.020321 0.868000
-0.014582 0.001854 0.880000
0.011022 0.015816 0.871000
0.017372 -0.025425 0.884000
0.040664 0.013509 0.861000
-0.014122 -0.028735 0.874000
0.034325 0.002526 0.862000
-0.038673 -0.031324 0.876000
0.016661 -0.013502 0.866000
0.031596 0.023184 0.865000
-0.010935 0.010884 0.878000
0.011034 0.011169 0.872000
0.040617 0.011369 0.860000
-0.016717 -0.003932 0.878000
0.034200 -0.010785 0.877000
-0.030225 -0.011573 0.882000
0.006434 -0.031503 0.881000
0.006346 -0.013191 0.869000
0.033459 0.028646 0.858000
0.002420 -0.029746 0.872000
0.039201 0.008538 0.860000
0.006858 -0.034716 0.889000
-0.011964 -0.017583 0.874000
0.002426 0.022706 0.874000
0.013339 -0.027183 0.882000
-0.045784 -0.013735 0.881000
0.002415 0.034418 0.870000
-0.003338 0.018792 0.876000
-0.032766 0.002948 0.882000
-0.027684 0.003311 0.882000
-0.002658 -0.041715 0.890000
0.034325 0.003236 0.862000
0.028615 0.031936 0.861000
-0.015236 -0.015821 0.876000
-0.037528 -0.005408 0.883000
-0.006967 0.006917 0.879000
-0.026202 -0.000682 0.881000
-0.019159 -0.039886 0.874000
0.041679 0.016325 0.860000
0.017792 0.020072 0.869000
-0.005117 -0.022568 0.872000
0.004568 -0.010353 0.871000
0.003138 0.032344 0.872000
-0.006967 0.007279 0.879000
0.036766 0.002877 0.861000
0.040617 0.013139 0.860000
-0.010537 -0.013642 0.875000
0.037341 0.024300 0.842000
0.003882 -0.032118 0.878000
0.023078 0.007528 0.866000
0.023818 0.035727 0.867000
0.017495 0.027319 0.872000
0.008492 -0.008899 0.869000
0.012829 0.004350 0.872000
0.019581 0.039744 0.869000
-0.010947 0.002938 0.879000
0.013188 0.007221 0.872000
-0.019630 0.008003 0.879000
-0.012712 -0.010052 0.876000
-0.010142 -0.031181 0.872000
-0.041440 -0.031323 0.866000
0.014914 -0.000672 0.868000
-0.038488 -0.028932 0.880000
0.029104 0.013215 0.865000
-0.028079 -0.031574 0.883000
-0.021077 -0.004298 0.879000
0.014965 0.038401 0.871000
0.013906 0.038804 0.872000
-0.005862 -0.008970 0.876000
0.020701 0.024062 0.871000
0.008483 -0.016034 0.868000
-0.009929 -0.044759 0.885000
-0.002243 -0.018957 0.871000
0.007813 -0.002472 0.873000
0.033415 -0.006017 0.866000
0.012097 0.028722 0.871000
-0.004068 0.009800 0.878000
-0.013763 -0.026576 0.874000
0.011393 0.033062 0.872000
-0.000450 -0.019293 0.870000
0.016399 0.029439 0.871000
0.020296 0.031875 0.869000
0.019626 -0.017881 0.871000
0.017435 0.019714 0.869000
-0.039078 0.000765 0.877000
0.026378 -0.017724 0.881000
-0.013043 -0.021900 0.874000
-0.010935 -0.006100 0.878000
-0.041937 -0.017784 0.884000
-0.018142 -0.017644 0.877000
-0.030225 -0.005765 0.882000
-0.040390 -0.007217 0.882000
-0.023556 -0.032443 0.877000
-0.011244 -0.017583 0.874000
-0.042665 -0.016693 0.884000
0.039027 0.022887 0.841000
-0.022087 -0.033848 0.876000
-0.042804 -0.026515 0.872000
0.002782 -0.030139 0.873000
-0.009805 -0.037728 0.874000
-0.002981 -0.036052 0.877000
-0.039968 0.006451 0.865000
-0.010885 -0.020461 0.874000
-0.029103 -0.004308 0.881000
0.012456 0.009722 0.871000
-0.004753 -0.028636 0.871000
-0.040436 -0.022489 0.883000
0.021652 -0.012076 0.866000
0.003145 0.020547 0.874000
0.000266 -0.022158 0.870000
0.002426 0.029181 0.874000
-0.029862 -0.003587 0.882000
0.039647 0.019556 0.862000
0.014879 -0.014214 0.866000
0.022669 -0.004580 0.864000
0.039955 0.014572 0.861000
0.009240 0.029473 0.872000
0.003149 0.019490 0.875000
0.017394 0.000400 0.867000
-0.008443 -0.042066 0.882000
0.010651 -0.004970 0.870000
-0.033379 -0.034326 0.879000
0.028490 -0.010317 0.868000
0.006735 -0.003909 0.873000
0.011406 0.009385 0.873000
0.031486 -0.001022 0.862000
0.012814 0.027647 0.871000
0.037215 -0.010098 0.880000
0.016004 -0.018913 0.869000
-0.042883 -0.022438 0.881000
0.016681 0.000757 0.867000
-0.000094 -0.038246 0.886000
-0.017380 0.015529 0.875000
-0.013043 -0.027655 0.874000
0.014248 0.006496 0.871000
0.044516 0.000757 0.867000
-0.015561 -0.038807 0.874000
-0.011296 0.013414 0.878000
0.024774 0.036983 0.863000
0.002054 -0.022132 0.869000
0.024645 -0.014655 0.871000
0.005637 -0.010699 0.870000
0.032944 0.011764 0.863000
-0.037165 -0.010859 0.883000
-0.015202 -0.038447 0.874000
0.003131 0.034418 0.870000
0.032233 -0.001733 0.863000
-0.028346 -0.018066 0.880000
0.002068 -0.031649 0.875000
