-0.035718 0.002511 0.857000
-0.016222 0.016874 0.852000
0.009511 -0.031606 0.864000
0.002757 -0.029863 0.865000
-0.005300 0.044158 0.844000
-0.030887 0.002520 0.860000
-0.005325 0.047858 0.848000
-0.021679 0.035906 0.846000
-0.037569 0.008528 0.859000
-0.037878 0.017346 0.858000
0.004526 -0.041160 0.863000
-0.010429 -0.031323 0.866000
-0.031169 0.012755 0.858000
0.018736 0.011546 0.847000
-0.032805 0.033779 0.828000
-0.023697 0.018715 0.856000
-0.014993 -0.007763 0.862000
-0.027029 0.028379 0.850000
0.037083 -0.020647 0.852000
-0.005313 0.045656 0.846000
-0.037307 0.023213 0.853000
-0.003292 -0.023072 0.864000
0.000606 0.033042 0.844000
0.037433 -0.020297 0.852000
0.030348 0.002141 0.850000
0.017711 0.017493 0.848000
-0.018849 0.041032 0.844000
-0.028496 0.024589 0.852000
0.018736 0.009803 0.847000
0.036424 -0.036470 0.853000
-0.001824 0.034738 0.843000
-0.024049 0.012726 0.856000
0.000606 0.026790 0.844000
0.007598 0.031491 0.849000
0.020297 -0.014720 0.854000
-0.018698 0.021107 0.853000
0.033420 -0.030292 0.857000
-0.028496 0.024238 0.852000
0.025159 -0.012933 0.852000
0.046824 -0.012656 0.857000
0.006596 0.001098 0.855000
-0.030851 0.001103 0.859000
-0.017294 0.023916 0.853000
0.004453 0.012622 0.849000
0.009134 -0.024792 0.862000
-0.015393 0.034125 0.845000
-0.019868 0.005693 0.858000
0.029963 -0.001356 0.849000
-0.031875 0.012402 0.858000
0.031361 -0.003103 0.849000
0.015130 0.031899 0.860000
0.005612 -0.034174 0.866000
-0.014993 -0.010956 0.862000
0.034896 -0.038091 0.850000
0.009855 -0.040450 0.863000
0.010946 -0.034847 0.865000
0.030951 -0.028528 0.857000
-0.041471 0.020381 0.852000
0.042794 -0.010151 0.854000
0.003385 0.030611 0.844000
0.000966 0.046900 0.856000
0.025450 0.009138 0.850000
0.031785 0.001793 0.851000
-0.021730 0.031803 0.848000
-0.023032 0.043530 0.832000
-0.042470 0.008871 0.858000
-0.015045 0.035168 0.845000
-0.021032 0.030756 0.848000
-0.006158 -0.043849 0.867000
-0.011567 0.030995 0.845000
0.009866 -0.031962 0.864000
-0.042222 0.017596 0.853000
0.005816 0.024705 0.844000
0.021900 0.010163 0.848000
0.001328 -0.016632 0.862000
-0.010393 -0.007416 0.863000
0.017274 -0.027953 0.861000
0.018736 0.009106 0.847000
0.006259 0.040606 0.857000
-0.002882 0.018889 0.848000
-0.014854 0.011290 0.854000
0.014862 -0.041255 0.865000
0.013407 -0.029794 0.863000
0.013856 0.009106 0.847000
-0.012154 -0.012020 0.862000
-0.002171 0.030921 0.843000
0.011550 0.033551 0.857000
0.003750 0.014701 0.848000
-0.000797 -0.038803 0.858000
0.018583 -0.016516 0.856000
0.010832 -0.002776 0.856000
0.002345 0.023343 0.845000
-0.003639 -0.017342 0.862000
0.031748 -0.012203 0.850000
-0.035053 0.004633 0.858000
0.033966 0.000744 0.853000
0.010946 -0.035559 0.865000
0.030670 -0.033545 0.859000
-0.004253 0.032656 0.843000
-0.021684 -0.001373 0.860000
-0.005668 0.021656 0.847000
0.005225 -0.013778 0.861000
0.022642 -0.040805 0.863000
0.010705 0.013970 0.846000
0.002404 -0.032036 0.866000
-0.005401 -0.032522 0.860000
0.013507 0.021656 0.847000
-0.010272 -0.033310 0.853000
0.018692 -0.024055 0.861000
-0.003212 0.032309 0.843000
0.012112 0.023399 0.847000
-0.027637 0.008871 0.858000
-0.014283 -0.003150 0.862000
-0.004258 0.029569 0.844000
0.004532 -0.028761 0.864000
-0.042371 0.009907 0.856000
-0.000089 0.037255 0.845000
0.005243 -0.028761 0.864000
0.011496 0.001446 0.853000
-0.027508 0.022186 0.854000
-0.014621 -0.013424 0.861000
-0.001516 -0.030931 0.865000
-0.027762 0.028413 0.851000
-0.035801 0.011002 0.859000
-0.009469 0.033737 0.844000
-0.018698 0.019351 0.853000
0.018388 0.012592 0.847000
0.016565 -0.022283 0.861000
0.020062 -0.019049 0.859000
-0.008261 -0.020203 0.863000
-0.029163 0.028413 0.851000
-0.003925 0.044664 0.847000
0.007562 0.025430 0.845000
-0.001141 0.014052 0.851000
0.016267 -0.036940 0.864000
-0.023019 0.007450 0.857000
0.028482 0.011682 0.857000
-0.011090 -0.012020 0.862000
0.022287 -0.042226 0.863000
0.010151 -0.017614 0.858000
0.000618 -0.014504 0.862000
-0.009559 0.015121 0.852000
-0.004258 0.030958 0.844000
0.027932 0.007047 0.851000
-0.002868 0.029221 0.844000
0.005122 0.022968 0.844000
-0.008137 -0.038091 0.850000
0.003457 -0.022664 0.862000
-0.025607 0.000397 0.861000
-0.024898 0.000043 0.861000
-0.033186 0.033479 0.829000
-0.021935 0.009555 0.856000
0.039027 0.004310 0.864000
0.027231 -0.011166 0.851000
-0.003235 0.017164 0.849000
-0.013574 -0.010956 0.862000
0.021277 0.015804 0.851000
0.009997 0.018474 0.845000
-0.014434 0.023831 0.850000
0.023109 -0.015072 0.854000
0.004171 -0.027307 0.863000
-0.029863 0.028063 0.851000
-0.011800 -0.004570 0.862000
-0.025841 0.009566 0.857000
0.009165 -0.038763 0.865000
0.006303 -0.026597 0.863000
-0.005064 -0.030504 0.863000
0.029858 -0.024972 0.856000
0.029963 -0.001705 0.849000
-0.011272 0.021357 0.849000
0.033108 -0.003802 0.849000
-0.025841 0.011682 0.857000
-0.029334 0.019420 0.856000
0.014322 -0.009097 0.854000
0.024983 0.016640 0.858000
0.006997 -0.022992 0.861000
-0.010380 -0.009537 0.862000
0.015183 -0.025176 0.863000
-0.002868 0.029916 0.844000
-0.011800 -0.009182 0.862000
0.005482 0.017452 0.846000
-0.011026 0.009566 0.857000
0.013619 -0.002770 0.854000
0.032324 -0.025677 0.856000
-0.003639 -0.009537 0.862000
0.006867 0.025430 0.845000
-0.011999 0.017905 0.851000
-0.007154 -0.032799 0.858000
0.033497 -0.011153 0.850000
0.021197 -0.036500 0.862000
0.012638 0.034337 0.859000
-0.020291 -0.005627 0.861000
-0.013542 -0.015886 0.860000
0.025390 -0.044284 0.848000
0.020828 0.010152 0.847000
-0.019560 -0.000665 0.860000
-0.014451 0.019656 0.851000
0.038582 0.001107 0.862000
0.007300 0.002506 0.855000
-0.018457 0.046480 0.842000
0.033147 -0.003107 0.850000
0.004443 0.016426 0.847000
-0.003999 -0.012744 0.863000
0.027295 -0.041736 0.853000
0.042343 -0.012933 0.852000
-0.033950 0.032191 0.831000
0.012667 -0.022992 0.861000
0.028532 0.000391 0.848000
0.011550 -0.009129 0.857000
-0.026224 0.008871 0.858000
0.003116 -0.033818 0.866000
0.013174 0.023077 0.848000
0.037345 -0.016051 0.850000
0.023645 0.004230 0.848000
0.029471 -0.022480 0.855000
-0.014958 0.004644 0.860000
0.038791 -0.009765 0.851000
-0.027347 0.031840 0.849000
0.034855 -0.007995 0.849000
0.004490 0.040911 0.856000
0.028063 -0.040778 0.855000
0.001302 0.034820 0.845000
0.031361 -0.002754 0.849000
-0.028711 0.034595 0.848000
0.033067 -0.030645 0.857000
-0.009525 0.020309 0.849000
0.000263 -0.041323 0.859000
0.040048 0.001463 0.863000
0.006527 0.029987 0.846000
0.030175 -0.039371 0.855000
0.013174 0.005975 0.848000
0.001995 0.032695 0.844000
0.025934 -0.045064 0.843000
-0.007020 0.038509 0.842000
-0.009446 0.038855 0.842000
0.011903 -0.016888 0.857000
0.012825 0.007371 0.848000
0.029823 -0.023183 0.855000
-0.015778 0.029325 0.847000
0.036595 -0.032761 0.857000
0.022485 0.019089 0.857000
0.037039 -0.005212 0.851000
-0.010417 -0.039831 0.865000
-0.029478 0.029779 0.850000
0.026211 -0.042739 0.852000
0.020133 0.027006 0.862000
0.037961 0.001109 0.864000
0.025396 -0.033230 0.860000
0.007334 -0.010918 0.859000
0.014811 -0.045015 0.862000
0.035847 -0.034484 0.856000
0.011171 -0.001365 0.855000
0.006997 -0.023346 0.861000
-0.024402 0.019420 0.856000
0.028801 -0.024620 0.856000
-0.001152 -0.038141 0.859000
0.024305 -0.030363 0.859000
-0.017933 0.028030 0.850000
-0.012154 -0.004924 0.862000
-0.004720 -0.024167 0.865000
0.003750 0.035642 0.848000
0.026012 -0.023943 0.857000
-0.001131 0.027832 0.844000
0.008004 0.001802 0.855000
-0.032896 0.015210 0.857000
-0.010308 0.010964 0.856000
-0.022418 -0.005273 0.861000
-0.006848 -0.023072 0.864000
0.007377 -0.030539 0.864000
-0.007455 -0.036778 0.852000
0.003829 -0.034531 0.866000
-0.001482 0.022675 0.846000
-0.022366 -0.009857 0.859000
0.027647 0.009170 0.853000
-0.021884 0.016562 0.854000
0.014085 -0.022637 0.861000
0.018670 -0.021195 0.860000
0.015250 0.009454 0.847000
0.026181 0.009149 0.851000
-0.009956 0.010964 0.856000
-0.005775 -0.018783 0.863000
0.023757 -0.009426 0.852000
0.027134 0.015245 0.859000
-0.025617 0.041907 0.827000
0.008041 -0.018342 0.859000
-0.012098 0.005693 0.858000
-0.006342 0.031653 0.844000
-0.014101 0.018255 0.851000
-0.022012 -0.010210 0.859000
-0.027696 0.031491 0.849000
-0.023697 0.012021 0.856000
-0.018804 0.043707 0.842000
-0.020358 0.029394 0.849000
0.035246 -0.007655 0.850000
-0.010698 -0.019756 0.859000
-0.004704 -0.007053 0.862000
0.026811 0.016325 0.860000
0.022184 -0.020463 0.859000
0.000969 0.048422 0.858000
-0.007897 -0.003860 0.862000
-0.026206 0.037995 0.846000
0.030670 -0.034959 0.859000
0.004842 0.040206 0.856000
-0.007367 0.036083 0.842000
-0.021884 0.022889 0.854000
0.001302 0.022996 0.845000
0.031785 -0.014318 0.851000
0.012141 0.005982 0.849000
-0.000440 0.043824 0.851000
0.000259 0.022326 0.846000
-0.013290 0.036169 0.844000
0.003098 -0.010943 0.861000
-0.024049 0.013783 0.856000
0.021502 -0.044203 0.860000
0.009786 -0.004543 0.857000
0.023028 -0.045141 0.851000
0.014117 -0.030859 0.863000
0.018935 0.022943 0.856000
0.004526 -0.026597 0.863000
-0.002940 -0.028439 0.865000
-0.012219 0.041974 0.842000
0.037389 -0.017821 0.851000
0.039095 -0.013252 0.850000
0.023082 -0.012597 0.853000
-0.024288 0.024238 0.852000
-0.009968 0.009213 0.857000
0.001328 -0.011665 0.862000
0.010705 0.024067 0.846000
0.013491 0.016755 0.846000
0.021977 -0.005912 0.851000
0.022380 0.016192 0.853000
-0.008909 0.007450 0.857000
0.033655 0.002151 0.854000
0.004526 -0.025176 0.863000
-0.011800 -0.008117 0.862000
0.031377 0.009235 0.859000
0.036200 -0.034132 0.856000
-0.025191 0.036646 0.847000
-0.022965 0.014470 0.855000
0.016821 -0.017221 0.856000
0.004128 0.005315 0.854000
-0.026361 0.026661 0.851000
-0.014802 0.023509 0.851000
0.018060 0.004579 0.848000
-0.024133 0.003224 0.859000
0.034912 0.004992 0.859000
-0.007376 0.045841 0.843000
0.032715 -0.029939 0.857000
0.005495 0.033897 0.848000
-0.021156 0.024618 0.853000
0.027998 -0.016810 0.853000
0.000973 -0.020180 0.862000
-0.017870 0.032114 0.847000
-0.021633 0.004986 0.858000
-0.002933 -0.013100 0.863000
0.006310 -0.039785 0.864000
-0.029368 -0.002427 0.857000
-0.005070 -0.029473 0.864000
-0.030887 0.003582 0.860000
0.022029 -0.011192 0.853000
-0.032474 0.028942 0.846000
0.034165 -0.033506 0.858000
-0.002584 -0.027015 0.865000
0.005573 -0.007037 0.860000
0.003803 -0.017656 0.860000
-0.024989 0.024939 0.852000
0.025396 -0.041725 0.860000
0.004079 0.024011 0.844000
0.027637 -0.043970 0.842000
0.020528 0.000391 0.849000
0.022920 0.005968 0.847000
-0.023317 0.021860 0.855000
-0.021107 0.026311 0.851000
-0.017645 0.015139 0.853000
0.026562 0.009510 0.852000
0.028915 -0.004501 0.849000
0.014828 -0.030859 0.863000
-0.001138 0.043372 0.849000
0.041642 -0.011179 0.852000
-0.011286 0.018584 0.850000
0.029017 -0.013634 0.852000
-0.032115 0.019749 0.855000
0.001300 0.027832 0.844000
-0.020878 0.009202 0.856000
0.027906 -0.036458 0.861000
-0.002223 -0.020914 0.863000
0.029003 0.015298 0.862000
-0.011581 0.028594 0.846000
-0.011129 -0.023454 0.865000
0.046770 -0.014050 0.856000
0.002373 0.006025 0.855000
-0.031801 0.017658 0.856000
0.005237 -0.026597 0.863000
0.018004 -0.044305 0.862000
0.026437 0.003881 0.848000
-0.022693 -0.009492 0.858000
-0.032512 0.028279 0.847000
0.029333 0.004946 0.851000
0.029402 -0.017161 0.853000
0.000956 0.038389 0.847000
0.031656 0.007097 0.857000
0.042641 -0.005961 0.858000
0.033615 -0.020320 0.853000
-0.041871 0.018298 0.853000
0.031377 0.009942 0.859000
-0.016412 -0.001731 0.862000
0.025071 -0.041419 0.861000
0.040192 -0.019222 0.851000
0.020877 0.000042 0.849000
-0.022992 0.012021 0.856000
0.021000 0.018320 0.854000
0.004786 0.018496 0.846000
-0.003563 0.029221 0.844000
-0.005688 -0.041240 0.850000
-0.042975 0.014805 0.854000
-0.043326 0.016562 0.854000
-0.027093 0.024589 0.852000
0.010492 -0.005249 0.857000
0.015268 0.020285 0.848000
-0.019497 0.044400 0.842000
0.014489 -0.026272 0.864000
-0.010224 0.020309 0.849000
0.030562 -0.026029 0.856000
0.020109 -0.032560 0.861000
0.008748 -0.011271 0.859000
0.020877 0.014369 0.849000
0.023326 -0.037564 0.862000
-0.032124 0.034801 0.828000
-0.004709 -0.031215 0.863000
0.031619 -0.027791 0.856000
0.012446 0.013273 0.846000
-0.005294 0.032656 0.843000
0.024035 -0.041822 0.862000
0.027102 -0.028209 0.858000
0.029299 -0.010453 0.850000
-0.012084 0.008860 0.857000
-0.010611 -0.033622 0.852000
-0.001144 0.012330 0.853000
0.012127 0.007720 0.848000
-0.025577 0.003582 0.860000
-0.042975 0.016914 0.854000
-0.003597 -0.040986 0.852000
-0.003559 0.037167 0.843000
0.023598 -0.029302 0.859000
-0.011259 0.022728 0.848000
0.014472 -0.025176 0.863000
-0.030006 0.036077 0.826000
-0.007759 0.024445 0.847000
0.015130 -0.021903 0.860000
-0.012509 -0.008117 0.862000
0.039095 -0.011503 0.850000
-0.008888 0.012007 0.855000
-0.038232 0.016640 0.858000
0.024343 -0.001703 0.848000
0.008365 -0.000662 0.856000
0.028767 0.009544 0.855000
0.003816 0.003595 0.863000
0.011792 0.005633 0.849000
-0.007897 -0.005634 0.862000
-0.012154 -0.013794 0.862000
0.029085 0.008126 0.854000
0.014989 0.024939 0.852000
0.010222 -0.029117 0.864000
0.011889 -0.004538 0.856000
-0.013448 0.011290 0.854000
-0.037215 0.007113 0.859000
-0.022402 0.035600 0.847000
0.017816 0.021809 0.853000
-0.010871 0.032734 0.845000
0.018388 0.011546 0.847000
-0.007533 -0.004919 0.861000
-0.018283 0.027680 0.850000
0.000974 -0.023400 0.863000
-0.025841 0.014504 0.857000
0.019198 -0.008023 0.852000
0.007249 0.032190 0.849000
0.024429 -0.007664 0.851000
-0.007906 -0.026952 0.863000
-0.018852 -0.010576 0.860000
0.004089 0.017452 0.846000
-0.022392 -0.001019 0.860000
0.010345 0.020909 0.845000
-0.009100 0.040588 0.842000
-0.028663 0.015210 0.857000
0.010345 0.020213 0.845000
-0.022375 0.037647 0.846000
0.011972 -0.041822 0.862000
-0.018830 -0.013392 0.859000
-0.028153 -0.005640 0.863000
-0.001844 0.046681 0.852000
0.028949 0.004590 0.850000
-0.004649 -0.039583 0.852000
0.027452 -0.042837 0.847000
-0.009671 -0.002086 0.862000
0.010139 -0.014067 0.857000
-0.020622 -0.000311 0.860000
0.023598 -0.043091 0.859000
-0.013020 0.023454 0.849000
-0.012509 -0.010601 0.862000
-0.000437 0.025082 0.845000
-0.035801 0.006053 0.859000
-0.031801 0.017306 0.856000
-0.017152 0.033469 0.846000
-0.005382 -0.035230 0.857000
-0.000446 -0.016632 0.862000
-0.014298 0.042321 0.842000
0.006171 0.027169 0.845000
-0.024870 0.001458 0.860000
-0.019514 0.005693 0.858000
-0.004988 0.015785 0.850000
-0.004359 -0.022716 0.864000
-0.001867 -0.034056 0.863000
-0.003223 0.024067 0.846000
-0.003929 0.018191 0.848000
-0.010002 -0.020841 0.860000
-0.037129 0.003922 0.857000
0.038937 0.001816 0.862000
-0.007498 -0.032761 0.857000
0.002731 0.045191 0.857000
-0.026966 0.035991 0.848000
0.013778 -0.026272 0.864000
0.008718 -0.001367 0.856000
0.012213 -0.000309 0.854000
0.021123 -0.028241 0.859000
0.037873 -0.003824 0.854000
0.011223 -0.019403 0.859000
-0.010236 -0.037391 0.850000
-0.002578 -0.011679 0.863000
-0.040704 0.012402 0.858000
-0.013259 0.040588 0.842000
-0.034781 0.009599 0.860000
0.016604 -0.035477 0.863000
0.005579 -0.021929 0.861000
-0.007769 0.020983 0.848000
0.023924 -0.024324 0.858000
0.008434 -0.040450 0.863000
0.032676 0.005327 0.856000
-0.023181 0.026980 0.850000
0.013794 -0.038051 0.865000
0.010553 -0.041467 0.862000
-0.003597 0.014419 0.852000
-0.040351 0.014874 0.858000
0.032600 -0.022453 0.854000
0.020625 0.017947 0.853000
0.007029 -0.032711 0.865000
-0.000800 -0.036812 0.861000
0.022758 -0.014720 0.854000
0.001667 0.008829 0.854000
0.001300 0.031653 0.844000
0.029333 -0.010816 0.851000
-0.038540 0.006391 0.857000
0.022731 0.015490 0.853000
0.012014 -0.035915 0.865000
0.005954 -0.029473 0.864000
0.001665 0.010223 0.853000
0.022132 0.019442 0.857000
0.010174 -0.022611 0.860000
-0.024870 -0.004205 0.860000
0.014622 0.000042 0.851000
-0.019050 0.021107 0.853000
-0.016963 0.011290 0.854000
-0.022481 0.027680 0.850000
-0.019891 0.003931 0.859000
-0.001486 0.016795 0.848000
-0.015063 0.031380 0.846000
0.034197 -0.012902 0.850000
0.008088 -0.031251 0.864000
0.017485 -0.011206 0.854000
-0.029756 -0.003136 0.858000
0.015165 -0.043951 0.862000
0.021222 -0.039029 0.863000
0.003425 0.006369 0.854000
-0.018720 0.012344 0.854000
0.017526 -0.016869 0.856000
0.026562 0.009159 0.852000
-0.029721 0.014151 0.857000
0.013666 -0.015830 0.857000
-0.002872 0.027169 0.845000
0.002040 -0.023755 0.863000
-0.009251 0.010612 0.856000
-0.017811 -0.004210 0.861000
-0.014819 0.017225 0.852000
0.024688 -0.031814 0.860000
-0.010026 -0.028340 0.862000
-0.017806 0.038600 0.844000
-0.034890 0.023592 0.854000
0.036996 -0.014651 0.850000
0.039491 -0.017821 0.851000
0.004123 0.008468 0.853000
-0.026547 0.014857 0.857000
0.021123 -0.019403 0.859000
-0.024049 0.020124 0.856000
0.013067 -0.025561 0.864000
-0.014283 -0.009182 0.862000
0.019400 -0.022283 0.861000
-0.020478 0.015156 0.854000
-0.008826 0.020309 0.849000
0.026043 0.015580 0.858000
-0.024049 0.013430 0.856000
0.005954 -0.041919 0.864000
-0.005325 0.020285 0.848000
-0.012126 -0.020133 0.860000
0.011778 0.008418 0.848000
-0.025841 0.016620 0.857000
-0.042922 0.009245 0.860000
0.027551 -0.036812 0.861000
-0.010014 -0.028662 0.861000
0.008414 -0.024055 0.861000
0.015947 0.009106 0.847000
0.022731 0.015841 0.853000
0.026088 0.000042 0.848000
0.009102 -0.019049 0.859000
0.028249 -0.009404 0.850000
0.035329 -0.019946 0.852000
-0.013204 -0.000312 0.861000
0.015875 -0.030469 0.862000
0.030562 -0.026734 0.856000
0.029264 -0.001705 0.849000
0.012795 0.011532 0.846000
-0.008185 -0.034092 0.855000
0.004542 -0.034887 0.866000
0.003457 -0.013794 0.862000
0.027165 -0.040309 0.860000
-0.000441 0.045682 0.853000
-0.007196 -0.018072 0.863000
-0.020574 0.006046 0.858000
-0.010486 0.039895 0.842000
-0.008606 -0.003150 0.862000
0.024954 -0.020063 0.857000
-0.004278 0.018540 0.848000
-0.020829 0.014102 0.854000
0.011750 0.020934 0.846000
-0.017102 -0.004919 0.861000
0.007249 0.010175 0.849000
-0.027762 0.027012 0.851000
0.027841 -0.030716 0.859000
0.022261 -0.037210 0.862000
0.002760 -0.033105 0.866000
0.030987 -0.032093 0.858000
0.038851 0.000043 0.868000
0.012284 -0.021170 0.859000
-0.009660 -0.024763 0.861000
0.038791 -0.018171 0.851000
-0.015684 -0.012715 0.861000
0.008964 0.025808 0.846000
0.036381 -0.019595 0.852000
0.044108 -0.001027 0.866000
0.041943 -0.016420 0.851000
0.028227 -0.035354 0.860000
-0.019775 0.023241 0.854000
0.029255 -0.038494 0.859000
0.003421 0.009521 0.853000
0.008395 0.039286 0.859000
-0.004278 0.018889 0.848000
-0.015890 0.013032 0.853000
0.021025 -0.015441 0.855000
-0.005407 -0.031851 0.861000
0.032676 0.004975 0.856000
0.010357 0.023023 0.846000
0.019024 -0.028628 0.860000
-0.016631 0.010951 0.855000
-0.009143 0.028942 0.846000
0.007029 -0.034135 0.865000
-0.023752 -0.007374 0.858000
0.038090 -0.006613 0.851000
0.016546 0.030129 0.860000
0.006310 -0.029117 0.864000
0.001689 -0.036271 0.865000
0.002005 0.014701 0.848000
-0.033907 0.027931 0.847000
0.011053 0.014318 0.846000
0.002038 -0.038984 0.862000
0.027744 0.011669 0.856000
0.007021 -0.039430 0.864000
0.044850 -0.014352 0.853000
-0.025194 -0.007736 0.859000
-0.005768 -0.030824 0.862000
0.033847 -0.012203 0.850000
0.034937 -0.015019 0.851000
0.023351 -0.005905 0.850000
-0.000443 0.049424 0.857000
-0.017811 -0.001729 0.861000
-0.026966 0.035293 0.848000
-0.037964 0.022835 0.852000
-0.033445 0.024618 0.853000
-0.008487 -0.037391 0.850000
0.026365 -0.024296 0.857000
0.013872 0.006324 0.848000
0.033186 -0.014669 0.851000
0.036775 -0.036470 0.853000
0.039445 -0.013252 0.850000
-0.023697 0.016953 0.856000
0.021477 -0.023999 0.859000
-0.025871 -0.004548 0.858000
-0.003999 -0.014520 0.863000
-0.004354 -0.010613 0.863000
0.004479 0.004963 0.854000
0.042140 -0.008052 0.855000
0.020818 -0.032914 0.861000
0.042189 -0.007709 0.856000
0.013314 -0.017947 0.857000
-0.013219 -0.003150 0.862000
0.010844 -0.011598 0.857000
-0.014638 -0.004570 0.862000
-0.011051 0.005346 0.859000
0.008385 -0.016908 0.858000
0.008336 0.034799 0.853000
0.005488 0.016078 0.847000
0.003772 0.009521 0.853000
0.038316 0.004666 0.864000
0.019806 0.014352 0.848000
-0.018369 0.012696 0.854000
0.007741 -0.037695 0.865000
0.009323 0.013638 0.847000
0.037784 -0.020297 0.852000
-0.008606 -0.012020 0.862000
0.019024 -0.020133 0.860000
-0.008899 0.009907 0.856000
-0.019844 0.006744 0.857000
0.000973 -0.017342 0.862000
-0.005413 -0.008117 0.862000
0.007394 -0.035957 0.866000
-0.023881 0.027680 0.850000
-0.028055 0.002166 0.860000
0.000616 -0.040568 0.858000
-0.016923 0.025290 0.852000
0.008258 0.020909 0.845000
0.006519 0.021952 0.845000
0.035661 0.004644 0.860000
0.027199 0.005989 0.850000
0.015113 0.031155 0.859000
0.035596 -0.011853 0.850000
-0.006342 0.031305 0.844000
0.015218 -0.040899 0.865000
-0.006387 -0.039840 0.850000
0.020273 0.018298 0.853000
-0.015152 0.025961 0.851000
-0.005413 -0.008827 0.862000
-0.008567 -0.031387 0.858000
-0.015081 0.030371 0.847000
-0.005017 -0.037259 0.855000
0.013634 -0.008755 0.855000
0.013839 0.018148 0.846000
0.006964 0.039900 0.857000
0.034979 -0.017491 0.852000
0.022571 0.005968 0.847000
0.008809 -0.034847 0.865000
0.044812 -0.007736 0.859000
-0.018347 0.020756 0.853000
0.015007 -0.006628 0.853000
0.043548 -0.009811 0.855000
0.006303 -0.027307 0.863000
0.009060 0.034881 0.855000
-0.005011 0.012696 0.854000
0.010009 0.015362 0.846000
0.022616 -0.042531 0.862000
0.020202 -0.001707 0.850000
0.024362 -0.035395 0.861000
-0.011957 0.024473 0.848000
0.017114 -0.008033 0.853000
-0.008079 0.033042 0.844000
0.018958 -0.017947 0.857000
-0.023448 0.034554 0.847000
-0.032190 0.015562 0.857000
0.000621 -0.041611 0.865000
0.009049 0.001800 0.854000
-0.020268 0.001812 0.860000
-0.032973 0.009235 0.859000
0.026488 -0.035395 0.861000
-0.025161 0.038692 0.846000
0.028983 0.004946 0.851000
0.011764 0.011197 0.847000
-0.034107 0.032654 0.852000
0.003077 0.005321 0.855000
0.026150 -0.007655 0.850000
-0.028696 -0.002430 0.858000
0.030409 -0.041891 0.842000
0.014862 -0.040543 0.865000
0.002035 -0.019448 0.861000
-0.023614 0.024267 0.853000
0.016527 0.029387 0.859000
-0.040044 0.013831 0.859000
0.019378 0.026589 0.860000
-0.003643 -0.012389 0.863000
-0.034267 0.017658 0.856000
0.018209 -0.015090 0.855000
-0.026547 0.010977 0.857000
0.006867 0.021604 0.845000
0.012608 -0.015478 0.857000
0.010009 0.025112 0.846000
-0.027966 0.037777 0.826000
-0.003962 -0.037963 0.855000
-0.003643 -0.019848 0.863000
-0.034347 0.012402 0.858000
-0.012509 -0.006698 0.862000
0.046743 -0.008117 0.862000
0.000263 0.049893 0.859000
-0.005070 -0.029828 0.864000
-0.015703 0.040289 0.843000
-0.019560 0.000396 0.860000
-0.001157 -0.022335 0.863000
-0.008261 -0.019493 0.863000
-0.022063 -0.001729 0.861000
-0.001477 0.036126 0.843000
-0.008060 0.041628 0.842000
0.006658 -0.027663 0.863000
0.013856 0.010500 0.847000
-0.002865 0.037514 0.843000
0.006867 0.026821 0.845000
0.041036 -0.007339 0.854000
0.003457 -0.022309 0.862000
0.034506 -0.038396 0.849000
-0.009525 0.021008 0.849000
0.043701 -0.007374 0.858000
0.036996 -0.008004 0.850000
-0.002530 0.042921 0.847000
0.033381 0.003918 0.856000
-0.004941 0.037816 0.842000
0.007013 -0.028373 0.863000
-0.002228 -0.027727 0.865000
0.043599 -0.009118 0.856000
-0.015348 -0.003150 0.862000
-0.010884 0.027898 0.846000
0.011197 -0.013009 0.857000
-0.000091 -0.012730 0.862000
-0.025518 -0.006314 0.858000
-0.009491 0.028942 0.846000
-0.030723 0.034759 0.827000
0.015165 -0.044660 0.862000
-0.031132 0.013446 0.857000
0.020321 0.020453 0.855000
-0.006721 0.022030 0.848000
0.030987 -0.031740 0.858000
-0.015871 0.024589 0.852000
0.002390 -0.016967 0.861000
0.026104 -0.041017 0.860000
0.008004 0.001098 0.855000
0.002703 0.015748 0.848000
-0.000090 0.017144 0.848000
-0.029825 0.006060 0.860000
-0.014604 0.002166 0.860000
0.031121 -0.015037 0.852000
-0.022670 0.042074 0.844000
0.003781 0.041215 0.855000
-0.029050 -0.002076 0.858000
0.031377 -0.033898 0.859000
0.034937 -0.014669 0.851000
-0.033994 0.012402 0.858000
0.000971 -0.038893 0.860000
0.019434 0.009803 0.847000
0.023406 -0.011179 0.852000
0.027834 -0.001703 0.848000
0.026818 0.004934 0.849000
0.022974 -0.003452 0.849000
-0.015666 0.003936 0.860000
-0.017996 0.014436 0.853000
0.007938 0.030756 0.848000
-0.030144 0.009235 0.859000
0.029747 0.014961 0.863000
0.007037 -0.037382 0.866000
-0.026547 0.009919 0.857000
-0.007805 0.014419 0.852000
0.003073 0.008126 0.854000
-0.007428 0.019261 0.849000
0.026469 0.005283 0.849000
0.035946 -0.012902 0.850000
0.032513 0.009611 0.861000
0.004831 0.005315 0.854000
-0.005288 0.038162 0.842000
0.007688 0.040701 0.859000
-0.003639 -0.017697 0.862000
0.012461 0.009106 0.847000
-0.033365 0.006060 0.860000
-0.012509 -0.014504 0.862000
-0.025509 0.039040 0.846000
0.028183 -0.001354 0.848000
0.015183 -0.026597 0.863000
-0.017416 -0.013039 0.859000
-0.001826 0.027832 0.844000
-0.026896 0.038876 0.835000
0.002401 -0.036271 0.865000
0.008799 -0.031606 0.864000
0.044057 -0.001737 0.865000
0.023323 -0.002754 0.849000
-0.008252 -0.016277 0.862000
-0.019590 0.034862 0.846000
0.024487 -0.043843 0.853000
-0.005064 -0.018072 0.863000
0.002035 -0.011297 0.861000
-0.002536 0.044769 0.849000
-0.033249 0.001453 0.857000
0.023433 -0.012597 0.853000
-0.034498 0.025320 0.853000
-0.028343 -0.002076 0.858000
0.029683 -0.011867 0.851000
0.036467 -0.035810 0.854000
0.034547 -0.013602 0.850000
0.005182 0.005666 0.854000
-0.006380 0.017164 0.849000
0.000259 0.021282 0.846000
-0.016572 0.024238 0.852000
-0.008070 0.035432 0.843000
-0.034427 0.007830 0.860000
0.024362 -0.035749 0.861000
0.020926 -0.005912 0.851000
0.011106 0.028030 0.850000
0.007741 -0.033779 0.865000
-0.001477 0.032656 0.843000
-0.031154 0.029709 0.848000
0.000265 0.007519 0.865000
-0.006761 -0.037172 0.853000
-0.012834 0.002874 0.860000
0.002699 0.018170 0.847000
-0.009671 -0.010956 0.862000
-0.033954 0.002864 0.857000
-0.010212 0.023426 0.848000
-0.018132 0.046188 0.843000
0.026593 -0.015405 0.853000
-0.011090 -0.010956 0.862000
-0.029756 0.009577 0.858000
-0.003559 0.036820 0.843000
-0.005294 0.034044 0.843000
0.016900 0.029067 0.860000
-0.002176 0.025082 0.845000
-0.029231 0.022862 0.853000
-0.030878 0.028729 0.850000
-0.010648 0.012007 0.855000
-0.001146 0.048253 0.855000
-0.018390 0.010599 0.855000
-0.023454 -0.005621 0.860000
0.027231 0.007748 0.851000
0.032098 -0.011503 0.850000
0.000264 -0.023400 0.863000
0.005475 0.019866 0.845000
-0.016747 0.000397 0.861000
0.024573 -0.018630 0.856000
0.029540 -0.028176 0.857000
-0.014958 -0.014824 0.860000
0.004079 0.025400 0.844000
0.001328 -0.021954 0.862000
0.009706 0.006339 0.850000
0.025390 0.004230 0.848000
0.009060 0.001098 0.855000
0.034896 -0.005206 0.850000
0.009997 0.019170 0.845000
-0.021000 -0.005982 0.861000
0.028129 0.012035 0.857000
0.018409 0.016097 0.848000
0.008616 0.015362 0.846000
-0.024049 0.020829 0.856000
0.037083 -0.004166 0.852000
0.029614 -0.003103 0.849000
0.001685 -0.023400 0.863000
-0.006698 0.028212 0.845000
0.031934 -0.025295 0.855000
-0.007402 0.026505 0.846000
0.039325 -0.004181 0.855000
-0.015312 0.002874 0.860000
0.037345 -0.009054 0.850000
0.017403 -0.000658 0.850000
-0.023697 0.019772 0.856000
-0.016572 0.023186 0.852000
0.030316 -0.034959 0.859000
0.024954 -0.024648 0.857000
0.033576 -0.017141 0.852000
0.017114 -0.008384 0.853000
0.007688 -0.011625 0.859000
-0.024465 0.038692 0.846000
0.038745 -0.014651 0.850000
0.009997 0.017431 0.845000
0.007910 0.022648 0.845000
-0.009660 -0.020157 0.861000
0.004479 0.006018 0.854000
0.028315 -0.013985 0.852000
0.026281 -0.045411 0.843000
-0.005070 -0.022361 0.864000
0.017314 -0.043291 0.863000
0.000954 0.023691 0.845000
0.018337 -0.025827 0.861000
-0.005011 0.012344 0.854000
0.019479 0.001090 0.849000
-0.011745 0.007811 0.858000
-0.042371 0.010964 0.856000
0.001687 -0.036585 0.864000
0.011792 0.026249 0.849000
0.015250 0.009803 0.847000
0.029614 0.001789 0.849000
-0.021705 0.032811 0.847000
-0.032512 0.033152 0.838000
-0.019072 0.012696 0.854000
0.015394 -0.011571 0.855000
-0.004715 -0.030539 0.864000
0.019108 0.015399 0.848000
-0.012655 0.026218 0.848000
-0.021305 0.002164 0.859000
-0.014084 0.023132 0.850000
0.028581 -0.038185 0.860000
0.011093 0.006332 0.849000
0.000607 0.022326 0.846000
-0.016127 0.031068 0.847000
0.002693 0.034473 0.845000
-0.019820 0.045732 0.841000
-0.024842 0.034903 0.847000
-0.027729 0.029779 0.850000
0.005237 -0.041515 0.863000
-0.013066 0.015822 0.852000
-0.007507 -0.032093 0.858000
0.025277 0.014839 0.856000
0.018046 -0.039430 0.864000
0.006171 0.026474 0.845000
-0.010176 0.031343 0.845000
0.037695 -0.015001 0.850000
-0.020502 0.011655 0.855000
-0.029756 0.010283 0.858000
-0.001137 0.016446 0.848000
0.011171 -0.000310 0.855000
0.045837 -0.003873 0.865000
-0.022084 0.045062 0.835000
-0.017102 -0.010943 0.861000
0.022003 -0.008374 0.852000
-0.010026 -0.017342 0.862000
0.033458 -0.006248 0.849000
0.037389 -0.007313 0.851000
0.017334 -0.038718 0.864000
0.034156 -0.009043 0.849000
0.005482 0.016407 0.846000
0.021907 -0.036855 0.862000
-0.020244 0.003224 0.859000
-0.010536 0.029290 0.846000
-0.014836 0.014436 0.853000
0.029962 -0.034605 0.859000
-0.029791 0.008174 0.859000
0.001319 0.046195 0.856000
-0.021206 0.022212 0.855000
0.012593 -0.009470 0.856000
0.020697 -0.016516 0.856000
-0.031241 0.002520 0.860000
-0.015575 0.010951 0.855000
0.002696 0.035210 0.846000
-0.022261 0.022564 0.855000
0.004516 -0.013424 0.861000
-0.030887 0.005706 0.860000
0.002040 -0.037608 0.863000
0.010882 0.037208 0.860000
0.011750 0.020237 0.846000
-0.009816 0.032348 0.844000
-0.009327 -0.008127 0.863000
0.000974 -0.037253 0.863000
0.019333 -0.018674 0.858000
0.033186 -0.014318 0.851000
0.009323 0.012243 0.847000
-0.006380 0.018212 0.849000
-0.008847 0.015453 0.851000
-0.007129 0.010599 0.855000
0.016060 -0.008384 0.853000
0.025618 -0.046854 0.844000
0.023645 -0.000307 0.848000
0.028915 0.000042 0.849000
0.029857 -0.044528 0.846000
-0.029231 0.022511 0.853000
0.020086 -0.021549 0.860000
0.014101 -0.044660 0.862000
-0.017891 0.029360 0.848000
-0.034307 0.016620 0.857000
0.028949 -0.009054 0.850000
-0.014802 0.024560 0.851000
0.034478 -0.032056 0.857000
0.020273 -0.011895 0.853000
-0.008836 -0.039490 0.850000
-0.030179 0.002874 0.860000
-0.030815 0.010990 0.858000
0.038272 0.001108 0.863000
0.014954 0.001092 0.850000
0.010946 -0.036271 0.865000
0.020673 -0.015793 0.855000
-0.027315 0.035642 0.848000
-0.042723 0.011669 0.856000
0.003385 0.025747 0.844000
0.007679 -0.007020 0.858000
-0.012112 0.004992 0.859000
0.013905 0.002491 0.850000
0.026628 -0.045758 0.843000
-0.023558 0.025961 0.851000
-0.010685 0.006399 0.858000
-0.015152 0.020007 0.851000
-0.020334 0.031454 0.848000
0.008738 -0.007727 0.858000
-0.007787 -0.038091 0.850000
0.006237 0.004612 0.854000
0.011496 0.030235 0.853000
-0.025896 0.042707 0.836000
-0.015741 0.035168 0.845000
0.006557 0.008438 0.850000
0.004195 -0.042113 0.868000
0.043039 0.000399 0.866000
-0.002936 -0.022716 0.864000
0.005249 -0.038763 0.865000
-0.015557 0.012344 0.854000
-0.017416 0.005346 0.859000
0.005830 0.030335 0.846000
0.039279 -0.005582 0.854000
0.006915 0.034717 0.851000
0.011456 0.027330 0.850000
0.028216 0.001440 0.849000
-0.030708 0.020453 0.855000
-0.022992 0.011669 0.856000
0.015580 0.011184 0.846000
-0.023909 0.026661 0.851000
-0.018519 -0.000666 0.861000
-0.009100 0.042321 0.842000
0.043900 -0.010867 0.855000
0.004443 0.015381 0.847000
0.016642 -0.041255 0.865000
-0.016088 0.034473 0.845000
-0.012495 -0.001375 0.861000
-0.028376 0.006053 0.859000
0.000611 0.013017 0.852000
-0.010561 0.024124 0.848000
0.028063 0.010247 0.855000
-0.004278 0.018191 0.848000
-0.022831 0.027330 0.850000
-0.003906 0.038902 0.843000
0.016959 -0.035477 0.863000
0.021252 0.014735 0.850000
0.033108 -0.038396 0.849000
0.001314 0.010223 0.853000
0.032211 0.003202 0.853000
-0.034033 0.010295 0.859000
0.003106 -0.038674 0.863000
0.010009 0.014318 0.846000
-0.008252 -0.006698 0.862000
0.002395 -0.025531 0.863000
0.042994 -0.017471 0.851000
-0.009327 -0.010258 0.863000
-0.024031 0.041677 0.843000
0.038440 -0.007313 0.851000
-0.002542 0.014753 0.851000
-0.031277 -0.002438 0.861000
-0.009816 0.033390 0.844000
0.001310 0.040974 0.850000
0.029614 0.000391 0.849000
0.040711 0.000043 0.862000
-0.001872 -0.030219 0.865000
0.025660 -0.022532 0.857000
-0.018081 0.007802 0.857000
-0.030987 0.024267 0.853000
-0.006387 -0.041589 0.850000
0.023323 -0.048180 0.849000
0.010565 -0.026597 0.863000
0.027834 0.000042 0.848000
-0.024997 0.040644 0.829000
0.022642 -0.039739 0.863000
-0.031875 -0.001017 0.858000
0.013082 -0.038763 0.865000
-0.004008 -0.030219 0.865000
0.011040 0.017779 0.845000
-0.040722 0.021057 0.851000
-0.031595 0.003228 0.860000
-0.032282 0.033271 0.841000
0.010743 0.006332 0.849000
0.023326 -0.035791 0.862000
0.018025 -0.034411 0.863000
0.005188 0.003913 0.855000
-0.007732 0.031653 0.844000
-0.001157 -0.014520 0.863000
-0.017769 0.004992 0.859000
-0.019537 -0.012685 0.859000
-0.029197 0.025290 0.852000
-0.020268 0.000750 0.860000
0.011197 -0.011598 0.857000
0.040192 -0.010816 0.851000
-0.038053 0.022538 0.854000
-0.012625 0.029290 0.846000
0.034896 -0.011153 0.850000
-0.001833 0.020958 0.847000
0.045606 -0.013314 0.854000
0.034896 -0.005905 0.850000
-0.033562 0.018010 0.856000
0.019663 0.022969 0.857000
-0.024459 0.006046 0.858000
-0.015348 -0.010246 0.862000
-0.020244 -0.011625 0.859000
0.016762 -0.008384 0.853000
0.011944 -0.021903 0.860000
0.026687 0.013078 0.856000
-0.009805 0.036126 0.843000
0.007966 0.032966 0.851000
0.027647 -0.016459 0.853000
0.019479 0.000042 0.849000
-0.013020 0.023803 0.849000
0.016392 0.022485 0.852000
-0.003593 0.048377 0.851000
0.015580 0.013622 0.846000
0.006200 0.033238 0.849000
0.001331 -0.028050 0.864000
-0.039337 0.014891 0.859000
-0.009682 -0.008127 0.863000
0.021932 -0.042581 0.863000
-0.005432 -0.027727 0.865000
-0.020197 0.007097 0.857000
0.019755 -0.023700 0.861000
0.016939 -0.024083 0.862000
0.031139 -0.041941 0.843000
0.036904 -0.033780 0.856000
0.022433 0.017637 0.855000
0.022918 -0.031814 0.860000
-0.022105 0.029045 0.849000
0.033812 -0.033506 0.858000
-0.004288 -0.041939 0.850000
-0.037569 0.008881 0.859000
0.034896 -0.012902 0.850000
-0.002171 0.031268 0.843000
0.043044 -0.012582 0.852000
0.013872 0.007720 0.848000
-0.006478 -0.007408 0.862000
0.004479 0.005666 0.854000
-0.010897 0.025490 0.847000
-0.009446 0.041974 0.842000
-0.030462 0.009930 0.858000
-0.007020 0.040935 0.842000
-0.009851 0.025142 0.847000
0.001652 0.021282 0.846000
0.035764 -0.000661 0.854000
0.011402 0.022326 0.846000
-0.026639 0.002166 0.860000
-0.001841 0.014403 0.851000
0.024022 -0.001705 0.849000
0.023055 -0.010478 0.852000
0.021874 0.004574 0.847000
-0.005058 -0.008472 0.862000
0.004780 0.019866 0.845000
0.020504 0.001438 0.848000
0.005122 0.023316 0.844000
0.028482 -0.026765 0.857000
-0.008606 -0.015568 0.862000
0.017833 -0.046919 0.871000
-0.005641 0.043065 0.843000
0.012155 0.003540 0.850000
0.008975 0.012940 0.847000
-0.017764 0.045786 0.842000
-0.007204 -0.027695 0.864000
-0.006387 0.016835 0.850000
-0.033011 0.007122 0.860000
-0.014819 0.016173 0.852000
0.017383 0.001789 0.849000
0.009649 0.017083 0.845000
0.002722 0.042924 0.854000
0.000977 -0.035203 0.865000
0.005231 -0.025147 0.862000
-0.028663 0.015915 0.857000
-0.031875 0.011343 0.858000
-0.021156 0.024267 0.853000
0.008809 -0.038407 0.865000
-0.004947 0.039248 0.843000
-0.005058 0.009622 0.862000
0.015538 -0.026242 0.863000
-0.036083 0.024852 0.849000
-0.025488 0.015210 0.857000
0.035722 -0.001362 0.853000
0.033966 -0.020320 0.853000
0.018039 0.008408 0.847000
-0.004354 -0.031215 0.863000
0.005927 -0.012346 0.860000
-0.020781 0.025290 0.852000
0.024343 0.000042 0.848000
0.035020 -0.021374 0.853000
0.039445 -0.015701 0.850000
-0.020834 0.045332 0.840000
-0.006706 0.025808 0.846000
-0.023126 -0.004210 0.861000
-0.011581 0.029290 0.846000
0.004532 -0.039074 0.864000
0.008356 0.036640 0.855000
0.037561 0.005371 0.863000
0.010857 0.035356 0.858000
0.028581 0.014201 0.860000
-0.010735 -0.008827 0.862000
0.013052 -0.032991 0.863000
0.043900 -0.010515 0.855000
-0.011971 0.022755 0.849000
-0.001835 0.018540 0.848000
0.018388 0.008408 0.847000
-0.029791 0.000396 0.859000
-0.000804 -0.033067 0.865000
-0.021659 0.002517 0.859000
-0.035986 0.022564 0.855000
0.020891 -0.040852 0.864000
0.024107 -0.011179 0.852000
-0.037569 0.014538 0.859000
-0.000792 0.046736 0.853000
-0.012864 -0.009182 0.862000
-0.029060 0.032152 0.848000
0.034587 -0.002760 0.851000
0.008606 0.025082 0.845000
-0.003231 0.018889 0.848000
0.011523 -0.002773 0.855000
0.007589 0.011211 0.848000
-0.003943 -0.043390 0.851000
0.008606 0.020213 0.845000
0.018039 0.010500 0.847000
-0.015539 0.013032 0.853000
0.026334 -0.021097 0.856000
-0.007071 0.022030 0.848000
-0.002899 0.013032 0.853000
0.001333 -0.029151 0.865000
0.027359 -0.021424 0.855000
0.017983 -0.025827 0.861000
-0.027605 0.014151 0.857000
0.001652 0.020585 0.846000
0.002038 -0.013794 0.862000
-0.024754 0.019772 0.856000
-0.008223 -0.030716 0.859000
0.000973 -0.021954 0.862000
0.000975 -0.027339 0.864000
0.031785 -0.012567 0.851000
0.003461 -0.026597 0.863000
0.005947 -0.041160 0.863000
0.000258 0.030574 0.843000
-0.010846 0.036126 0.843000
0.022537 -0.027888 0.859000
0.024780 -0.008714 0.851000
-0.016298 0.009555 0.856000
-0.001484 0.020261 0.847000
-0.010760 -0.026983 0.864000
-0.013066 0.015471 0.852000
0.013555 0.003191 0.850000
0.029299 -0.009054 0.850000
-0.016107 0.033817 0.846000
-0.038938 0.016993 0.858000
-0.010598 0.016154 0.851000
0.008424 -0.024792 0.862000
0.044148 -0.013299 0.853000
0.025012 -0.030363 0.859000
0.021197 0.025587 0.862000
-0.006729 0.018562 0.849000
-0.012864 -0.014149 0.862000
0.024107 -0.011530 0.852000
-0.024077 0.009919 0.857000
-0.011649 0.016854 0.851000
0.026334 -0.021449 0.856000
0.041943 -0.013968 0.851000
0.014725 -0.016888 0.857000
-0.005688 -0.040890 0.850000
-0.033484 0.022889 0.854000
0.023653 0.021305 0.861000
-0.005058 -0.007408 0.862000
0.007910 0.021952 0.845000
0.031139 -0.042982 0.843000
-0.016943 0.015841 0.853000
-0.004600 0.035085 0.843000
0.007714 -0.025857 0.862000
0.000607 0.021978 0.846000
0.033847 -0.004156 0.850000
-0.020174 0.009555 0.856000
0.036775 -0.002767 0.853000
-0.034307 0.016973 0.857000
-0.024459 -0.007727 0.858000
-0.033210 0.019067 0.856000
-0.034347 0.013108 0.858000
-0.008847 0.015103 0.851000
0.018039 0.006665 0.847000
-0.008606 -0.025502 0.862000
0.008079 -0.026597 0.863000
-0.019891 0.004285 0.859000
0.010032 0.010513 0.848000
-0.004665 -0.037611 0.855000
-0.025282 -0.008117 0.862000
0.012623 -0.019380 0.858000
-0.014784 0.022432 0.850000
-0.041471 0.020731 0.852000
-0.041715 0.008508 0.857000
0.018252 -0.018299 0.857000
-0.025253 -0.001375 0.861000
0.024305 -0.028241 0.859000
-0.013400 0.017905 0.851000
-0.002930 -0.010956 0.862000
0.007368 -0.040094 0.863000
-0.021507 0.024618 0.853000
-0.037878 0.007105 0.858000
0.012916 0.029216 0.854000
-0.002518 0.036473 0.843000
0.013762 -0.029794 0.863000
-0.003999 -0.015586 0.863000
0.018146 -0.007673 0.852000
0.009763 0.000394 0.855000
0.039095 -0.015001 0.850000
-0.012140 -0.001021 0.861000
0.003445 0.046004 0.859000
0.026562 -0.013283 0.852000
0.008424 -0.026211 0.862000
0.003745 0.016078 0.847000
-0.011800 -0.008827 0.862000
0.014776 0.032253 0.860000
0.025510 -0.012231 0.852000
-0.021007 0.034554 0.847000
-0.001846 0.012330 0.853000
0.026656 -0.020720 0.855000
0.019640 0.022238 0.856000
-0.020951 0.003931 0.859000
-0.000436 0.029880 0.843000
-0.023019 0.008508 0.857000
0.020440 -0.044910 0.860000
0.001681 -0.010943 0.861000
-0.008487 0.017884 0.850000
-0.022772 -0.004919 0.861000
0.014372 -0.018299 0.857000
-0.020908 0.042718 0.843000
0.042033 -0.003497 0.860000
-0.002902 -0.039676 0.854000
-0.011445 -0.004215 0.862000
0.012946 -0.011936 0.856000
-0.026993 0.001812 0.860000
0.019782 0.005968 0.847000
0.039073 0.005027 0.865000
-0.010320 0.007450 0.857000
0.043195 -0.003150 0.862000
0.019400 -0.030433 0.861000
0.011958 -0.023700 0.861000
-0.021032 0.031454 0.848000
-0.024487 0.005346 0.859000
0.011550 -0.008070 0.857000
-0.006478 -0.029759 0.862000
-0.017395 0.007105 0.858000
-0.014468 0.015822 0.852000
0.031524 -0.040601 0.844000
-0.020550 0.007802 0.857000
-0.019867 0.043065 0.843000
0.003098 -0.016967 0.861000
0.021932 -0.037253 0.863000
0.018692 -0.022283 0.861000
-0.023835 -0.000666 0.861000
-0.020334 0.031105 0.848000
0.007910 0.017431 0.845000
0.025861 -0.011881 0.852000
-0.014784 0.022082 0.850000
-0.020286 0.035558 0.846000
0.010492 -0.005601 0.857000
0.007670 0.038842 0.857000
-0.007020 0.041974 0.842000
-0.005688 0.016485 0.850000
-0.000802 -0.015231 0.863000
-0.020598 0.003931 0.859000
0.027487 -0.032484 0.859000
0.002760 -0.034174 0.866000
0.025071 0.007729 0.849000
0.019876 0.017205 0.851000
0.017294 -0.025857 0.862000
0.004876 -0.023018 0.862000
0.009878 -0.038763 0.865000
0.004079 0.023316 0.844000
-0.010524 0.030647 0.845000
-0.005064 -0.010968 0.863000
-0.014570 0.007811 0.858000
-0.000448 -0.030967 0.866000
-0.028663 0.011682 0.857000
0.034814 -0.039048 0.848000
0.022249 0.009465 0.848000
0.019090 -0.035832 0.863000
-0.009154 0.024096 0.847000
0.015556 -0.042986 0.864000
0.002007 0.014019 0.849000
0.040711 -0.001377 0.862000
0.024983 0.016993 0.858000
0.025425 -0.035395 0.861000
0.035288 -0.003461 0.851000
0.024343 -0.001354 0.848000
-0.019937 -0.002792 0.861000
0.043904 -0.004570 0.862000
-0.040704 0.012755 0.858000
-0.013542 -0.016240 0.860000
0.022275 0.011573 0.849000
0.027231 0.007397 0.851000
-0.036071 0.018031 0.857000
0.028349 0.008117 0.853000
0.029963 -0.008344 0.849000
0.035827 0.008222 0.864000
-0.010236 0.018934 0.850000
-0.013928 -0.008827 0.862000
-0.007376 0.044453 0.843000
-0.007897 -0.005279 0.862000
-0.029793 0.030792 0.849000
-0.005648 0.030263 0.844000
-0.008805 0.024793 0.847000
-0.002202 0.049660 0.855000
0.014472 -0.024111 0.863000
0.012255 0.032493 0.857000
-0.010296 0.011303 0.855000
0.023136 -0.016497 0.855000
-0.005981 0.038855 0.842000
0.030598 -0.029234 0.857000
-0.027252 0.015210 0.857000
0.013872 0.007022 0.848000
0.008985 0.029011 0.848000
0.002738 0.047064 0.859000
-0.043831 0.018384 0.857000
0.018337 -0.031497 0.861000
0.000258 0.033737 0.844000
-0.018347 0.021809 0.853000
-0.040770 0.022485 0.852000
0.026134 -0.039647 0.861000
0.020487 -0.043596 0.862000
-0.014250 0.003936 0.860000
0.016098 0.026083 0.855000
0.014305 -0.004522 0.853000
0.013714 0.033315 0.860000
0.001683 -0.012730 0.862000
-0.006038 -0.041939 0.850000
-0.016724 0.044400 0.842000
-0.027286 0.039477 0.826000
-0.012834 0.003228 0.860000
-0.008899 -0.032018 0.856000
0.008606 0.018127 0.845000
0.008434 -0.028728 0.863000
0.004780 0.031343 0.845000
0.042682 0.000756 0.866000
-0.029825 0.002166 0.860000
0.002719 0.009872 0.853000
-0.037172 0.006752 0.858000
-0.023365 0.041379 0.844000
0.000264 -0.036855 0.862000
0.020794 -0.021549 0.860000
0.010163 -0.019049 0.859000
0.021227 -0.002055 0.849000
0.037784 -0.005569 0.852000
0.026687 -0.041531 0.856000
0.020828 0.008757 0.847000
-0.000089 0.037950 0.845000
-0.010723 -0.018385 0.861000
0.012446 0.016407 0.846000
0.011875 -0.001717 0.855000
-0.008252 -0.015213 0.862000
0.015893 -0.026242 0.863000
0.013587 0.026693 0.852000
-0.036113 0.002514 0.858000
0.024601 -0.019358 0.857000
0.047673 -0.005660 0.866000
-0.026966 0.035642 0.848000
-0.012070 0.010612 0.856000
-0.010014 -0.025827 0.861000
0.021527 -0.033268 0.861000
-0.035801 0.007113 0.859000
-0.001824 0.033697 0.843000
0.002395 -0.023755 0.863000
-0.020502 0.012007 0.855000
0.034197 -0.011503 0.850000
-0.028376 -0.001372 0.859000
-0.031132 -0.000310 0.857000
0.038090 -0.006963 0.851000
0.037784 -0.004867 0.852000
0.017547 -0.018299 0.857000
-0.039245 0.017679 0.857000
-0.003639 -0.018406 0.862000
-0.030109 0.010990 0.858000
-0.004354 -0.020914 0.863000
0.034831 -0.032408 0.857000
-0.023420 0.038692 0.846000
-0.012466 -0.018342 0.859000
0.015095 0.029706 0.858000
0.024343 0.000391 0.848000
0.021477 -0.020110 0.859000
0.000264 -0.024850 0.864000
-0.004671 -0.036246 0.856000
-0.026194 0.010624 0.857000
-0.010710 -0.021903 0.860000
-0.008060 0.039202 0.842000
0.039163 -0.000314 0.867000
-0.022063 -0.005627 0.861000
-0.011026 0.008508 0.857000
-0.012685 0.021033 0.850000
0.001300 0.033737 0.844000
-0.005338 -0.041240 0.850000
0.017669 -0.046133 0.863000
-0.022235 0.023592 0.854000
0.013491 0.011532 0.846000
-0.013204 -0.014841 0.861000
-0.010236 -0.038441 0.850000
0.039647 0.000752 0.862000
-0.015871 0.025290 0.852000
-0.022261 0.015526 0.855000
0.031472 -0.016089 0.852000
-0.014993 -0.006344 0.862000
0.017354 -0.041611 0.865000
0.016023 -0.001709 0.851000
0.010870 -0.020817 0.859000
0.030987 -0.031387 0.858000
-0.027411 0.027712 0.851000
0.020016 0.022617 0.857000
-0.010949 0.016154 0.851000
0.033458 -0.007646 0.849000
0.031693 -0.036684 0.858000
-0.005017 0.010247 0.855000
-0.031838 0.014504 0.857000
-0.021330 0.000750 0.860000
-0.033796 0.024618 0.853000
0.003754 0.012971 0.849000
-0.038450 0.021508 0.855000
0.042694 -0.011881 0.852000
0.017690 0.015381 0.847000
0.000965 0.045790 0.855000
0.002760 -0.034531 0.866000
0.021477 -0.019756 0.859000
-0.030887 0.004998 0.860000
0.026211 -0.011179 0.852000
0.024925 0.015544 0.856000
0.016431 -0.011206 0.854000
0.031139 -0.042288 0.843000
-0.026547 0.018384 0.857000
0.004521 -0.024083 0.862000
-0.040021 0.021758 0.851000
-0.006066 0.012344 0.854000
-0.002197 0.047789 0.853000
0.011197 0.033904 0.857000
0.024983 -0.042334 0.858000
0.037695 -0.010803 0.850000
0.023924 0.018406 0.858000
-0.021181 0.018671 0.854000
-0.018677 0.026693 0.852000
-0.005363 0.013047 0.854000
-0.003567 0.025778 0.845000
0.035596 -0.008004 0.850000
0.012098 0.012577 0.846000
0.028801 -0.025324 0.856000
-0.020903 0.006744 0.857000
-0.005641 0.035085 0.843000
-0.006737 0.016835 0.850000
-0.000442 0.046439 0.854000
0.021900 0.011211 0.848000
0.035680 -0.002763 0.852000
0.027102 0.013815 0.858000
-0.024031 0.043478 0.831000
0.017033 0.001090 0.849000
0.019468 -0.039430 0.864000
-0.017707 0.008498 0.856000
0.004137 0.042320 0.856000
-0.019985 0.030756 0.848000
-0.031965 0.027362 0.851000
0.012000 -0.026983 0.864000
-0.039275 0.022782 0.850000
-0.012819 0.004285 0.859000
-0.035551 0.024267 0.853000
-0.008753 0.038162 0.842000
0.019198 0.018978 0.852000
-0.018218 0.030371 0.847000
0.012946 -0.006299 0.856000
0.011644 -0.033740 0.864000
0.007679 -0.005608 0.858000
-0.029266 0.021835 0.854000
0.007688 -0.016221 0.859000
0.021148 -0.045618 0.860000
-0.041120 0.020030 0.852000
-0.016883 0.028030 0.850000
0.010946 -0.038763 0.865000
0.028801 -0.023915 0.856000
0.025739 0.002834 0.848000
-0.006485 -0.029083 0.863000
0.025189 -0.013299 0.853000
0.024343 0.007720 0.848000
0.000962 0.012315 0.852000
-0.018874 -0.003147 0.861000
0.026780 -0.031777 0.859000
-0.031044 0.034125 0.845000
0.026119 0.007031 0.849000
-0.018165 0.000043 0.861000
0.011644 -0.030539 0.864000
0.015025 -0.008042 0.854000
0.018540 -0.013666 0.854000
0.006171 0.028908 0.845000
-0.019072 0.022889 0.854000
0.005469 0.026442 0.844000
0.013052 -0.032280 0.863000
-0.026870 0.039342 0.845000
0.030662 -0.005200 0.849000
0.015322 -0.001709 0.851000
0.017547 -0.017594 0.857000
0.030770 -0.015387 0.852000
-0.008961 -0.024437 0.862000
0.016249 -0.035122 0.863000
-0.011378 0.008508 0.857000
-0.002527 0.023371 0.846000
-0.027605 0.012740 0.857000
0.001313 0.012315 0.852000
0.032715 -0.029234 0.857000
0.024107 -0.011881 0.852000
0.017403 -0.001008 0.850000
-0.026711 0.025961 0.851000
-0.014035 0.028976 0.847000
-0.013928 -0.006698 0.862000
0.005566 -0.009150 0.859000
0.013298 -0.014403 0.856000
0.023109 0.016211 0.854000
-0.018132 0.041677 0.843000
-0.032543 0.016268 0.857000
0.004865 -0.016594 0.860000
-0.010152 0.036126 0.843000
-0.013621 0.037514 0.843000
0.000258 0.030227 0.843000
0.011658 -0.039119 0.865000
-0.037834 0.019089 0.857000
-0.018326 0.019329 0.852000
-0.007723 0.034044 0.843000
-0.004339 -0.033584 0.860000
-0.007376 0.035432 0.843000
0.020464 -0.031142 0.861000
0.028902 -0.033545 0.859000
-0.034227 0.020804 0.855000
-0.000791 0.013367 0.852000
0.017628 -0.044608 0.861000
0.007334 0.041054 0.859000
-0.027669 0.005699 0.859000
0.000964 0.007775 0.854000
-0.038983 0.014184 0.859000
0.025891 -0.014703 0.853000
-0.021381 0.031105 0.848000
-0.007385 0.031305 0.844000
-0.014002 0.034820 0.845000
0.007368 -0.028728 0.863000
-0.001510 -0.010956 0.862000
-0.023317 0.014470 0.855000
0.011197 -0.014772 0.857000
