-0.018409 -0.022752 0.908000
0.028127 0.007641 0.879000
-0.016896 -0.039525 0.907000
-0.022122 -0.024593 0.907000
0.005767 0.017627 0.890000
-0.015385 -0.025312 0.906000
-0.018186 0.013335 0.897000
0.016682 0.021923 0.886000
0.025233 0.011982 0.879000
-0.004906 -0.041027 0.899000
0.026288 0.018473 0.878000
0.008350 0.001145 0.892000
-0.006718 0.030584 0.894000
-0.001204 -0.012152 0.898000
0.014320 -0.028415 0.898000
-0.014639 -0.021210 0.906000
0.017736 0.004774 0.884000
-0.024416 -0.018661 0.909000
0.008341 -0.005824 0.891000
0.002852 -0.032372 0.895000
0.015934 -0.002870 0.885000
-0.011605 -0.010350 0.902000
0.024175 0.010547 0.880000
-0.017212 -0.009629 0.904000
0.038532 0.014843 0.877000
0.011262 -0.020469 0.890000
-0.029022 -0.040747 0.901000
-0.022471 -0.003684 0.906000
-0.017526 0.008203 0.901000
0.030005 0.002582 0.881000
0.001005 0.039605 0.890000
-0.006029 -0.011451 0.901000
-0.008548 0.029447 0.893000
-0.017545 0.004871 0.902000
-0.008245 -0.012180 0.900000
-0.018389 -0.023100 0.907000
0.028063 0.014482 0.877000
0.003958 -0.006955 0.895000
-0.035856 -0.011130 0.905000
-0.027661 0.000790 0.905000
-0.002300 0.023567 0.893000
-0.026315 -0.026922 0.910000
-0.042459 -0.007691 0.895000
0.001012 -0.033146 0.896000
0.005029 0.023095 0.889000
0.014858 -0.006885 0.886000
0.003966 -0.037982 0.897000
-0.022471 0.000045 0.906000
-0.003422 -0.028784 0.898000
0.002481 -0.021665 0.894000
-0.014913 0.012268 0.900000
-0.012676 0.013365 0.899000
0.015552 0.012414 0.884000
0.000642 -0.030162 0.895000
-0.030641 -0.003308 0.905000
0.008707 -0.021226 0.891000
-0.041308 -0.008419 0.894000
0.003953 0.012555 0.894000
-0.034256 -0.028482 0.912000
-0.022793 -0.044232 0.904000
-0.007875 -0.026256 0.900000
-0.006741 0.019242 0.897000
-0.020255 -0.031686 0.907000
0.012278 0.036427 0.884000
0.033230 0.006563 0.880000
-0.005276 -0.041397 0.899000
0.007273 -0.032372 0.895000
0.030345 -0.004723 0.891000
0.010232 -0.031302 0.896000
0.003629 -0.045771 0.905000
0.022577 -0.022255 0.903000
0.003585 0.011819 0.894000
-0.020629 -0.027953 0.907000
0.029479 -0.002877 0.887000
0.034278 0.009450 0.879000
0.045330 0.013231 0.890000
-0.009759 -0.027830 0.903000
0.009441 -0.023793 0.891000
0.004715 -0.039917 0.899000
-0.022520 -0.027236 0.908000
0.012999 -0.035871 0.909000
-0.001196 0.034921 0.892000
-0.020956 0.001162 0.905000
0.023139 -0.016919 0.896000
0.019582 -0.024829 0.902000
-0.008986 -0.021070 0.900000
0.008962 0.042782 0.880000
-0.014204 -0.016662 0.902000
0.014113 0.013521 0.885000
-0.035748 -0.040018 0.893000
-0.016840 -0.014094 0.904000
0.018806 0.002951 0.883000
0.010896 -0.000689 0.890000
0.024983 0.033237 0.858000
0.025522 -0.018147 0.902000
0.016663 -0.005784 0.885000
-0.013863 -0.028233 0.904000
-0.010299 -0.041516 0.918000
0.022694 -0.015025 0.893000
0.019778 0.036940 0.862000
0.014494 0.006608 0.886000
-0.001188 0.044532 0.886000
0.025607 -0.020442 0.905000
0.015223 -0.009437 0.886000
0.005780 -0.021984 0.892000
-0.031969 -0.033701 0.911000
0.011262 -0.020103 0.890000
0.022771 -0.016919 0.896000
0.025927 0.023894 0.878000
-0.038512 -0.012759 0.915000
0.021664 0.013097 0.881000
-0.026661 -0.015294 0.909000
0.025296 -0.012466 0.894000
0.011968 -0.011652 0.888000
0.015862 0.036666 0.881000
-0.030878 -0.029233 0.912000
0.018763 0.034491 0.881000
-0.011246 -0.005530 0.903000
0.032719 0.013744 0.876000
-0.009738 0.009315 0.901000
0.019555 -0.005778 0.884000
0.002840 0.020214 0.891000
0.005715 0.044694 0.882000
-0.008946 0.022908 0.896000
-0.006386 -0.020676 0.899000
-0.009640 0.029415 0.892000
0.000642 -0.019479 0.895000
-0.036014 -0.023151 0.909000
0.040521 0.013822 0.881000
0.022872 -0.019958 0.900000
0.014199 -0.039454 0.914000
0.016280 0.016416 0.884000
-0.000459 0.043122 0.887000
-0.014219 -0.007017 0.903000
0.009995 -0.038074 0.908000
-0.019178 -0.019784 0.909000
-0.032539 -0.007040 0.906000
-0.001570 0.017377 0.896000
0.002852 0.011832 0.895000
0.029902 0.009800 0.878000
0.021954 -0.026489 0.908000
0.007249 0.012894 0.892000
0.027657 -0.013646 0.899000
0.016299 -0.001778 0.885000
0.023813 0.015256 0.880000
0.005754 0.035130 0.888000
0.000644 -0.041351 0.898000
-0.007512 -0.041860 0.901000
-0.027783 -0.010057 0.909000
-0.014607 -0.036046 0.904000
-0.017623 -0.037617 0.906000
-0.006016 -0.029187 0.899000
0.037976 -0.000695 0.898000
-0.033398 0.000784 0.899000
-0.003403 0.033123 0.893000
0.028159 0.004028 0.880000
-0.023268 -0.039569 0.908000
0.029562 0.033982 0.868000
0.006522 -0.027154 0.893000
0.003565 0.038097 0.889000
0.016663 -0.003599 0.885000
0.002481 -0.014306 0.894000
-0.021951 0.005971 0.900000
-0.010850 -0.013306 0.901000
-0.007070 0.032719 0.892000
-0.026367 -0.043617 0.899000
-0.006400 0.005978 0.901000
-0.033094 -0.032576 0.911000
-0.020674 -0.020906 0.909000
-0.002685 -0.013276 0.899000
-0.027107 -0.043247 0.899000
-0.004114 0.040247 0.888000
0.019874 0.014201 0.882000
-0.022146 -0.031347 0.908000
-0.022717 0.003753 0.901000
-0.000833 -0.014354 0.897000
-0.031969 -0.017953 0.911000
-0.016504 -0.026058 0.906000
0.017372 0.002591 0.884000
0.042590 0.007403 0.894000
-0.027844 -0.031826 0.911000
-0.009346 0.014105 0.899000
0.002509 -0.046464 0.904000
0.025391 0.037369 0.872000
-0.037552 -0.025798 0.910000
0.013764 -0.002509 0.886000
-0.013046 0.016325 0.899000
-0.026631 -0.005935 0.908000
0.004316 -0.015025 0.893000
0.000647 -0.046733 0.902000
0.019169 0.025483 0.883000
-0.012361 0.001903 0.903000
0.021763 -0.008698 0.885000
0.012333 -0.012748 0.888000
-0.031629 -0.032611 0.912000
0.011941 0.021559 0.886000
-0.034252 -0.036338 0.902000
-0.005229 0.036349 0.891000
0.022364 0.022862 0.880000
0.009819 0.002614 0.892000
0.014395 0.037711 0.880000
-0.001204 -0.040242 0.898000
0.027341 0.028559 0.877000
-0.027035 -0.013424 0.909000
-0.016113 -0.029754 0.905000
-0.005276 -0.013276 0.899000
0.004684 -0.027889 0.893000
-0.028937 -0.012689 0.910000
0.014477 0.009514 0.885000
0.033723 0.018749 0.874000
-0.005646 0.015215 0.899000
0.015194 -0.032770 0.906000
-0.011618 0.003761 0.903000
-0.031864 -0.007429 0.908000
0.011968 0.030014 0.888000
0.006140 -0.014625 0.891000
-0.001203 0.015919 0.897000
0.010859 0.022678 0.887000
-0.014963 -0.007389 0.903000
0.033004 0.021627 0.874000
0.010883 -0.002151 0.889000
0.013050 0.005885 0.887000
-0.000094 0.036716 0.891000
-0.022793 -0.044604 0.904000
-0.038336 -0.011835 0.902000
0.023243 -0.019588 0.900000
0.014106 -0.033963 0.908000
0.025566 0.020641 0.878000
0.001726 0.044432 0.884000
-0.006763 -0.032182 0.900000
0.006851 0.019780 0.888000
-0.005646 -0.029557 0.899000
-0.012292 0.016676 0.898000
-0.027814 -0.036660 0.910000
0.000274 -0.034252 0.896000
0.019213 -0.009063 0.885000
-0.015723 -0.017071 0.904000
0.029962 0.029741 0.859000
-0.025941 -0.032165 0.910000
0.022778 0.000407 0.882000
-0.005276 0.012995 0.899000
0.004694 -0.010270 0.895000
-0.029719 -0.012703 0.911000
0.023824 -0.014674 0.894000
-0.011605 -0.009237 0.902000
-0.004530 -0.016957 0.898000
0.026650 0.016305 0.878000
0.028884 0.004028 0.880000
0.008294 0.038698 0.886000
-0.021375 -0.029073 0.907000
0.022389 0.006208 0.881000
0.013749 0.016071 0.885000
0.021689 0.005852 0.882000
0.001382 -0.010662 0.897000
-0.017976 -0.015600 0.905000
-0.035562 -0.043259 0.907000
0.000274 -0.024268 0.895000
0.020866 0.036628 0.863000
-0.033435 -0.002178 0.900000
-0.017231 -0.031616 0.905000
-0.003429 -0.011439 0.900000
-0.035460 -0.001061 0.895000
0.035122 0.026273 0.873000
-0.013104 0.004876 0.903000
0.013388 -0.038158 0.910000
0.027829 0.002219 0.881000
0.015588 0.026664 0.886000
-0.004541 -0.045147 0.900000
0.006168 -0.032372 0.895000
-0.012375 0.000045 0.904000
0.031601 0.017330 0.875000
0.022774 0.037554 0.868000
-0.028556 -0.042829 0.898000
0.008350 0.010691 0.892000
0.005425 -0.008419 0.894000
0.029113 0.025281 0.876000
0.000273 0.024642 0.892000
-0.027065 -0.027671 0.910000
-0.010862 -0.008494 0.902000
-0.025941 -0.031416 0.910000
-0.027065 -0.023551 0.910000
0.000274 -0.013985 0.897000
-0.020211 -0.007032 0.905000
0.038413 0.004445 0.891000
0.025491 -0.008362 0.888000
-0.016728 0.012980 0.898000
-0.004906 -0.014386 0.899000
-0.011989 -0.029688 0.903000
-0.017250 -0.024939 0.906000
0.002849 -0.028656 0.894000
-0.017250 -0.026804 0.906000
0.011211 0.019371 0.886000
-0.003035 0.024669 0.893000
0.008359 -0.027522 0.893000
-0.007496 -0.021046 0.899000
0.024593 -0.000682 0.882000
-0.011246 -0.005159 0.903000
0.013733 0.033881 0.884000
0.037363 0.016609 0.875000
0.024843 0.025701 0.878000
0.016989 0.013854 0.883000
0.000635 0.043754 0.885000
0.020019 -0.026401 0.905000
-0.017976 -0.028264 0.905000
-0.030844 -0.019452 0.911000
0.008322 0.027486 0.889000
-0.022098 -0.005922 0.906000
0.019333 0.035356 0.858000
0.042526 0.013885 0.885000
0.024760 -0.008728 0.888000
0.022485 0.033199 0.857000
-0.017231 -0.027519 0.905000
-0.024763 -0.012288 0.908000
0.016299 -0.004327 0.885000
0.031491 0.003311 0.882000
0.022726 0.023948 0.880000
0.020963 0.020009 0.882000
-0.023216 -0.002566 0.906000
-0.007796 0.033049 0.891000
0.012699 -0.014576 0.888000
-0.040193 -0.038535 0.919000
-0.006756 -0.028817 0.899000
0.032739 0.029304 0.867000
-0.008615 -0.023663 0.900000
-0.014946 0.005242 0.902000
-0.002667 0.029080 0.893000
-0.009325 0.021088 0.897000
0.012917 0.039794 0.878000
-0.004156 -0.017677 0.897000
-0.008254 0.009686 0.901000
0.024148 0.022474 0.879000
0.019169 -0.001774 0.883000
-0.026543 -0.040928 0.905000
-0.030844 -0.033701 0.911000
0.035440 0.001875 0.890000
0.012319 0.029980 0.887000
-0.024790 -0.034001 0.909000
-0.013104 0.003761 0.903000
-0.013046 0.015955 0.899000
-0.001941 -0.036136 0.897000
0.011759 -0.032553 0.900000
-0.030878 -0.019849 0.912000
-0.024201 0.004124 0.901000
-0.024389 -0.023873 0.908000
0.008313 0.020146 0.888000
0.014145 -0.011273 0.887000
0.004297 0.035536 0.889000
0.007633 -0.029760 0.894000
-0.028492 -0.044578 0.896000
-0.016131 -0.026058 0.906000
0.003196 0.043171 0.888000
0.032217 0.004400 0.882000
0.006154 0.012908 0.893000
0.001377 -0.020193 0.894000
0.006154 -0.009144 0.893000
0.017077 -0.031686 0.907000
-0.026287 -0.013798 0.909000
-0.020300 -0.017913 0.909000
-0.000829 0.031617 0.892000
0.021664 0.020349 0.881000
-0.000827 0.040704 0.890000
-0.011246 -0.003300 0.903000
0.020903 -0.018374 0.895000
-0.023856 -0.044505 0.902000
-0.002679 -0.021369 0.897000
-0.033543 -0.042591 0.893000
-0.007126 -0.025116 0.899000
-0.038038 -0.004745 0.895000
0.012332 -0.042510 0.915000
-0.005281 -0.007364 0.900000
-0.005652 -0.042925 0.900000
-0.029523 -0.001073 0.905000
0.028063 0.014121 0.877000
0.012684 0.024504 0.887000
-0.013848 -0.033776 0.903000
0.003980 -0.041073 0.900000
0.009786 0.028218 0.889000
-0.000466 -0.046310 0.901000
-0.010468 0.011528 0.900000
-0.004510 0.029848 0.894000
-0.008986 -0.016995 0.900000
0.009797 -0.021568 0.890000
0.025348 -0.002500 0.883000
0.035685 0.010884 0.878000
0.019488 0.032315 0.881000
-0.007126 -0.019566 0.899000
-0.014235 0.000789 0.904000
0.030881 0.024892 0.875000
-0.034994 -0.006267 0.902000
-0.009377 -0.009608 0.902000
-0.022098 -0.004803 0.906000
-0.007471 0.022908 0.896000
0.022002 0.018153 0.880000
0.017736 0.007320 0.884000
0.006140 0.014713 0.891000
0.016276 -0.030093 0.904000
0.030555 0.022037 0.876000
-0.011184 0.016676 0.898000
0.026334 0.030694 0.856000
-0.003055 -0.042877 0.899000
0.036088 -0.002540 0.897000
0.044712 0.016071 0.885000
0.008717 0.007387 0.892000
0.017833 0.035892 0.871000
0.026650 0.022087 0.878000
0.013566 -0.028383 0.897000
0.000274 -0.037244 0.897000
0.025262 0.006563 0.880000
0.024593 -0.002135 0.882000
0.024928 0.001857 0.881000
0.020670 -0.007970 0.885000
0.002481 -0.016146 0.894000
0.012999 -0.037742 0.909000
-0.009016 -0.001814 0.903000
0.015395 -0.025770 0.896000
0.011275 0.004811 0.891000
-0.003418 -0.016569 0.897000
-0.034508 -0.037697 0.899000
-0.036429 -0.029544 0.910000
-0.031317 -0.001814 0.903000
-0.012429 -0.038448 0.908000
-0.014607 -0.034558 0.904000
-0.029752 -0.029233 0.912000
0.011864 -0.038448 0.908000
-0.023936 0.001535 0.905000
-0.016486 -0.031244 0.905000
-0.000095 0.016639 0.896000
0.002481 -0.024977 0.894000
-0.007512 0.007461 0.901000
0.002481 -0.023505 0.894000
0.013733 0.032061 0.884000
-0.024790 -0.022403 0.909000
0.032196 0.030199 0.862000
0.030951 0.011955 0.877000
0.035202 0.016970 0.875000
0.006147 -0.019781 0.892000
0.042622 0.012456 0.887000
-0.033881 -0.004782 0.902000
0.030046 -0.006572 0.893000
0.024422 -0.010201 0.889000
0.007281 -0.034252 0.896000
0.004694 -0.008797 0.895000
0.012639 -0.038907 0.910000
-0.004535 0.010775 0.899000
-0.003038 0.022121 0.894000
0.022778 -0.002135 0.882000
-0.028874 -0.004440 0.908000
-0.037057 -0.005869 0.898000
-0.032360 -0.002181 0.901000
0.009044 0.025628 0.888000
-0.030844 -0.011204 0.911000
-0.013506 -0.021932 0.905000
-0.009748 -0.009608 0.902000
-0.005281 -0.012550 0.900000
-0.027844 -0.033326 0.911000
0.013795 0.025628 0.888000
0.002481 -0.029024 0.894000
-0.011566 0.014845 0.899000
0.021471 -0.012748 0.888000
-0.025566 -0.034787 0.910000
0.024565 0.002219 0.881000
-0.017584 -0.008141 0.904000
-0.030268 -0.044110 0.894000
-0.032344 -0.019077 0.911000
0.027373 0.017389 0.878000
0.009786 0.032243 0.889000
0.015189 0.014961 0.884000
0.025957 0.008726 0.879000
0.043036 0.011739 0.888000
0.013795 -0.016037 0.888000
0.000273 0.019178 0.894000
-0.004878 0.026169 0.894000
0.011995 0.001509 0.890000
-0.007046 0.037365 0.889000
-0.037300 -0.021750 0.913000
-0.037137 -0.015294 0.909000
-0.011618 -0.002185 0.903000
0.010834 0.036833 0.885000
0.010518 -0.007640 0.889000
0.020623 -0.004318 0.883000
-0.034556 -0.031791 0.910000
-0.009748 -0.029284 0.902000
0.001013 -0.039090 0.897000
-0.019509 -0.039152 0.907000
0.023813 0.005839 0.880000
0.036949 -0.002919 0.900000
-0.008539 0.030516 0.892000
0.002470 0.032279 0.890000
0.019511 0.016742 0.882000
-0.001201 -0.027983 0.896000
-0.015334 0.000788 0.903000
-0.020840 0.005971 0.900000
0.009074 -0.023059 0.891000
0.021935 -0.015008 0.892000
0.026334 0.030341 0.856000
0.005780 -0.011704 0.892000
0.007965 0.013597 0.890000
0.019533 0.008039 0.883000
0.005034 0.018359 0.890000
0.027350 -0.006542 0.889000
-0.006009 -0.020653 0.898000
0.015206 0.010971 0.885000
0.012699 -0.013114 0.888000
-0.006386 -0.014756 0.899000
-0.014623 -0.020442 0.905000
0.027903 -0.010638 0.895000
-0.030402 -0.008186 0.909000
-0.021187 0.005965 0.899000
0.001013 -0.009555 0.897000
-0.035072 -0.008513 0.904000
-0.035539 -0.002540 0.897000
-0.032039 -0.028514 0.913000
-0.006386 -0.031037 0.899000
-0.022844 -0.004057 0.906000
0.020512 -0.017986 0.894000
0.006882 -0.023085 0.892000
0.004694 -0.033109 0.895000
-0.021375 -0.042139 0.907000
0.026288 0.023171 0.878000
0.010494 0.024139 0.887000
0.009786 -0.006908 0.889000
-0.006733 0.022908 0.896000
0.036961 0.017670 0.874000
0.005029 0.024925 0.889000
0.034049 0.030625 0.864000
-0.014204 -0.010350 0.902000
-0.010862 -0.033739 0.902000
0.012999 -0.037368 0.909000
-0.005211 0.041344 0.888000
-0.026287 -0.011179 0.909000
0.025927 0.016305 0.878000
-0.015334 -0.008504 0.903000
-0.013104 -0.007389 0.903000
0.031673 0.011955 0.877000
-0.030469 -0.012703 0.911000
-0.007054 0.034477 0.890000
0.012670 0.016454 0.886000
0.002862 -0.039133 0.898000
0.030590 0.010872 0.877000
-0.007883 -0.039635 0.901000
-0.017193 0.001903 0.903000
0.013811 -0.018983 0.889000
-0.033130 -0.023227 0.912000
0.018120 -0.006877 0.885000
-0.030302 -0.037245 0.906000
0.021616 -0.017250 0.894000
0.022027 0.014548 0.881000
-0.021725 -0.006667 0.906000
-0.002682 -0.015109 0.898000
0.019896 -0.002864 0.883000
-0.001196 0.027579 0.892000
-0.022818 0.001907 0.905000
0.017856 -0.017905 0.890000
0.036416 -0.001062 0.896000
0.009786 -0.011665 0.889000
-0.012361 -0.006645 0.903000
-0.028969 -0.024327 0.911000
0.011576 0.015724 0.886000
0.002484 0.015147 0.895000
0.008303 0.034726 0.887000
-0.017584 -0.011117 0.904000
0.025630 0.032103 0.856000
0.012305 0.018641 0.886000
0.011576 0.020100 0.886000
-0.003795 -0.040287 0.899000
0.001383 -0.039872 0.898000
0.045645 0.014314 0.889000
-0.035640 -0.021655 0.909000
0.017391 -0.006149 0.885000
-0.013431 0.010046 0.900000
-0.036014 -0.020158 0.909000
-0.020054 0.008545 0.898000
0.006851 0.025262 0.888000
0.010482 0.035051 0.886000
0.030705 0.029775 0.860000
0.014510 -0.012004 0.887000
0.039203 0.010595 0.884000
0.030677 -0.003619 0.890000
0.016644 0.005137 0.884000
-0.008236 -0.018086 0.899000
-0.000833 -0.038351 0.897000
-0.008625 -0.037781 0.901000
-0.004873 0.032755 0.893000
0.020600 0.007304 0.882000
0.011237 0.011008 0.888000
0.008331 0.030814 0.890000
-0.036560 -0.010745 0.904000
0.002512 -0.046888 0.905000
0.009462 -0.027522 0.893000
-0.010468 -0.015884 0.900000
0.018058 0.027996 0.882000
0.033440 0.013744 0.876000
-0.016449 -0.004787 0.903000
-0.003774 0.029480 0.894000
0.010470 0.037561 0.885000
0.022364 0.023586 0.880000
0.005063 -0.033109 0.895000
0.006154 -0.027154 0.893000
-0.009336 0.018155 0.898000
0.010541 0.002978 0.891000
-0.011605 -0.021859 0.902000
0.001379 -0.027583 0.895000
0.017085 -0.015306 0.888000
-0.010108 0.009315 0.901000
0.007599 0.029715 0.890000
-0.027005 -0.038448 0.908000
0.037724 0.016609 0.875000
0.016317 -0.008708 0.886000
-0.024389 -0.014530 0.908000
0.013415 -0.000686 0.887000
0.006147 -0.024187 0.892000
0.031998 0.000773 0.886000
-0.016167 -0.038822 0.908000
0.015640 -0.017519 0.889000
-0.012747 -0.005536 0.904000
-0.003425 -0.041397 0.899000
-0.025566 -0.035162 0.910000
0.020623 0.023303 0.883000
-0.030770 -0.046908 0.920000
-0.014607 -0.003304 0.904000
0.005449 -0.037285 0.898000
-0.007840 0.024384 0.896000
0.010106 0.037197 0.885000
-0.012733 -0.031918 0.903000
0.023477 0.004032 0.881000
0.003224 -0.034621 0.896000
0.015043 -0.026537 0.897000
0.039931 0.011323 0.884000
0.005401 0.030447 0.890000
-0.007512 -0.040377 0.901000
0.028785 0.019896 0.877000
-0.036641 -0.012634 0.906000
0.014804 -0.032734 0.905000
-0.007429 0.033415 0.891000
0.003214 -0.021273 0.893000
0.011602 -0.005438 0.888000
0.017450 -0.014941 0.888000
0.005389 0.039516 0.888000
0.012347 -0.019349 0.889000
0.007947 0.021242 0.888000
0.026311 -0.009491 0.891000
-0.000828 0.038183 0.891000
0.010129 0.017567 0.887000
-0.020211 -0.012620 0.905000
0.007265 0.001148 0.894000
0.000643 -0.035727 0.896000
-0.011592 -0.015531 0.901000
-0.003429 -0.044777 0.900000
-0.011159 0.022908 0.896000
0.007965 -0.013876 0.890000
0.011224 0.014282 0.887000
-0.009377 0.004500 0.902000
-0.032658 -0.038807 0.899000
-0.022098 -0.007040 0.906000
-0.021328 -0.004053 0.905000
0.012727 -0.021202 0.890000
-0.015723 -0.000699 0.904000
-0.003049 0.016658 0.897000
0.010859 0.032535 0.887000
-0.036892 -0.040063 0.894000
0.013369 0.034608 0.884000
-0.036014 -0.022777 0.909000
-0.034956 -0.005518 0.901000
-0.010120 -0.028913 0.902000
0.016719 -0.016403 0.888000
0.010518 -0.017885 0.889000
-0.026315 -0.033289 0.910000
-0.011171 0.020350 0.897000
0.025957 0.013429 0.879000
0.020191 0.033003 0.880000
0.017372 0.003318 0.884000
-0.021234 0.004865 0.901000
-0.015706 0.003018 0.903000
-0.004165 -0.040657 0.899000
0.019919 -0.005050 0.884000
-0.014607 -0.036790 0.904000
0.005413 -0.012438 0.892000
-0.033432 -0.012315 0.910000
0.006529 -0.000692 0.894000
-0.008153 0.035942 0.890000
0.004663 0.033706 0.889000
-0.012775 -0.024193 0.906000
-0.024735 -0.005181 0.907000
-0.016006 0.013365 0.899000
0.027734 0.008716 0.878000
-0.040662 -0.009544 0.896000
-0.033506 -0.023978 0.912000
-0.032719 -0.016828 0.911000
0.023557 -0.006142 0.884000
-0.010120 -0.008865 0.902000
0.026650 0.015221 0.878000
0.008388 -0.033146 0.896000
0.011995 0.005905 0.890000
0.006522 -0.028624 0.893000
-0.015198 0.020673 0.895000
0.019842 -0.021369 0.897000
0.001377 -0.016882 0.894000
-0.001197 0.023934 0.893000
-0.007134 0.012268 0.900000
-0.010874 0.000045 0.903000
0.024649 -0.005414 0.884000
0.013064 0.004430 0.888000
-0.036277 -0.004017 0.897000
-0.027409 -0.007064 0.909000
-0.031282 -0.001440 0.902000
0.033993 0.006570 0.881000
-0.022098 -0.004430 0.906000
0.038804 0.016970 0.875000
-0.032344 -0.017953 0.911000
0.014129 0.003326 0.886000
0.003214 0.016584 0.893000
0.005793 -0.009155 0.894000
-0.024416 -0.021280 0.909000
-0.031150 -0.035123 0.909000
-0.003429 -0.011068 0.900000
-0.014607 -0.037162 0.904000
-0.019423 0.003390 0.903000
0.026016 0.001857 0.881000
0.008135 -0.042980 0.909000
-0.029719 -0.019827 0.911000
-0.031989 -0.001810 0.901000
0.024450 -0.010945 0.890000
0.029170 -0.012550 0.900000
-0.001188 0.043074 0.886000
0.020237 0.008756 0.882000
-0.031847 -0.040936 0.897000
-0.003015 0.042027 0.887000
0.020600 0.012386 0.882000
0.001382 -0.011770 0.897000
0.026318 0.010173 0.879000
0.022002 0.028294 0.880000
-0.011221 -0.020351 0.901000
0.005754 0.036227 0.888000
0.026286 0.034973 0.866000
0.026259 0.028920 0.877000
0.013369 0.035336 0.884000
-0.031969 -0.011953 0.911000
-0.008996 -0.035926 0.901000
0.021114 -0.024512 0.904000
0.010871 0.012470 0.888000
0.022389 0.012009 0.881000
-0.018369 -0.033143 0.906000
0.014858 0.021923 0.886000
0.044062 0.008875 0.894000
0.027165 -0.001774 0.883000
0.028482 0.030024 0.857000
-0.038992 -0.037368 0.900000
0.027011 0.013053 0.878000
0.019984 0.034099 0.871000
0.007983 0.008855 0.892000
-0.008986 -0.018106 0.900000
0.033364 0.024864 0.874000
0.031241 0.019130 0.875000
0.012653 -0.035200 0.911000
-0.032415 -0.025508 0.913000
0.015898 0.034206 0.883000
-0.020629 -0.030566 0.907000
0.009135 -0.033552 0.897000
0.009797 -0.018271 0.890000
-0.037222 -0.009608 0.902000
-0.016449 0.003390 0.903000
0.009808 -0.003256 0.891000
-0.001568 0.018831 0.895000
0.009268 -0.042653 0.910000
-0.000834 -0.013261 0.898000
0.021105 -0.012383 0.888000
0.004316 -0.015760 0.893000
0.003935 0.023854 0.890000
0.036490 0.010185 0.880000
0.026193 -0.006528 0.887000
0.020237 0.004400 0.882000
0.009764 0.020853 0.887000
0.000278 -0.048218 0.909000
-0.006771 -0.007743 0.901000
-0.035640 -0.017539 0.909000
0.040698 0.017008 0.877000
-0.016840 -0.002560 0.904000
0.023786 0.018494 0.879000
-0.004152 0.019221 0.896000
-0.013878 -0.027519 0.905000
-0.004530 -0.023610 0.898000
0.030229 0.012316 0.877000
0.033723 0.018389 0.874000
0.011287 -0.024554 0.892000
0.000273 0.021338 0.892000
0.000274 -0.021321 0.895000
0.031586 -0.005850 0.895000
0.018526 -0.013099 0.887000
0.002843 0.018401 0.892000
-0.036389 -0.015668 0.909000
-0.027005 -0.038822 0.908000
-0.003770 0.030550 0.893000
-0.002661 0.039283 0.891000
0.013795 -0.016403 0.888000
0.040790 0.018856 0.879000
-0.010131 -0.004415 0.903000
-0.007512 -0.010710 0.901000
0.040698 0.018452 0.877000
0.016663 -0.005420 0.885000
-0.014559 0.007832 0.901000
-0.006386 0.014105 0.899000
-0.012747 -0.005164 0.904000
-0.017956 -0.004420 0.904000
0.014480 -0.035084 0.908000
-0.000464 -0.030195 0.896000
-0.016858 -0.026774 0.905000
0.009430 0.030814 0.890000
-0.033469 -0.015328 0.911000
0.016663 -0.001413 0.885000
-0.022919 -0.036620 0.909000
-0.037965 -0.010722 0.902000
-0.007134 -0.012920 0.900000
0.039191 0.006652 0.892000
-0.016840 -0.002932 0.904000
-0.027005 -0.004440 0.908000
-0.015706 -0.016680 0.903000
-0.010503 -0.005902 0.903000
0.031148 -0.005469 0.893000
0.014113 0.017528 0.885000
-0.004911 -0.045147 0.900000
0.033364 0.027742 0.874000
-0.005975 0.033123 0.893000
-0.023989 -0.006301 0.907000
-0.010444 0.017785 0.898000
0.026002 -0.010982 0.893000
0.001755 -0.042507 0.899000
-0.001208 -0.047052 0.901000
0.012102 -0.030632 0.898000
0.001006 0.031215 0.891000
0.015916 0.012050 0.884000
-0.019072 -0.000699 0.904000
0.021812 -0.011273 0.887000
0.027840 -0.009144 0.893000
-0.038905 -0.008456 0.898000
0.015570 -0.003599 0.885000
0.009452 -0.024921 0.892000
0.026235 -0.016643 0.901000
0.020237 0.016016 0.882000
0.006889 -0.028624 0.893000
-0.002300 0.030183 0.893000
-0.003422 -0.040612 0.898000
-0.005989 0.025093 0.895000
0.007346 -0.040511 0.904000
0.020787 -0.015341 0.890000
0.005051 0.011438 0.893000
0.005761 0.021632 0.889000
-0.024389 -0.015651 0.908000
-0.035539 -0.037982 0.897000
0.020397 -0.014592 0.889000
0.004292 0.041344 0.888000
-0.027035 -0.010805 0.909000
0.034242 -0.004386 0.897000
0.022364 0.028294 0.880000
-0.037712 -0.039784 0.896000
0.026650 0.013414 0.878000
0.027071 0.030024 0.857000
-0.005639 -0.023240 0.898000
0.001737 0.041070 0.890000
0.019919 -0.006142 0.884000
-0.031705 -0.044061 0.893000
0.003217 -0.014674 0.894000
-0.032004 -0.023978 0.912000
0.024509 0.014153 0.879000
-0.029719 -0.015328 0.911000
-0.018946 0.010024 0.898000
-0.035868 -0.002537 0.896000
0.016889 -0.024322 0.897000
-0.015300 0.009686 0.901000
0.026318 0.005832 0.879000
-0.021025 -0.038822 0.908000
0.029868 0.012316 0.877000
0.013505 -0.025316 0.893000
0.023062 0.031518 0.879000
0.014608 -0.023846 0.893000
0.006882 -0.026389 0.892000
0.020237 0.013475 0.882000
-0.003049 -0.028383 0.897000
-0.031899 -0.034375 0.909000
0.009753 0.036510 0.886000
0.019798 -0.019479 0.895000
-0.007134 -0.039591 0.900000
0.024928 0.000769 0.881000
-0.006763 0.009305 0.900000
0.019964 -0.011261 0.886000
-0.036439 -0.035185 0.901000
0.018463 -0.004686 0.884000
-0.033359 -0.033963 0.908000
0.016024 -0.018638 0.890000
0.017352 0.017488 0.883000
0.008547 -0.045799 0.913000
-0.010766 0.025801 0.894000
-0.011196 0.012995 0.899000
-0.042459 -0.008797 0.895000
0.017736 0.006957 0.884000
-0.032202 -0.007048 0.907000
-0.027783 -0.007438 0.909000
0.000274 -0.018742 0.895000
0.003569 0.030081 0.890000
0.004668 0.017993 0.890000
0.026318 0.012706 0.879000
0.037807 0.001884 0.894000
-0.005270 -0.015109 0.898000
-0.016840 -0.000699 0.904000
0.021058 -0.010167 0.886000
0.025927 0.027146 0.878000
0.006285 -0.047251 0.912000
0.007929 0.041250 0.886000
0.024956 0.000044 0.882000
-0.010874 -0.002557 0.903000
0.008776 -0.034328 0.898000
-0.006733 0.023646 0.896000
-0.034256 -0.028858 0.912000
-0.030878 -0.031485 0.912000
0.005845 -0.040793 0.902000
0.006882 -0.024187 0.892000
0.010577 -0.029024 0.894000
-0.014172 0.011157 0.900000
-0.022894 -0.034337 0.908000
0.013762 -0.037409 0.910000
0.027341 0.025310 0.877000
0.045076 0.016435 0.885000
-0.016449 0.001160 0.903000
0.027011 0.017750 0.878000
-0.003791 -0.035068 0.898000
0.011602 0.024897 0.888000
-0.015741 -0.019324 0.905000
0.012625 -0.036245 0.909000
-0.012704 -0.012564 0.901000
0.006858 0.026754 0.889000
0.029573 -0.012935 0.901000
-0.018721 -0.011875 0.905000
0.009797 -0.021202 0.890000
-0.031793 -0.036126 0.906000
-0.012224 0.025037 0.893000
0.006434 0.043193 0.881000
-0.011246 -0.007017 0.903000
-0.037510 -0.008846 0.900000
-0.024416 -0.019410 0.909000
0.001393 -0.047208 0.904000
0.004663 0.024925 0.889000
0.014129 0.002232 0.886000
-0.000095 -0.015444 0.896000
0.003210 0.018033 0.892000
-0.025136 -0.005561 0.908000
0.027341 0.023866 0.877000
0.013415 -0.008353 0.887000
0.019599 -0.011625 0.886000
-0.006756 -0.031037 0.899000
-0.025192 -0.036285 0.910000
0.034403 0.024476 0.873000
0.015206 0.028455 0.885000
-0.037593 -0.010722 0.902000
0.041165 0.005201 0.895000
0.005516 -0.046347 0.909000
-0.023989 -0.041765 0.907000
0.047635 0.014729 0.892000
-0.017564 0.000416 0.903000
0.039203 0.010231 0.884000
0.007624 0.000779 0.893000
-0.005211 0.040978 0.888000
-0.029086 0.000788 0.903000
-0.000095 -0.045147 0.900000
0.015206 0.007693 0.885000
-0.032324 0.000785 0.900000
0.044297 0.016053 0.884000
-0.019838 -0.012247 0.905000
0.010129 0.016837 0.887000
0.044062 0.009243 0.894000
-0.005608 0.032755 0.893000
-0.017467 0.011872 0.898000
-0.009419 -0.041346 0.906000
-0.007496 0.015955 0.899000
-0.005270 -0.018436 0.898000
0.011211 0.022288 0.886000
0.028303 -0.010650 0.896000
-0.011605 0.006727 0.902000
-0.011989 -0.005902 0.903000
0.017058 -0.030532 0.906000
-0.003052 -0.041351 0.898000
0.018806 0.002588 0.883000
0.027039 0.031046 0.856000
0.027734 0.011607 0.878000
0.007956 0.014314 0.889000
-0.007883 0.009315 0.901000
-0.025136 -0.011167 0.908000
-0.020956 -0.005915 0.905000
0.044863 0.014298 0.888000
-0.006029 -0.006631 0.901000
0.007599 0.030081 0.890000
0.016010 -0.034787 0.910000
0.006514 -0.010603 0.892000
0.020963 0.006941 0.882000
-0.015317 0.004128 0.902000
-0.012003 -0.004048 0.904000
0.005787 -0.010247 0.893000
-0.021749 -0.024220 0.907000
-0.007848 0.018135 0.897000
-0.011910 0.020350 0.897000
-0.017623 -0.025685 0.906000
-0.010850 0.010057 0.901000
-0.023216 0.000045 0.906000
-0.004156 -0.019154 0.897000
-0.021352 -0.010396 0.906000
-0.027349 -0.000702 0.907000
0.016372 -0.017885 0.889000
0.028424 0.016286 0.877000
0.003569 0.027883 0.890000
0.022542 -0.010543 0.887000
0.041971 0.015635 0.881000
0.046796 0.014696 0.890000
-0.016042 0.009315 0.901000
-0.003049 -0.029122 0.897000
0.017027 -0.007970 0.885000
0.017736 0.000771 0.884000
-0.032432 -0.037121 0.903000
0.023088 0.018515 0.880000
-0.006756 -0.017716 0.899000
-0.005276 -0.032147 0.899000
-0.019136 -0.016381 0.907000
-0.007134 0.006712 0.900000
0.012333 -0.009459 0.888000
-0.027379 -0.002571 0.908000
0.038171 0.014482 0.877000
-0.016486 -0.027519 0.905000
-0.031337 -0.043693 0.893000
0.022027 0.010922 0.881000
0.014225 -0.023452 0.892000
0.009217 -0.038693 0.905000
0.023451 0.013807 0.880000
0.034443 0.021267 0.874000
-0.025538 -0.017165 0.909000
-0.009748 -0.000698 0.902000
0.000646 -0.044406 0.900000
-0.013476 -0.034148 0.903000
-0.000094 0.042122 0.889000
-0.000094 0.038183 0.891000
0.013764 0.000044 0.886000
0.001382 -0.009555 0.897000
-0.026690 -0.022427 0.910000
0.025957 0.006194 0.879000
0.002862 -0.040242 0.898000
0.024745 0.034457 0.862000
0.011968 -0.007631 0.888000
-0.032344 -0.032576 0.911000
-0.016149 -0.024593 0.907000
-0.029719 -0.034076 0.911000
0.008331 -0.015341 0.890000
-0.009006 -0.027056 0.902000
-0.034106 -0.011167 0.908000
-0.008615 0.011898 0.900000
-0.008615 -0.018847 0.900000
-0.011989 0.004876 0.903000
0.030881 0.026693 0.875000
0.014510 0.027059 0.887000
-0.039056 -0.001794 0.893000
-0.004515 0.020304 0.895000
0.017008 0.001863 0.884000
-0.021002 -0.041765 0.907000
0.022034 0.037511 0.867000
-0.006393 -0.042554 0.900000
-0.006393 -0.034405 0.900000
0.032107 0.007279 0.879000
0.029970 0.004752 0.880000
0.017695 0.033804 0.882000
0.015223 -0.003968 0.886000
0.007208 0.035821 0.887000
0.017710 0.036001 0.865000
-0.018783 -0.020883 0.908000
0.024779 -0.019260 0.902000
0.040247 0.007012 0.891000
0.039880 0.007378 0.891000
0.031962 0.001136 0.885000
0.001739 0.021680 0.891000
0.009399 0.019393 0.887000
-0.001201 -0.024664 0.896000
-0.016522 -0.020487 0.907000
0.022389 0.005120 0.881000
0.020260 -0.001047 0.883000
-0.009325 0.018504 0.897000
-0.001570 -0.017657 0.896000
0.017195 0.036417 0.875000
0.025927 0.018112 0.878000
0.020237 0.003311 0.882000
0.012670 0.021194 0.886000
-0.003791 -0.032850 0.898000
-0.011592 -0.017014 0.901000
0.013384 0.013157 0.885000
-0.001570 -0.026139 0.896000
-0.027783 -0.005941 0.909000
-0.008615 -0.013661 0.900000
0.016024 -0.019737 0.890000
-0.013104 0.002275 0.903000
-0.019926 -0.019410 0.909000
-0.007462 0.026567 0.895000
0.002127 -0.043295 0.900000
0.024482 0.027146 0.878000
-0.009629 0.032682 0.891000
-0.005620 0.022146 0.895000
0.007013 -0.044476 0.909000
0.015570 -0.000321 0.885000
-0.008236 0.015215 0.899000
-0.020211 -0.001818 0.905000
-0.010120 -0.034853 0.902000
0.006133 0.031913 0.890000
-0.005646 -0.036957 0.899000
-0.023216 -0.001447 0.906000
0.003581 -0.018701 0.893000
0.022364 0.018877 0.880000
0.014841 0.012792 0.885000
0.022466 -0.006142 0.884000
0.005029 0.024193 0.889000
0.042209 0.012807 0.886000
0.022440 -0.003591 0.883000
0.016682 0.022288 0.886000
0.023611 -0.008708 0.886000
0.006175 -0.034990 0.896000
0.006127 0.026023 0.889000
0.025211 -0.010958 0.891000
-0.028937 -0.008569 0.910000
0.008359 0.000044 0.893000
-0.031219 -0.017578 0.911000
0.005401 0.029715 0.890000
0.042238 0.017771 0.879000
-0.016522 -0.019740 0.907000
0.001006 0.026448 0.891000
0.000642 -0.016901 0.895000
-0.023989 -0.041019 0.907000
0.018058 0.030537 0.882000
0.008350 0.007020 0.892000
0.032321 0.017330 0.875000
-0.014235 -0.036418 0.904000
-0.010075 0.017785 0.898000
0.002113 -0.028288 0.894000
0.002481 -0.025345 0.894000
-0.020424 0.008915 0.898000
0.034341 0.000410 0.890000
0.011275 0.002244 0.891000
-0.035072 -0.034930 0.904000
-0.015402 -0.024220 0.907000
0.022181 -0.021859 0.902000
-0.024253 -0.046755 0.917000
0.018079 0.026937 0.883000
-0.008996 0.011170 0.901000
-0.000462 0.025743 0.892000
-0.006029 -0.010339 0.901000
0.022537 0.034690 0.859000
-0.002682 -0.039503 0.898000
0.026905 0.033786 0.863000
0.006434 0.043919 0.881000
0.030195 0.013744 0.876000
0.029235 -0.014063 0.902000
0.020576 0.016723 0.881000
0.000644 -0.012877 0.897000
-0.028563 -0.010442 0.910000
0.007667 -0.035437 0.898000
0.033268 0.006208 0.881000
0.020623 -0.001774 0.883000
0.006522 -0.028992 0.893000
0.002849 -0.022769 0.894000
0.042238 0.018494 0.879000
0.011995 0.006271 0.890000
0.031023 0.030448 0.859000
-0.028531 -0.007438 0.909000
0.013035 0.010254 0.886000
-0.021187 0.007445 0.899000
-0.007637 -0.044065 0.916000
-0.005602 0.034187 0.892000
-0.004142 0.028377 0.894000
0.024257 -0.003954 0.883000
0.010834 0.035012 0.885000
0.027702 0.027115 0.877000
-0.034632 -0.026606 0.912000
0.025290 0.000406 0.881000
0.011846 0.041286 0.879000
-0.036565 -0.038266 0.895000
-0.012718 -0.015177 0.902000
0.034379 -0.000323 0.891000
0.015206 0.002593 0.885000
-0.002310 -0.016200 0.897000
0.007607 -0.018292 0.891000
-0.001577 -0.046258 0.900000
-0.011976 -0.033368 0.902000
-0.023909 -0.043115 0.904000
-0.006763 0.013380 0.900000
0.010813 -0.043592 0.914000
0.019621 -0.012004 0.887000
0.006851 0.020511 0.888000
0.011237 0.030379 0.888000
-0.031934 -0.010442 0.910000
-0.003418 -0.021369 0.897000
-0.024042 -0.035123 0.909000
0.034122 0.015169 0.875000
-0.011605 -0.034853 0.902000
-0.009727 0.012268 0.900000
0.020237 0.018557 0.882000
-0.005281 -0.042925 0.900000
-0.017584 -0.004420 0.904000
-0.040526 -0.006204 0.893000
-0.000094 0.045211 0.885000
-0.018369 -0.037990 0.906000
-0.036933 -0.011490 0.904000
0.001380 -0.033883 0.896000
-0.030469 -0.034450 0.911000
0.023088 0.009460 0.880000
-0.034181 -0.019431 0.910000
0.031241 0.028854 0.875000
0.001373 0.021314 0.891000
-0.018328 -0.008885 0.904000
0.024192 -0.014306 0.894000
-0.013863 -0.030465 0.904000
-0.001203 -0.035029 0.897000
-0.001939 -0.019501 0.896000
0.028063 0.021340 0.877000
0.012684 -0.006528 0.887000
0.021350 -0.001774 0.883000
0.037046 0.014826 0.876000
-0.023191 -0.043536 0.905000
-0.012662 0.017046 0.898000
-0.010030 0.026169 0.894000
0.027341 0.028198 0.877000
0.010883 -0.011665 0.889000
0.034083 0.023425 0.874000
0.004684 -0.026786 0.893000
-0.032476 -0.041535 0.894000
-0.010433 0.019980 0.897000
0.007947 0.021607 0.888000
-0.022894 -0.039569 0.908000
0.002104 0.036675 0.890000
0.007241 0.013979 0.891000
-0.017212 -0.000327 0.904000
-0.007883 -0.040006 0.901000
0.039836 0.008835 0.890000
0.003589 -0.033109 0.895000
0.003589 -0.005113 0.895000
-0.016821 0.001531 0.903000
0.023062 0.031880 0.879000
-0.022545 -0.017913 0.909000
-0.003787 -0.023215 0.897000
0.005858 -0.042371 0.904000
-0.011923 0.019264 0.898000
-0.021305 0.009718 0.904000
-0.004510 0.030216 0.894000
0.010163 -0.018271 0.890000
-0.030094 -0.014203 0.911000
0.004668 0.030814 0.890000
0.011177 -0.042793 0.913000
0.006133 0.016161 0.890000
-0.003052 -0.039872 0.898000
0.001017 -0.045568 0.901000
-0.024416 -0.022777 0.909000
0.015676 -0.021226 0.891000
-0.020099 0.006712 0.900000
0.016446 -0.022376 0.893000
-0.022146 -0.035084 0.908000
-0.005969 0.034187 0.892000
-0.010375 0.027946 0.892000
-0.019093 -0.011875 0.905000
-0.014656 -0.023100 0.907000
0.010871 -0.006535 0.888000
0.045534 0.011083 0.894000
0.032358 0.014826 0.876000
0.034012 -0.000323 0.891000
-0.020424 0.009284 0.898000
-0.021399 -0.033216 0.908000
-0.008615 -0.014032 0.900000
0.024219 -0.014690 0.895000
-0.008896 0.031215 0.891000
0.023424 0.029709 0.879000
-0.014607 -0.033814 0.904000
0.014129 0.028852 0.886000
0.012333 -0.016403 0.888000
-0.011989 -0.007017 0.903000
-0.031594 -0.016078 0.911000
0.012999 -0.035497 0.909000
0.001371 0.040338 0.890000
0.023482 -0.015796 0.895000
0.016759 -0.033664 0.910000
-0.022894 -0.039943 0.908000
0.011942 -0.042088 0.914000
0.033810 0.031802 0.867000
0.010152 -0.016056 0.889000
0.025886 -0.008738 0.889000
0.040796 0.004465 0.895000
-0.023615 -0.012648 0.907000
-0.000094 0.037816 0.891000
0.013384 0.019713 0.885000
-0.009304 0.025830 0.895000
0.008359 -0.002161 0.893000
0.029311 -0.007307 0.893000
-0.000834 -0.010304 0.898000
0.004663 0.025291 0.889000
0.014858 -0.001415 0.886000
0.025750 0.033315 0.860000
0.005425 -0.031232 0.894000
0.004340 -0.039133 0.898000
-0.013461 -0.017033 0.902000
0.001759 -0.044827 0.901000
-0.001201 0.017377 0.896000
0.027104 0.000769 0.881000
-0.016449 0.000416 0.903000
0.021326 -0.001045 0.882000
-0.014267 -0.023075 0.906000
-0.026258 -0.003692 0.908000
0.011237 0.010643 0.888000
-0.020255 -0.015634 0.907000
-0.003791 0.016676 0.898000
0.025151 -0.018518 0.902000
0.006874 -0.019025 0.891000
0.028223 0.001133 0.882000
0.002113 -0.015042 0.894000
0.017352 0.027301 0.883000
0.013050 -0.005797 0.887000
0.026408 -0.000682 0.882000
0.001737 0.034111 0.890000
-0.021773 -0.023873 0.908000
0.012932 0.040925 0.879000
-0.004906 -0.014756 0.899000
0.007590 0.032975 0.889000
0.000642 -0.022794 0.895000
-0.009387 -0.025600 0.903000
0.009819 -0.024921 0.892000
-0.005576 0.040978 0.888000
0.009064 -0.012044 0.890000
-0.004906 0.010405 0.899000
-0.010790 0.022171 0.896000
-0.011856 0.027610 0.893000
0.026318 0.006917 0.879000
0.021184 -0.026833 0.907000
0.029474 0.027805 0.876000
-0.019509 -0.044005 0.907000
-0.010874 -0.008132 0.903000
-0.033807 -0.012689 0.910000
0.021326 0.003674 0.882000
0.020693 -0.009802 0.886000
-0.021725 -0.007786 0.906000
-0.000464 -0.032777 0.896000
-0.009662 0.026905 0.894000
-0.003403 0.027242 0.893000
-0.007134 -0.036998 0.900000
0.011968 -0.004342 0.888000
0.009589 -0.036086 0.905000
-0.026975 -0.039152 0.907000
-0.024681 -0.042046 0.905000
0.030730 0.003670 0.881000
-0.041354 -0.009902 0.895000
-0.001934 0.021018 0.894000
0.022567 -0.011286 0.888000
0.004668 0.031180 0.890000
-0.026661 -0.013798 0.909000
0.001747 -0.031635 0.895000
-0.024281 -0.042743 0.904000
0.018401 0.034853 0.881000
-0.000465 -0.010304 0.898000
0.009452 -0.002893 0.892000
0.024779 -0.018889 0.902000
0.015640 -0.018617 0.889000
-0.007883 -0.038522 0.901000
-0.003049 -0.017308 0.897000
0.028753 0.026724 0.876000
-0.028810 -0.001447 0.906000
0.025595 0.009450 0.879000
0.021302 0.010559 0.881000
0.043206 0.015325 0.884000
-0.029621 -0.005561 0.908000
0.019126 0.034128 0.881000
-0.016522 -0.020114 0.907000
-0.008986 -0.017365 0.900000
-0.033881 -0.023603 0.912000
-0.012347 -0.020003 0.902000
0.026288 0.022448 0.878000
-0.023667 -0.018287 0.909000
-0.013371 0.019589 0.896000
-0.001196 0.024642 0.892000
-0.022098 -0.002193 0.906000
0.019191 0.020055 0.884000
0.022156 -0.021093 0.901000
-0.016858 -0.028264 0.905000
-0.000464 -0.023557 0.896000
0.015240 -0.013829 0.887000
-0.008153 0.034843 0.890000
0.011237 -0.006900 0.888000
-0.029686 -0.008195 0.910000
-0.006763 -0.033664 0.900000
0.024111 -0.012058 0.891000
0.021277 0.031554 0.880000
0.003214 -0.022008 0.893000
-0.001928 0.039650 0.891000
-0.010444 0.018524 0.898000
-0.029344 -0.029201 0.911000
0.009278 -0.043449 0.911000
-0.017642 -0.023100 0.907000
0.008294 0.040156 0.886000
0.009409 0.033303 0.888000
-0.006386 -0.033997 0.899000
-0.011171 0.019980 0.897000
-0.009367 -0.010710 0.901000
0.016606 0.034530 0.882000
0.005063 -0.004008 0.895000
0.033042 0.015889 0.875000
0.015916 0.017872 0.884000
0.028834 0.030377 0.857000
-0.031143 -0.040612 0.898000
0.032756 0.011594 0.877000
0.038824 0.005551 0.892000
-0.007848 0.019242 0.897000
0.020237 0.019283 0.882000
0.028424 0.022784 0.877000
-0.018369 -0.033516 0.906000
0.010834 0.036104 0.885000
0.027061 0.035411 0.868000
-0.008625 -0.032960 0.901000
-0.029197 -0.043423 0.895000
0.001739 0.024247 0.891000
0.023088 0.023586 0.880000
0.026348 0.005114 0.880000
-0.031337 -0.043326 0.893000
0.007573 0.040202 0.887000
-0.003791 -0.030632 0.898000
-0.007504 -0.025515 0.900000
-0.008615 0.012639 0.900000
0.031745 0.006917 0.879000
0.001012 -0.035358 0.896000
-0.016840 -0.013722 0.904000
0.016133 0.037540 0.876000
0.029643 0.031545 0.860000
0.007322 0.007461 0.901000
0.015360 -0.024241 0.894000
0.011589 0.012091 0.887000
-0.005276 0.010035 0.899000
0.003573 0.018380 0.891000
-0.032803 -0.004787 0.903000
-0.004170 -0.044406 0.900000
0.002894 -0.047791 0.908000
0.018934 -0.015690 0.889000
0.033685 0.027351 0.873000
0.019555 -0.004322 0.884000
-0.025164 -0.025396 0.909000
-0.024735 -0.002942 0.907000
-0.037178 -0.022802 0.910000
0.027797 0.002941 0.880000
-0.026315 -0.034413 0.910000
-0.017231 -0.034596 0.905000
0.023786 0.023559 0.879000
0.002833 0.037731 0.889000
0.013749 0.010971 0.885000
-0.026287 -0.038490 0.909000
0.028523 0.035094 0.869000
0.015189 0.013870 0.884000
0.028063 0.023145 0.877000
0.020650 -0.022551 0.900000
0.033723 0.024145 0.874000
0.023158 0.037598 0.869000
-0.012676 0.015955 0.899000
-0.022171 -0.017913 0.909000
0.025595 0.017409 0.879000
0.004689 -0.031232 0.894000
-0.000462 0.030883 0.892000
-0.008208 0.023277 0.896000
-0.001570 -0.019870 0.896000
0.008313 0.016491 0.888000
0.024220 0.032455 0.856000
0.014129 -0.005061 0.886000
0.004015 -0.047043 0.908000
-0.020979 -0.009650 0.906000
0.005425 -0.005475 0.894000
-0.001941 -0.032813 0.897000
-0.001570 -0.026876 0.896000
0.016520 -0.025061 0.897000
0.020600 0.008393 0.882000
0.016682 0.021559 0.886000
-0.025855 -0.001075 0.907000
0.023759 0.031844 0.878000
0.015570 0.002229 0.885000
-0.027065 -0.018682 0.910000
-0.017896 0.007461 0.901000
0.007224 0.032975 0.889000
-0.014591 -0.015565 0.903000
-0.033435 -0.002919 0.900000
-0.024416 -0.027266 0.909000
0.024900 0.006201 0.880000
-0.020629 -0.034299 0.907000
0.005419 -0.028257 0.893000
-0.008245 -0.023663 0.900000
0.009033 0.017567 0.887000
-0.006393 -0.037739 0.900000
0.011903 -0.040450 0.911000
-0.022520 -0.031347 0.908000
0.003949 -0.015025 0.893000
0.012785 -0.026449 0.894000
0.032681 0.020571 0.875000
0.031241 0.024892 0.875000
-0.011618 -0.038608 0.903000
0.010494 0.018297 0.887000
0.022002 0.018515 0.880000
-0.014979 -0.018559 0.904000
0.018785 0.026544 0.882000
0.034083 0.021986 0.874000
-0.008236 -0.015496 0.899000
-0.000464 0.016639 0.896000
0.034482 0.016609 0.875000
0.022027 0.016723 0.881000
0.017046 0.022653 0.886000
-0.016431 0.007469 0.902000
-0.009727 -0.016995 0.900000
0.014097 0.034244 0.884000
-0.033506 -0.026230 0.912000
-0.005328 -0.045549 0.908000
0.014512 -0.036660 0.910000
-0.013476 0.003018 0.903000
0.019533 -0.000683 0.883000
-0.009336 0.016676 0.898000
-0.033094 -0.020952 0.911000
0.002827 0.043487 0.887000
0.001010 -0.026110 0.895000
0.011995 0.002242 0.890000
-0.018638 0.007832 0.901000
0.018442 0.004405 0.883000
-0.003422 -0.034328 0.898000
0.003585 -0.025713 0.894000
-0.020300 -0.020158 0.909000
-0.017448 0.013335 0.897000
0.037046 0.015547 0.876000
-0.028969 -0.025452 0.911000
-0.031247 0.000045 0.901000
-0.002685 -0.042137 0.899000
-0.014979 -0.034930 0.904000
0.004316 -0.022376 0.893000
-0.028937 -0.011940 0.910000
0.006140 -0.014991 0.891000
-0.030127 -0.032987 0.912000
-0.037259 -0.016846 0.912000
0.016663 0.019713 0.885000
0.006874 -0.015725 0.891000
0.025595 0.007641 0.879000
-0.016840 -0.003304 0.904000
0.040015 0.004460 0.894000
0.025595 0.010535 0.879000
0.010849 -0.044868 0.917000
-0.026287 -0.023899 0.909000
-0.018247 0.008935 0.900000
0.011211 0.017912 0.886000
0.017686 -0.025885 0.900000
0.014113 0.015342 0.885000
-0.030436 -0.010068 0.910000
-0.010097 0.011157 0.900000
-0.020583 -0.004053 0.905000
0.010254 -0.033220 0.898000
0.009709 0.040701 0.882000
0.001377 -0.021665 0.894000
0.011968 -0.007266 0.888000
0.019040 -0.020193 0.894000
0.034083 0.018029 0.874000
-0.001943 -0.040242 0.898000
0.005051 -0.012085 0.893000
0.026980 0.025671 0.877000
-0.003425 -0.043247 0.899000
0.009786 -0.006176 0.889000
-0.032876 -0.005915 0.905000
0.032506 0.006925 0.880000
-0.009367 -0.037039 0.901000
0.008350 0.002247 0.892000
-0.020583 -0.000700 0.905000
-0.009705 0.017046 0.898000
-0.042886 -0.007025 0.904000
0.030834 0.000771 0.884000
0.032626 0.031336 0.864000
-0.030607 -0.002188 0.904000
0.007522 0.042468 0.881000
0.029278 -0.006564 0.892000
-0.016149 -0.023473 0.907000
0.022700 0.026453 0.879000
0.007607 -0.008024 0.891000
0.018672 -0.020561 0.894000
0.043181 0.010312 0.891000
-0.010802 0.019980 0.897000
0.022027 0.006933 0.881000
0.022339 0.031880 0.879000
-0.024572 -0.044827 0.901000
-0.022073 0.000045 0.905000
0.001013 -0.037244 0.897000
0.017675 0.034491 0.881000
0.016644 0.018963 0.884000
-0.032432 -0.037493 0.903000
-0.029719 -0.016828 0.911000
0.008756 -0.033146 0.896000
0.000274 -0.026846 0.895000
-0.019509 -0.024220 0.907000
0.012333 -0.009093 0.888000
-0.008245 0.013750 0.900000
-0.014446 0.020282 0.894000
-0.005996 0.019958 0.896000
0.009775 0.024897 0.888000
0.020600 0.020009 0.882000
0.001739 0.026081 0.891000
-0.019882 -0.039152 0.907000
0.005034 0.017627 0.890000
0.006804 0.044694 0.882000
-0.008245 0.011157 0.900000
0.001379 -0.025741 0.895000
0.008331 -0.016074 0.890000
-0.008208 0.025490 0.896000
-0.000095 -0.016164 0.895000
0.034044 0.025554 0.873000
-0.031629 -0.025104 0.912000
0.035162 0.017310 0.874000
-0.009738 -0.012193 0.901000
-0.006756 -0.026226 0.899000
0.037172 0.011620 0.879000
0.027734 0.015221 0.878000
-0.031351 -0.002932 0.904000
-0.007883 0.010057 0.901000
-0.020583 0.000417 0.905000
0.005425 -0.030864 0.894000
0.033478 0.011594 0.877000
-0.016131 -0.025312 0.906000
0.021664 0.011647 0.881000
0.005748 0.042027 0.887000
0.044813 0.014647 0.887000
0.010403 -0.042324 0.911000
0.003581 -0.023479 0.893000
0.012319 0.010266 0.887000
0.015223 -0.010896 0.886000
-0.007883 -0.037410 0.901000
-0.033058 -0.033289 0.910000
-0.001559 0.040704 0.890000
-0.008254 0.003382 0.901000
0.014825 0.017872 0.884000
0.010152 -0.008006 0.889000
-0.030502 -0.032236 0.912000
-0.018328 -0.005164 0.904000
-0.019444 -0.004420 0.904000
0.025041 -0.005784 0.885000
0.007565 0.041250 0.886000
-0.005646 -0.036217 0.899000
-0.034366 -0.034596 0.905000
-0.020583 -0.010385 0.905000
0.006529 -0.002164 0.894000
-0.021701 -0.001818 0.905000
-0.013119 -0.029721 0.904000
0.016006 -0.017153 0.889000
-0.000465 -0.011413 0.898000
-0.007883 0.009686 0.901000
-0.031082 -0.036539 0.907000
-0.020910 0.010451 0.903000
0.008707 -0.005457 0.891000
0.019148 0.026907 0.882000
0.016317 0.024111 0.886000
-0.005614 0.030584 0.894000
0.002481 -0.028288 0.894000
0.027319 -0.005804 0.888000
0.016644 0.027695 0.884000
-0.031705 -0.042958 0.893000
0.019555 0.020055 0.884000
-0.036389 -0.024648 0.909000
-0.004873 0.032388 0.893000
-0.010503 -0.005159 0.903000
-0.020629 -0.026087 0.907000
0.008341 -0.020859 0.891000
-0.021025 -0.039943 0.908000
-0.028219 -0.031076 0.911000
0.020716 -0.011273 0.887000
0.014161 -0.014941 0.888000
0.020279 -0.022922 0.900000
0.020459 -0.027984 0.908000
0.001379 -0.025373 0.895000
-0.022894 -0.022378 0.908000
0.023451 0.008736 0.880000
-0.005217 0.038097 0.889000
-0.025656 -0.045147 0.900000
-0.003745 0.043122 0.887000
-0.012747 -0.004420 0.904000
-0.034839 -0.002912 0.898000
0.037492 0.012691 0.878000
-0.006016 -0.032147 0.899000
0.024871 0.022112 0.879000
0.006653 -0.046074 0.911000
0.036476 0.028364 0.871000
-0.037178 -0.023926 0.910000
0.023813 0.014169 0.880000
0.016150 -0.025430 0.897000
-0.009748 -0.009237 0.902000
-0.003429 -0.007734 0.900000
-0.014963 0.003018 0.903000
-0.009377 -0.028170 0.902000
0.019851 0.029052 0.881000
-0.003422 -0.035807 0.898000
0.026620 0.024949 0.877000
0.008350 0.001513 0.892000
0.012684 -0.004337 0.887000
-0.015689 0.005242 0.902000
-0.002679 -0.026906 0.897000
-0.030878 -0.025855 0.912000
0.015922 -0.031616 0.905000
-0.003791 -0.027306 0.898000
-0.028188 -0.011191 0.910000
0.001009 -0.019825 0.894000
0.016372 -0.017153 0.889000
0.014841 0.019349 0.885000
-0.008625 -0.026285 0.901000
0.016317 0.024476 0.886000
0.010529 -0.020836 0.890000
0.019191 -0.006142 0.884000
-0.012361 0.001531 0.903000
-0.021352 -0.044702 0.906000
-0.026287 -0.022777 0.909000
0.016704 -0.032059 0.907000
-0.020956 -0.000700 0.905000
0.025409 -0.015109 0.898000
0.012642 0.038247 0.884000
-0.006756 -0.024746 0.899000
-0.017564 0.003018 0.903000
-0.006778 -0.004782 0.902000
