0.046460 -0.021084 0.870000
0.017234 0.018452 0.877000
0.017214 -0.001038 0.876000
-0.039574 0.008012 0.880000
-0.009521 0.011647 0.881000
-0.015236 -0.008249 0.876000
0.035243 0.008336 0.876000
-0.005895 0.011284 0.881000
0.018952 -0.016485 0.873000
-0.000092 -0.020101 0.874000
0.034122 -0.002118 0.875000
-0.006293 -0.027306 0.886000
-0.002611 -0.020101 0.874000
-0.036356 0.019987 0.881000
0.035563 0.004725 0.875000
0.014657 -0.011468 0.874000
0.019378 0.009057 0.876000
0.009687 0.011996 0.880000
-0.029466 0.022525 0.881000
0.012932 0.005832 0.879000
0.030951 0.009428 0.877000
0.010328 -0.016126 0.873000
-0.024251 -0.018345 0.876000
-0.002987 -0.006107 0.879000
-0.021029 -0.022336 0.877000
-0.017740 -0.018684 0.875000
0.031998 -0.003923 0.876000
0.001353 -0.025975 0.878000
-0.033779 0.008736 0.880000
-0.010585 0.018494 0.879000
-0.019901 -0.017243 0.875000
-0.023275 0.017429 0.880000
0.044773 -0.009288 0.872000
-0.020331 0.004018 0.878000
0.025061 0.022680 0.873000
0.010737 0.020979 0.877000
-0.008163 -0.028193 0.891000
-0.029103 0.021800 0.881000
0.034364 -0.011083 0.872000
0.028687 -0.009310 0.874000
-0.018044 -0.027063 0.890000
-0.019246 0.025701 0.878000
-0.017400 -0.008610 0.876000
0.021902 0.006533 0.876000
-0.014219 0.010909 0.880000
0.020749 -0.013611 0.873000
-0.022473 -0.003205 0.877000
0.040466 -0.012877 0.872000
-0.012422 0.008383 0.881000
-0.050225 0.001475 0.870000
-0.037081 0.014910 0.881000
-0.025448 0.009823 0.880000
-0.020284 -0.020868 0.876000
0.017555 -0.001757 0.875000
0.037910 -0.017881 0.871000
0.048460 -0.019448 0.861000
-0.041291 -0.020916 0.878000
0.025750 -0.022926 0.872000
0.033839 0.007623 0.877000
-0.006967 -0.008278 0.879000
-0.018907 0.013791 0.879000
0.009610 -0.021875 0.873000
0.026229 0.014105 0.876000
0.025886 -0.030691 0.889000
0.014297 -0.011468 0.874000
-0.003690 -0.019742 0.874000
0.018296 0.000764 0.876000
-0.011978 -0.012561 0.875000
0.035441 -0.025439 0.872000
-0.021342 -0.019044 0.875000
0.002075 -0.008991 0.878000
-0.020645 -0.020508 0.876000
0.039839 0.005799 0.874000
-0.017098 0.007279 0.879000
0.046872 -0.009636 0.871000
-0.000093 0.012735 0.881000
0.004967 0.018112 0.878000
0.032569 -0.017543 0.872000
0.002442 0.010547 0.880000
-0.003719 0.012735 0.881000
0.011766 -0.023671 0.873000
0.038268 -0.022542 0.871000
-0.052247 0.002526 0.862000
-0.035188 0.000043 0.879000
0.032358 -0.004644 0.876000
-0.019605 0.029490 0.862000
0.042309 0.005433 0.873000
0.014346 0.019535 0.877000
-0.021439 0.013068 0.879000
0.039434 -0.022953 0.873000
0.032756 0.006180 0.877000
-0.043099 -0.018333 0.893000
0.042357 0.012633 0.874000
-0.035870 -0.006100 0.878000
0.035923 0.007246 0.875000
-0.010609 0.011647 0.881000
-0.022087 -0.011855 0.876000
-0.033054 0.007287 0.880000
-0.017370 -0.027889 0.893000
0.033646 -0.013236 0.872000
0.002434 0.020979 0.877000
0.021802 -0.018979 0.872000
-0.001893 0.021291 0.875000
-0.043608 0.012009 0.881000
0.042309 0.002558 0.873000
0.024342 -0.007862 0.873000
-0.007761 -0.027337 0.887000
0.027279 -0.001397 0.875000
-0.003330 -0.015065 0.874000
-0.005182 0.009493 0.883000
-0.010645 -0.026517 0.884000
-0.025332 -0.011134 0.876000
-0.028806 0.026602 0.872000
0.035202 0.001484 0.875000
-0.043971 0.015635 0.881000
-0.032220 -0.020531 0.877000
-0.019854 -0.026667 0.889000
-0.023169 -0.010773 0.876000
0.014640 -0.015407 0.873000
0.032210 -0.017543 0.872000
0.012570 0.014153 0.879000
-0.048212 0.004747 0.879000
-0.037443 0.018174 0.881000
-0.042110 0.008374 0.880000
-0.025029 -0.002848 0.878000
-0.032367 0.010559 0.881000
0.045955 -0.021540 0.874000
-0.014125 -0.028752 0.897000
-0.016030 0.018877 0.880000
-0.022574 0.027876 0.867000
0.017874 -0.013611 0.873000
0.003163 0.017409 0.879000
-0.015668 0.022499 0.880000
-0.022499 0.004741 0.878000
-0.005129 -0.016504 0.874000
-0.028153 0.029524 0.863000
-0.001549 -0.027244 0.884000
-0.022473 -0.006815 0.877000
0.022161 -0.024003 0.872000
-0.033618 -0.026846 0.895000
0.010773 0.013445 0.880000
0.038488 0.016628 0.876000
0.046818 -0.019651 0.870000
-0.017117 0.022137 0.880000
-0.016679 -0.007168 0.876000
0.007496 0.019557 0.878000
-0.001178 0.017771 0.879000
0.036159 0.022295 0.872000
0.019693 -0.009310 0.874000
0.008942 0.017750 0.878000
0.011406 -0.019719 0.873000
0.008210 0.020257 0.877000
-0.010223 0.016685 0.879000
0.041853 -0.019315 0.871000
0.043646 -0.002108 0.871000
-0.010525 -0.018303 0.874000
-0.033817 0.019261 0.881000
0.000991 0.018473 0.878000
0.002836 -0.028894 0.890000
-0.006272 0.009129 0.883000
0.022545 -0.014689 0.873000
-0.041492 -0.026197 0.898000
-0.002991 0.015980 0.880000
-0.049225 0.010011 0.865000
-0.018524 0.003657 0.878000
0.039164 0.007966 0.875000
-0.028610 -0.011868 0.877000
-0.017760 -0.012215 0.876000
0.013640 0.017028 0.878000
-0.001902 0.017409 0.879000
-0.013133 0.020326 0.880000
0.047067 -0.015090 0.855000
0.002805 0.010909 0.880000
-0.027496 -0.012215 0.876000
-0.026927 0.006570 0.881000
-0.009159 0.007296 0.881000
0.008210 0.020618 0.877000
0.013278 0.014498 0.878000
-0.033664 -0.010785 0.877000
-0.039529 0.002938 0.879000
0.033287 -0.025798 0.872000
0.025838 -0.000317 0.875000
0.020436 -0.001757 0.875000
-0.007691 0.019218 0.879000
-0.036510 -0.016902 0.876000
-0.001891 -0.020461 0.874000
0.015000 -0.017922 0.873000
0.027639 -0.002838 0.875000
-0.028185 0.025973 0.875000
-0.017400 -0.021589 0.876000
-0.048212 0.005470 0.879000
0.003533 0.013097 0.881000
-0.015271 -0.002848 0.878000
0.041590 -0.003909 0.873000
0.006419 0.017047 0.879000
-0.029136 0.009845 0.882000
0.019671 -0.011096 0.873000
0.025838 0.004725 0.875000
-0.024752 -0.024614 0.881000
-0.031208 -0.023111 0.879000
-0.009138 -0.025281 0.879000
0.011833 -0.005377 0.878000
-0.031641 0.017448 0.881000
0.007858 -0.006823 0.878000
0.022879 -0.024003 0.872000
0.024758 0.001484 0.875000
0.025507 0.013383 0.876000
-0.035549 0.000043 0.879000
0.018996 0.002204 0.875000
-0.025693 -0.018345 0.876000
0.005663 0.021986 0.874000
0.030520 -0.028047 0.875000
-0.017440 0.003657 0.878000
-0.032330 0.000768 0.880000
-0.012698 0.025613 0.875000
0.015103 0.009450 0.879000
-0.029499 0.011297 0.882000
0.026559 -0.003558 0.875000
-0.011322 0.014169 0.880000
-0.037677 -0.008991 0.878000
-0.005533 0.014185 0.881000
0.015000 -0.013611 0.873000
0.041183 -0.013236 0.872000
-0.017801 -0.000679 0.878000
-0.035549 0.002938 0.879000
-0.004419 -0.024113 0.876000
-0.026836 -0.022723 0.878000
-0.024306 0.001489 0.878000
-0.040522 -0.016922 0.877000
0.028654 -0.012533 0.873000
-0.024721 -0.027154 0.893000
-0.021776 0.000405 0.878000
0.025478 0.002924 0.875000
-0.018286 -0.025789 0.884000
-0.037316 -0.009352 0.878000
0.042570 -0.018957 0.871000
-0.009511 0.002579 0.880000
-0.035228 0.006563 0.880000
0.015808 0.010523 0.878000
0.036919 -0.004987 0.873000
-0.031279 0.017811 0.881000
-0.018928 0.020688 0.880000
-0.006236 0.019919 0.878000
0.030739 -0.022542 0.871000
0.006735 -0.018282 0.873000
0.013922 -0.019360 0.873000
-0.044594 0.001491 0.879000
-0.028047 0.007304 0.882000
0.026468 -0.015390 0.872000
0.030625 0.008355 0.878000
-0.029499 -0.024278 0.882000
0.014281 -0.023312 0.873000
-0.015615 -0.005371 0.877000
-0.004796 0.017047 0.879000
-0.033092 0.014185 0.881000
-0.018183 0.015238 0.879000
-0.039256 0.016723 0.881000
-0.010947 0.017047 0.879000
-0.017020 -0.016883 0.875000
-0.009918 -0.026517 0.884000
0.030486 -0.009310 0.874000
0.026559 -0.000677 0.875000
-0.006575 -0.014002 0.875000
0.035603 0.016989 0.876000
0.017214 0.001485 0.876000
0.036366 -0.029194 0.877000
-0.012032 -0.004298 0.879000
-0.021077 -0.024196 0.879000
-0.017400 -0.009331 0.876000
0.026980 0.017369 0.877000
0.000267 -0.021900 0.874000
-0.025448 0.007649 0.880000
-0.039846 -0.003570 0.878000
-0.045732 0.004752 0.880000
0.042570 -0.016447 0.871000
-0.004785 -0.010424 0.877000
0.021205 0.018813 0.877000
-0.004419 -0.011855 0.876000
-0.012019 -0.024530 0.878000
0.039164 0.018770 0.875000
0.005304 -0.016504 0.874000
-0.037720 -0.000680 0.879000
-0.023142 -0.017963 0.875000
-0.021101 0.016704 0.880000
-0.019969 -0.000318 0.878000
-0.034386 -0.012590 0.877000
-0.032330 0.002579 0.880000
0.007513 0.011271 0.880000
-0.000816 0.019557 0.878000
-0.010223 0.021027 0.879000
0.031348 0.009439 0.878000
-0.006613 0.016342 0.880000
-0.014927 -0.000318 0.879000
0.032358 -0.002481 0.876000
0.019289 -0.022209 0.872000
0.020366 -0.018979 0.872000
0.040871 -0.003550 0.873000
0.037193 -0.022183 0.871000
-0.029103 0.001857 0.881000
0.047067 -0.003829 0.855000
-0.035509 -0.006823 0.878000
-0.014582 0.004028 0.880000
-0.029004 -0.005739 0.878000
-0.023890 -0.015821 0.876000
-0.019563 -0.014379 0.876000
0.043188 0.005408 0.869000
0.048274 -0.020227 0.864000
-0.006215 -0.013642 0.875000
-0.013449 -0.007176 0.877000
-0.028378 0.001131 0.881000
-0.025014 0.028524 0.865000
0.014640 -0.017922 0.873000
-0.026565 0.008021 0.881000
0.002785 -0.013626 0.874000
-0.034180 0.014910 0.881000
0.000267 -0.020101 0.874000
-0.019203 -0.012936 0.876000
0.020436 0.004005 0.875000
-0.010910 -0.022671 0.876000
-0.032293 0.023921 0.879000
0.026827 -0.022568 0.872000
-0.013495 0.020326 0.880000
-0.048519 0.006548 0.878000
0.008219 -0.008268 0.878000
0.023983 -0.012892 0.873000
-0.017801 0.006548 0.878000
0.045797 -0.011070 0.871000
-0.037995 -0.017644 0.877000
-0.041338 0.000767 0.879000
-0.006983 0.012372 0.881000
-0.010585 -0.005745 0.879000
0.009261 -0.014705 0.874000
0.002782 -0.020797 0.873000
-0.008071 0.008746 0.881000
-0.039619 0.017086 0.881000
-0.011322 0.001492 0.880000
0.036685 0.016268 0.876000
0.019039 -0.027389 0.877000
-0.031931 -0.004298 0.879000
-0.010235 0.002217 0.880000
-0.014927 0.001852 0.879000
-0.048377 -0.003950 0.882000
-0.040299 0.009098 0.880000
-0.020331 0.001489 0.878000
-0.002984 -0.008991 0.878000
-0.038806 -0.002127 0.879000
-0.046094 0.010909 0.880000
0.023264 -0.013970 0.873000
0.030381 -0.021825 0.871000
-0.024278 -0.008259 0.877000
0.017595 0.018813 0.877000
0.022905 -0.015407 0.873000
0.018614 -0.007511 0.874000
-0.029136 0.006941 0.882000
-0.034503 0.012720 0.880000
0.008580 -0.007907 0.878000
0.024673 -0.015748 0.872000
-0.041795 0.015273 0.881000
-0.004073 0.017047 0.879000
0.023651 -0.003194 0.874000
0.038040 0.004000 0.874000
0.034364 -0.010724 0.872000
0.016493 -0.004644 0.876000
0.038804 0.018410 0.875000
-0.006967 0.019218 0.879000
0.023732 0.017008 0.877000
0.005346 -0.027152 0.881000
0.015718 -0.013251 0.873000
-0.027684 0.010571 0.882000
-0.034025 -0.012229 0.877000
0.001718 -0.026759 0.880000
0.031673 -0.001401 0.877000
0.009980 -0.024058 0.874000
-0.025992 0.030554 0.862000
0.037193 -0.017881 0.871000
-0.031498 -0.011146 0.877000
0.012917 -0.000318 0.878000
0.021852 -0.007871 0.874000
0.013969 -0.007528 0.876000
-0.024695 0.003299 0.879000
-0.013418 -0.015443 0.875000
0.013203 -0.014329 0.873000
0.011846 0.006555 0.879000
-0.023972 0.005470 0.879000
-0.022886 0.009811 0.879000
0.009654 -0.008259 0.877000
-0.019630 0.012706 0.879000
0.040419 -0.018957 0.871000
0.012125 -0.021156 0.873000
0.023955 -0.020773 0.872000
-0.034865 0.012720 0.880000
0.015772 -0.004644 0.876000
0.015429 -0.004288 0.877000
0.009303 -0.007184 0.878000
-0.023890 -0.019066 0.876000
-0.036551 -0.020531 0.877000
0.036283 0.004725 0.875000
0.026827 -0.020773 0.872000
-0.048048 0.015907 0.876000
-0.039439 -0.019809 0.877000
-0.028015 -0.000319 0.881000
-0.016158 -0.026607 0.887000
-0.029253 0.029202 0.864000
0.000267 0.021986 0.874000
-0.032729 0.017086 0.881000
-0.012422 0.007296 0.881000
0.035800 -0.010006 0.872000
-0.026444 -0.006454 0.877000
-0.026474 -0.022723 0.878000
0.015826 0.008003 0.879000
0.019356 0.021651 0.875000
-0.001900 -0.009714 0.878000
-0.014203 -0.002489 0.879000
-0.015289 0.024644 0.879000
-0.006605 0.017409 0.879000
-0.039619 -0.023163 0.881000
0.026589 0.013023 0.876000
-0.041909 -0.026226 0.899000
-0.009457 -0.021565 0.875000
-0.009862 -0.004660 0.879000
-0.008736 -0.016883 0.875000
0.002824 -0.028035 0.886000
0.012208 0.002576 0.879000
-0.029067 -0.025626 0.891000
-0.009862 -0.006469 0.879000
0.002434 0.020618 0.877000
-0.047127 0.010897 0.879000
-0.016698 -0.004288 0.877000
-0.036273 0.002938 0.879000
0.034005 -0.014313 0.872000
-0.029432 -0.003578 0.880000
-0.041722 -0.025741 0.895000
0.017595 0.008345 0.877000
0.040199 0.005439 0.874000
0.037321 0.004360 0.874000
-0.025332 -0.017263 0.876000
-0.018842 -0.022311 0.876000
-0.018885 0.006909 0.878000
-0.023890 -0.014018 0.876000
0.022983 0.010499 0.876000
-0.013841 0.015962 0.879000
0.006030 -0.012561 0.875000
0.027935 -0.010377 0.873000
0.022957 0.005805 0.875000
-0.027135 -0.014018 0.876000
0.007813 -0.020078 0.873000
0.004938 -0.017922 0.873000
-0.019246 -0.000318 0.878000
-0.026202 0.022525 0.881000
0.035243 0.009778 0.876000
-0.018566 0.022862 0.880000
0.046140 -0.002802 0.864000
0.043903 0.006123 0.869000
0.036559 -0.002472 0.873000
-0.022653 -0.025425 0.884000
-0.025029 0.000043 0.878000
0.022623 0.007975 0.876000
0.032719 0.010499 0.876000
-0.003690 -0.021540 0.874000
0.025463 -0.029162 0.887000
0.029339 -0.019337 0.872000
-0.037634 -0.019448 0.877000
-0.022448 -0.013297 0.876000
-0.005855 -0.015082 0.875000
0.025868 0.012302 0.876000
-0.015939 -0.014722 0.875000
0.008172 -0.019360 0.873000
-0.002256 -0.011134 0.876000
-0.017059 -0.004649 0.877000
0.044721 -0.018240 0.871000
-0.029131 0.026930 0.871000
-0.014139 -0.013282 0.875000
0.036961 -0.000676 0.874000
-0.043971 0.010559 0.881000
-0.023195 -0.002844 0.877000
-0.005855 0.022732 0.875000
-0.017098 0.025368 0.879000
-0.039800 -0.019448 0.877000
-0.026774 -0.017984 0.876000
-0.043921 0.009460 0.880000
-0.051597 0.008922 0.863000
-0.007673 -0.024502 0.877000
-0.001172 0.021627 0.874000
0.044261 0.004693 0.869000
-0.039167 0.020665 0.879000
0.025118 0.006886 0.875000
0.014707 -0.004288 0.877000
0.034683 -0.023259 0.871000
0.030229 -0.003566 0.877000
0.013937 -0.012547 0.874000
0.037551 -0.020391 0.871000
0.046460 -0.004612 0.870000
-0.051123 0.005358 0.861000
0.039389 -0.009647 0.872000
0.031673 0.000043 0.877000
-0.015289 0.025006 0.879000
-0.023637 0.012358 0.880000
0.007094 -0.019360 0.873000
-0.042834 0.006563 0.880000
-0.021826 0.024310 0.880000
0.032358 -0.001759 0.876000
-0.002994 0.010559 0.881000
-0.017740 -0.020124 0.875000
-0.028872 0.026303 0.874000
-0.002623 -0.025614 0.878000
0.020749 -0.016485 0.873000
-0.005495 -0.023005 0.875000
0.006750 -0.025166 0.875000
0.010749 0.018473 0.878000
0.027671 0.004009 0.876000
0.011098 0.020257 0.877000
0.000628 -0.023365 0.875000
-0.022525 -0.023834 0.879000
-0.036314 0.020326 0.880000
-0.047851 -0.001042 0.879000
-0.025274 0.026303 0.874000
0.036200 -0.007502 0.873000
0.008532 -0.016844 0.873000
0.021827 -0.013251 0.873000
0.031673 -0.001040 0.877000
-0.027983 -0.023861 0.880000
0.015085 -0.001041 0.878000
0.029902 0.006909 0.878000
-0.024972 -0.011855 0.876000
0.018505 -0.029494 0.886000
-0.004785 0.020618 0.877000
-0.004073 0.018494 0.879000
0.024815 0.019535 0.877000
0.015447 0.002212 0.878000
-0.032942 -0.007537 0.877000
-0.016299 -0.020124 0.875000
0.017156 -0.016485 0.873000
-0.012408 -0.001767 0.880000
-0.004054 -0.023005 0.875000
-0.021801 0.009811 0.879000
0.033079 0.016989 0.876000
-0.013841 -0.002851 0.879000
0.017595 0.017008 0.877000
0.013218 0.021986 0.874000
0.017214 -0.001759 0.876000
-0.019674 0.028524 0.865000
0.021927 0.019896 0.877000
-0.021464 0.019240 0.880000
0.036876 -0.009288 0.872000
-0.033740 -0.000318 0.879000
0.014281 -0.016844 0.873000
-0.046094 0.013807 0.880000
0.010700 -0.013267 0.874000
0.021812 -0.029162 0.887000
-0.049242 0.001127 0.878000
-0.002261 0.019919 0.878000
-0.009895 -0.026094 0.882000
0.028392 0.012662 0.876000
-0.026083 -0.010424 0.877000
0.032719 0.010860 0.876000
0.025898 0.017008 0.877000
0.031709 0.004741 0.878000
-0.000813 -0.023005 0.875000
-0.040299 0.008736 0.880000
0.010423 -0.003220 0.881000
0.016531 0.010884 0.878000
-0.014876 -0.012215 0.876000
0.041949 0.001121 0.873000
0.036685 0.014465 0.876000
-0.024972 -0.014379 0.876000
-0.013841 -0.002489 0.879000
-0.004769 -0.019022 0.874000
-0.019100 -0.026637 0.888000
-0.006244 -0.007554 0.879000
-0.047578 0.014072 0.874000
0.002068 -0.013282 0.875000
0.037278 -0.004269 0.873000
0.036961 0.000763 0.874000
-0.048103 0.010150 0.877000
0.044055 -0.007494 0.872000
-0.001178 0.018494 0.879000
-0.029332 -0.009342 0.877000
-0.051123 0.004649 0.861000
-0.035024 -0.024333 0.884000
-0.031279 0.012009 0.881000
-0.027464 0.025973 0.875000
-0.016698 0.026032 0.877000
0.023983 -0.010018 0.873000
-0.022808 -0.010413 0.876000
0.026199 0.004365 0.875000
0.001006 -0.028927 0.891000
0.035603 0.017349 0.876000
0.035441 -0.011442 0.872000
0.038400 0.003281 0.874000
-0.021702 -0.019044 0.875000
0.008921 -0.010413 0.876000
0.030229 -0.003205 0.877000
0.005051 -0.029727 0.893000
0.026857 0.023398 0.873000
-0.020215 0.026632 0.873000
-0.049151 0.007921 0.870000
-0.016679 -0.010773 0.876000
0.015754 -0.025886 0.875000
-0.007691 0.019941 0.879000
-0.022339 -0.025847 0.886000
-0.008043 0.020641 0.878000
-0.012408 0.001492 0.880000
-0.031641 0.000044 0.881000
-0.009873 0.001854 0.880000
0.022212 -0.003194 0.874000
-0.022089 0.029135 0.862000
-0.017098 0.015600 0.879000
0.000989 -0.011134 0.876000
-0.026414 -0.017263 0.876000
0.038040 0.005439 0.874000
-0.045732 0.015618 0.880000
-0.013480 0.023921 0.879000
-0.025086 0.008012 0.880000
-0.029659 -0.018345 0.876000
-0.039982 0.012372 0.881000
0.015790 -0.001040 0.877000
-0.035148 -0.003209 0.878000
0.031348 0.005825 0.878000
-0.023890 -0.021229 0.876000
-0.036635 0.002576 0.879000
-0.025448 0.016704 0.880000
-0.023556 -0.021975 0.877000
-0.032004 0.011284 0.881000
0.047122 -0.019271 0.869000
-0.001549 0.009503 0.884000
0.028360 -0.007880 0.875000
-0.004073 -0.006107 0.879000
0.048854 -0.021035 0.868000
0.025750 -0.024362 0.872000
0.031815 -0.023976 0.871000
-0.010609 0.004757 0.881000
-0.047489 0.009450 0.879000
0.029339 -0.017902 0.872000
0.028031 0.012302 0.876000
-0.030191 0.014548 0.881000
0.035759 -0.016806 0.871000
-0.007708 0.013822 0.881000
0.021517 0.021651 0.875000
0.029698 -0.014313 0.872000
-0.010897 -0.018324 0.875000
0.019693 0.021986 0.874000
0.007200 -0.028400 0.886000
0.047673 -0.019917 0.866000
-0.001552 -0.027670 0.886000
0.004961 0.020979 0.877000
0.018317 0.014843 0.877000
-0.025086 0.024673 0.880000
0.020122 0.019174 0.877000
-0.006583 -0.010773 0.876000
-0.034542 0.014910 0.881000
-0.042520 -0.020625 0.881000
0.035122 -0.006784 0.873000
0.003145 -0.017583 0.874000
0.017156 -0.013251 0.873000
-0.012115 -0.026547 0.885000
-0.013495 -0.001043 0.880000
0.025449 -0.007151 0.874000
0.017956 -0.027389 0.877000
-0.001535 -0.011134 0.876000
-0.038806 -0.002489 0.879000
0.022545 -0.013970 0.873000
0.027671 0.013023 0.876000
-0.018183 0.025006 0.879000
0.043596 0.016514 0.870000
0.038127 0.017349 0.876000
-0.025419 -0.023472 0.879000
0.033839 0.007262 0.877000
0.023291 -0.007151 0.874000
0.042978 -0.006776 0.872000
-0.030415 -0.011146 0.877000
-0.014155 -0.012215 0.876000
-0.011697 -0.025701 0.881000
-0.003703 -0.024863 0.877000
0.017956 0.011594 0.877000
-0.022188 0.019240 0.880000
0.023651 -0.001036 0.874000
-0.019856 0.026632 0.873000
0.046934 -0.007029 0.859000
0.011779 -0.024418 0.874000
0.032891 -0.023617 0.871000
0.022237 0.004005 0.875000
-0.004059 -0.011855 0.876000
-0.026927 0.005483 0.881000
-0.025839 0.013097 0.881000
-0.009862 0.019218 0.879000
0.022545 -0.015767 0.873000
0.018657 0.007615 0.876000
-0.017821 0.025368 0.879000
-0.011991 -0.023392 0.876000
0.046818 -0.018219 0.870000
0.039884 0.010847 0.875000
-0.044645 0.002217 0.880000
0.013263 -0.006815 0.877000
-0.021221 -0.025818 0.885000
0.004684 -0.029727 0.893000
0.043646 -0.012504 0.871000
-0.047851 0.009088 0.879000
-0.037677 -0.006823 0.878000
0.032607 -0.010018 0.873000
0.017234 0.013760 0.877000
-0.035268 0.014548 0.881000
0.014741 0.004385 0.879000
0.041949 -0.002113 0.873000
0.038715 -0.005706 0.873000
0.020122 0.014482 0.877000
0.011047 -0.020078 0.873000
-0.024723 0.024673 0.880000
-0.001176 -0.025585 0.877000
0.011060 0.023425 0.874000
-0.031968 0.002579 0.880000
-0.002970 -0.019742 0.874000
-0.019246 0.002212 0.878000
0.030451 -0.026546 0.873000
0.004616 0.014893 0.880000
0.021877 -0.026967 0.875000
0.008600 0.015256 0.880000
-0.017841 0.018153 0.880000
-0.044283 0.021051 0.880000
0.034005 -0.013595 0.872000
-0.017440 0.004380 0.878000
-0.037039 0.006563 0.880000
0.003878 0.020618 0.877000
0.041495 -0.020032 0.871000
0.024314 -0.020414 0.872000
-0.013857 0.007649 0.880000
-0.016355 0.002212 0.878000
-0.039187 -0.026508 0.896000
-0.031859 -0.021253 0.877000
0.011981 -0.029594 0.889000
-0.013810 -0.008259 0.877000
-0.032581 -0.011868 0.877000
0.011498 0.005114 0.880000
-0.019630 0.010897 0.879000
-0.008071 -0.026064 0.881000
0.009687 0.013445 0.880000
0.028295 0.024117 0.873000
0.040466 -0.008571 0.872000
-0.012770 0.010909 0.880000
0.023732 0.015925 0.877000
0.033800 0.010499 0.876000
-0.000831 -0.029392 0.894000
0.035759 -0.017881 0.871000
0.014001 0.015944 0.878000
-0.030415 0.025671 0.877000
-0.010585 0.017771 0.879000
-0.020645 -0.010773 0.876000
-0.040661 0.004028 0.880000
0.001353 -0.007545 0.878000
-0.034747 0.024949 0.877000
-0.006265 -0.026457 0.882000
-0.016717 -0.001402 0.878000
-0.008016 -0.023005 0.875000
-0.011309 0.021027 0.879000
0.010352 -0.011481 0.875000
-0.021801 0.010535 0.879000
0.020122 0.018091 0.877000
0.008191 -0.025166 0.875000
0.038400 0.020188 0.874000
-0.001531 -0.019382 0.874000
-0.025853 -0.027184 0.894000
0.008571 -0.010063 0.877000
-0.026565 0.022525 0.881000
0.029868 0.018813 0.877000
0.042309 -0.004269 0.873000
0.047122 -0.017840 0.869000
0.016418 -0.022209 0.872000
-0.012408 0.019964 0.880000
0.015085 0.015944 0.878000
-0.034386 0.024227 0.877000
-0.025839 0.020349 0.881000
-0.029499 0.006215 0.882000
-0.027856 -0.015460 0.876000
0.040918 0.007238 0.874000
0.027248 -0.009310 0.874000
0.030810 -0.026905 0.873000
-0.039619 0.017448 0.881000
0.042309 0.008667 0.873000
0.021467 0.023398 0.873000
-0.039012 -0.025655 0.892000
0.043287 -0.013221 0.871000
0.042260 -0.006058 0.872000
-0.019924 -0.014739 0.876000
0.037551 -0.025410 0.871000
0.047425 -0.016748 0.868000
-0.042062 -0.003574 0.879000
0.047547 -0.012217 0.851000
-0.009521 0.005483 0.881000
-0.005489 -0.018303 0.874000
0.020413 -0.002835 0.874000
0.033287 -0.016466 0.872000
-0.031822 -0.018705 0.876000
-0.016355 -0.002486 0.878000
0.001714 -0.008268 0.878000
-0.039982 0.015635 0.881000
-0.040892 -0.023997 0.885000
-0.026113 -0.002848 0.878000
-0.002269 0.009834 0.881000
-0.052007 0.013112 0.882000
0.011498 0.005839 0.880000
0.026528 -0.006072 0.874000
-0.029332 -0.011146 0.877000
0.027186 -0.019696 0.872000
0.034341 -0.031825 0.890000
-0.019653 -0.024586 0.880000
-0.031605 -0.001767 0.880000
-0.034905 0.015635 0.881000
-0.043921 0.007287 0.880000
0.013655 0.008726 0.879000
-0.022886 0.025368 0.879000
-0.008395 0.021340 0.877000
0.033079 0.001485 0.876000
-0.012338 -0.015082 0.875000
-0.025693 -0.013657 0.876000
0.015394 -0.006799 0.875000
0.035563 0.004365 0.875000
0.012208 0.006194 0.879000
-0.025810 0.015618 0.880000
0.015359 0.023039 0.873000
-0.022938 0.022525 0.881000
0.012556 -0.004293 0.878000
-0.047181 0.006201 0.880000
-0.029862 0.010571 0.882000
0.024758 0.002204 0.875000
0.027186 -0.023285 0.872000
0.042879 0.009353 0.870000
-0.025229 -0.028045 0.898000
0.022545 -0.009658 0.873000
0.007573 -0.028797 0.887000
-0.013133 0.011634 0.880000
0.039434 -0.003909 0.873000
0.039884 0.009407 0.875000
0.034522 0.006173 0.876000
-0.035628 -0.025598 0.890000
0.033608 -0.024334 0.871000
-0.035952 0.009098 0.880000
0.034161 0.009417 0.876000
0.035082 -0.014672 0.872000
-0.021390 -0.007176 0.877000
0.005670 -0.024806 0.875000
0.047197 -0.013968 0.851000
-0.015650 0.015238 0.879000
-0.006229 -0.010063 0.877000
-0.008786 -0.025672 0.880000
-0.003357 0.014910 0.881000
0.031348 0.004741 0.878000
-0.026143 0.000767 0.879000
-0.017078 0.004018 0.878000
-0.030191 0.019987 0.881000
0.039702 -0.015013 0.871000
0.008891 -0.020797 0.873000
0.038488 0.016268 0.876000
0.022186 -0.014329 0.873000
-0.015219 -0.016883 0.875000
-0.002614 -0.023365 0.875000
0.028031 0.003649 0.876000
0.031493 -0.013954 0.872000
-0.011684 0.013807 0.880000
-0.039167 0.000767 0.879000
0.009980 0.021986 0.874000
0.031673 -0.000318 0.877000
0.034882 0.010860 0.876000
-0.032655 -0.003213 0.879000
0.005696 0.017409 0.879000
0.045797 -0.009995 0.871000
-0.031279 0.012735 0.881000
0.023678 0.000763 0.875000
-0.005152 -0.008268 0.878000
0.009610 -0.022953 0.873000
0.026468 -0.022926 0.872000
0.036961 0.004000 0.874000
0.042309 -0.003550 0.873000
-0.018524 0.006548 0.878000
-0.002626 -0.005745 0.879000
0.017234 0.020257 0.877000
-0.021634 -0.026241 0.887000
0.000629 0.020979 0.877000
0.016835 0.021651 0.875000
0.013218 -0.010749 0.874000
-0.021464 0.018153 0.880000
-0.015289 0.011620 0.879000
-0.016755 0.022499 0.880000
-0.029253 0.028847 0.864000
0.012917 0.001127 0.878000
0.007462 -0.023339 0.874000
-0.022138 0.003657 0.878000
-0.018460 -0.020124 0.875000
-0.001926 -0.028528 0.890000
-0.016736 0.005832 0.879000
0.029664 -0.022542 0.871000
0.037321 0.000763 0.874000
-0.003707 -0.025614 0.878000
-0.035148 -0.006100 0.878000
0.027186 -0.017902 0.872000
-0.005158 -0.007192 0.879000
-0.041605 0.020979 0.877000
0.026950 0.007975 0.876000
0.022931 -0.001755 0.874000
-0.045007 0.016342 0.880000
-0.026172 0.014169 0.880000
-0.018503 -0.003205 0.877000
0.003882 0.019557 0.878000
0.019017 0.002567 0.876000
-0.002253 -0.023726 0.875000
-0.016030 0.024310 0.880000
0.027903 -0.014672 0.872000
0.006743 -0.013267 0.874000
0.023010 0.018452 0.877000
0.020076 -0.002118 0.875000
0.003882 -0.006823 0.878000
-0.015668 0.022862 0.880000
-0.008405 -0.008268 0.878000
0.021492 -0.004274 0.874000
0.019400 0.016647 0.877000
0.008532 -0.018641 0.873000
0.039059 -0.031789 0.889000
-0.034865 0.013445 0.880000
0.013922 -0.013970 0.873000
-0.030380 -0.017984 0.876000
0.044414 -0.010724 0.872000
0.036601 0.002561 0.874000
0.024815 0.015564 0.877000
-0.047883 0.013338 0.873000
0.012858 -0.013267 0.874000
0.012844 -0.013970 0.873000
0.022649 0.016286 0.877000
0.031888 -0.026187 0.873000
-0.045732 0.006201 0.880000
-0.000453 -0.011841 0.875000
-0.009467 -0.010413 0.876000
-0.031101 -0.017984 0.876000
-0.030846 -0.023111 0.879000
-0.009862 0.020303 0.879000
0.021467 0.022680 0.873000
-0.008916 -0.028624 0.893000
-0.010235 0.003665 0.880000
-0.033779 0.014169 0.880000
-0.032004 0.004757 0.881000
0.003860 -0.018641 0.873000
-0.012366 -0.008620 0.877000
-0.015029 -0.026182 0.885000
-0.019653 0.018877 0.880000
-0.020716 0.013429 0.879000
-0.031137 -0.008620 0.877000
-0.023945 0.002212 0.878000
0.018657 0.020955 0.876000
-0.042520 0.017086 0.881000
0.036200 -0.008580 0.873000
0.042978 -0.011442 0.872000
0.041949 0.003636 0.873000
0.015359 -0.024031 0.873000
-0.020645 -0.014379 0.876000
0.025809 -0.006432 0.874000
0.007454 -0.021516 0.873000
-0.053278 -0.000318 0.879000
-0.025513 -0.027583 0.895000
-0.038356 -0.020170 0.877000
0.007454 -0.022234 0.873000
-0.043196 0.018515 0.880000
-0.030846 0.024644 0.879000
-0.014203 -0.003213 0.879000
-0.051242 0.001463 0.863000
0.012484 -0.020797 0.873000
-0.007346 0.013460 0.881000
0.000991 -0.006100 0.878000
-0.049925 0.003269 0.871000
-0.001177 -0.006100 0.878000
0.017854 -0.020414 0.872000
0.033440 0.013744 0.876000
-0.015289 0.007641 0.879000
0.024056 -0.030691 0.889000
-0.022834 -0.008259 0.877000
-0.005589 -0.028162 0.890000
0.045438 -0.014655 0.871000
-0.029136 0.006578 0.882000
-0.022808 -0.009691 0.876000
-0.031641 0.006208 0.881000
0.022186 -0.009299 0.873000
0.013294 0.003299 0.879000
-0.037634 -0.015117 0.877000
0.035073 -0.031825 0.890000
0.042309 0.006511 0.873000
0.009632 -0.011121 0.875000
-0.025057 0.003661 0.879000
-0.028015 0.015273 0.881000
-0.027135 -0.017984 0.876000
-0.010897 -0.012922 0.875000
0.005663 -0.023339 0.874000
-0.040207 -0.021277 0.878000
0.035603 0.015547 0.876000
0.032569 -0.017184 0.872000
-0.007346 0.010559 0.881000
-0.022163 0.010897 0.879000
-0.012394 -0.005383 0.879000
0.024758 0.000403 0.875000
0.011406 -0.022234 0.873000
0.021132 -0.004274 0.874000
0.034122 -0.001037 0.875000
0.037551 -0.020749 0.871000
0.029868 0.004736 0.877000
0.029474 0.011581 0.876000
-0.029399 -0.004660 0.879000
-0.045784 0.012009 0.881000
-0.014219 0.021775 0.880000
-0.024972 -0.010773 0.876000
-0.001891 -0.021900 0.874000
-0.011657 -0.007907 0.878000
0.038671 -0.009288 0.872000
0.022931 -0.026576 0.874000
-0.032544 0.025642 0.876000
0.003505 -0.017943 0.874000
-0.035268 0.016361 0.881000
0.008541 -0.013986 0.874000
0.029698 0.023013 0.872000
-0.024723 0.010909 0.880000
-0.017420 -0.006454 0.877000
0.028031 0.007975 0.876000
0.022879 -0.017543 0.872000
0.040605 0.014088 0.875000
0.042212 -0.020391 0.871000
-0.032618 0.024616 0.878000
-0.030951 0.011660 0.882000
0.025868 0.015186 0.876000
0.012932 0.004747 0.879000
-0.009828 0.024560 0.876000
-0.041256 -0.023997 0.885000
-0.023583 0.003296 0.878000
0.016437 -0.013611 0.873000
-0.025086 0.008374 0.880000
-0.022163 -0.024196 0.879000
0.022186 -0.008940 0.873000
0.048123 -0.004181 0.855000
-0.039256 0.012372 0.881000
0.003860 -0.018282 0.873000
0.027671 -0.028079 0.876000
-0.020692 0.003296 0.878000
0.022262 0.012662 0.876000
0.007813 -0.016844 0.873000
-0.001531 -0.021180 0.874000
-0.049073 0.005445 0.875000
-0.015254 -0.006454 0.877000
-0.009884 0.005483 0.881000
0.011833 0.018473 0.878000
-0.010910 -0.023032 0.876000
0.028753 0.013023 0.876000
0.025391 -0.022568 0.872000
-0.000093 0.009834 0.881000
-0.023917 -0.022697 0.877000
-0.033417 0.008012 0.880000
0.040245 0.009767 0.875000
-0.028938 -0.018705 0.876000
0.019311 -0.017204 0.873000
0.010411 0.010547 0.880000
0.004584 -0.013626 0.874000
-0.028610 -0.009342 0.877000
0.009271 0.021651 0.875000
-0.030846 -0.004298 0.879000
-0.014859 -0.019764 0.875000
-0.017459 0.025006 0.879000
-0.047851 0.008364 0.879000
0.033364 -0.005712 0.874000
0.002798 0.019557 0.878000
0.005298 -0.018282 0.873000
0.034837 -0.030519 0.884000
0.012194 -0.003932 0.878000
0.026109 -0.018620 0.872000
-0.022808 -0.020508 0.876000
-0.030916 0.015635 0.881000
-0.007708 0.012009 0.881000
-0.023275 0.019602 0.880000
-0.038400 -0.004293 0.878000
-0.040661 0.009098 0.880000
-0.012032 0.018132 0.879000
-0.033682 -0.025146 0.887000
-0.052368 0.001109 0.864000
-0.035911 0.021750 0.879000
-0.019898 -0.027093 0.891000
-0.019946 -0.022336 0.877000
-0.011257 -0.015082 0.875000
0.009610 -0.018282 0.873000
-0.004082 0.013460 0.881000
0.001720 0.012735 0.881000
0.030416 -0.025439 0.872000
0.015359 -0.014329 0.873000
0.016078 -0.013611 0.873000
0.013294 0.014153 0.879000
-0.032004 0.012735 0.881000
0.007151 0.011996 0.880000
0.010724 -0.009691 0.876000
0.041136 -0.018598 0.871000
0.047954 -0.008374 0.852000
-0.031641 0.015273 0.881000
-0.039891 -0.022025 0.879000
0.002080 0.015980 0.880000
-0.039123 -0.008268 0.878000
0.017956 0.014482 0.877000
0.039344 -0.017881 0.871000
-0.028938 -0.019066 0.876000
0.037003 0.013728 0.875000
-0.019924 -0.011494 0.876000
0.007151 0.014531 0.880000
-0.025000 0.025671 0.877000
0.004610 0.017047 0.879000
-0.024246 0.028813 0.863000
-0.020354 0.011620 0.879000
-0.045007 0.006925 0.880000
-0.031279 -0.001770 0.881000
-0.015219 -0.020484 0.875000
-0.034747 -0.012590 0.877000
-0.011322 0.002941 0.880000
0.017595 0.015204 0.877000
0.044721 -0.004259 0.871000
-0.028577 -0.020147 0.876000
0.013203 -0.016126 0.873000
-0.012712 -0.011134 0.876000
-0.001538 -0.008629 0.878000
0.019039 0.019896 0.877000
-0.015236 -0.007889 0.876000
0.003869 -0.024446 0.875000
0.009250 -0.017204 0.873000
0.047715 -0.017532 0.854000
-0.014499 0.027774 0.875000
0.002113 -0.029760 0.894000
0.036283 0.006886 0.875000
-0.038356 -0.010063 0.877000
-0.011335 0.011647 0.881000
-0.045576 0.019174 0.877000
0.020389 -0.016126 0.873000
-0.009478 -0.024141 0.877000
-0.016448 -0.025760 0.883000
-0.014219 0.023224 0.880000
-0.032904 -0.017623 0.876000
0.010328 -0.015407 0.873000
0.016437 -0.014329 0.873000
0.012527 -0.026637 0.876000
0.030195 0.011581 0.876000
-0.021025 0.030199 0.862000
-0.030588 0.006578 0.882000
-0.002261 -0.009352 0.878000
0.010871 -0.029195 0.888000
-0.002261 -0.008991 0.878000
0.007513 0.011996 0.880000
-0.017740 -0.019764 0.875000
0.021132 -0.005353 0.874000
0.008191 0.023452 0.875000
0.020460 -0.027358 0.876000
0.035441 -0.010365 0.872000
0.023237 -0.018261 0.872000
0.013655 0.004747 0.879000
-0.023275 0.014531 0.880000
-0.024026 0.022888 0.881000
-0.022550 0.013445 0.880000
0.042978 -0.002469 0.872000
-0.038082 0.002938 0.879000
-0.021734 0.030199 0.862000
0.041136 -0.015730 0.871000
-0.033417 0.005114 0.880000
-0.006935 -0.021565 0.875000
-0.027590 -0.004298 0.879000
-0.050456 -0.001755 0.874000
0.040153 -0.022234 0.873000
0.046155 -0.008919 0.871000
0.033249 -0.018240 0.871000
-0.039212 0.006201 0.880000
0.033646 -0.011801 0.872000
0.035400 -0.023976 0.871000
-0.008766 -0.008991 0.878000
0.035522 -0.028015 0.874000
0.016796 -0.023671 0.873000
0.044147 -0.021713 0.881000
-0.028541 0.028847 0.864000
0.026002 -0.031565 0.893000
0.018233 -0.017204 0.873000
0.022983 0.011941 0.876000
0.008952 -0.027090 0.879000
-0.028938 -0.015821 0.876000
-0.003042 -0.029425 0.895000
0.008600 0.012358 0.880000
0.021517 0.004365 0.875000
0.041638 0.010115 0.874000
-0.021413 -0.027522 0.893000
0.003170 0.013097 0.881000
-0.008736 0.023092 0.875000
-0.021029 -0.005732 0.877000
-0.040661 0.005476 0.880000
-0.040615 0.001491 0.879000
0.023010 0.019535 0.877000
0.045386 -0.018577 0.870000
-0.010897 -0.017963 0.875000
-0.034865 0.021413 0.880000
0.002456 0.009514 0.885000
0.011085 -0.009691 0.876000
-0.028740 -0.001407 0.881000
0.017515 -0.017563 0.873000
-0.045266 0.017389 0.878000
-0.017241 0.027909 0.868000
-0.000092 -0.014346 0.874000
0.027999 -0.006079 0.875000
0.034482 0.002564 0.875000
-0.009817 0.023092 0.875000
-0.025057 0.006194 0.879000
-0.048379 0.012919 0.869000
0.023344 0.007975 0.876000
0.008962 0.010185 0.880000
-0.017117 0.019602 0.880000
-0.011978 -0.020845 0.875000
-0.038444 0.004023 0.879000
0.036601 0.002921 0.874000
-0.031462 -0.017984 0.876000
0.011135 0.002217 0.880000
-0.046818 0.012720 0.880000
0.019400 0.017730 0.877000
0.028588 -0.021108 0.871000
0.043337 -0.002469 0.872000
-0.044956 0.001129 0.879000
-0.042424 0.019580 0.879000
-0.036273 -0.001404 0.879000
-0.044233 -0.001765 0.879000
0.017915 -0.003198 0.875000
0.027341 0.016647 0.877000
-0.023195 -0.008620 0.877000
0.029732 0.022680 0.873000
0.042929 0.003269 0.871000
-0.044283 0.002941 0.880000
-0.034141 0.012720 0.880000
0.029474 -0.004644 0.876000
0.017195 -0.004639 0.875000
0.034403 -0.009299 0.873000
-0.035108 -0.020170 0.877000
0.039524 0.017330 0.875000
-0.032904 -0.018705 0.876000
0.047898 -0.012567 0.851000
0.024560 -0.031600 0.894000
0.000267 -0.019022 0.874000
0.038400 0.000043 0.874000
0.024038 0.005085 0.875000
0.026169 -0.006792 0.874000
0.025507 0.008696 0.876000
0.040824 -0.012160 0.872000
0.042309 0.005792 0.873000
0.038627 -0.016447 0.871000
-0.008786 0.015256 0.880000
-0.042062 0.001852 0.879000
0.026950 0.015547 0.876000
0.024673 -0.021132 0.872000
0.015447 0.000043 0.878000
-0.013118 0.014515 0.879000
0.006023 -0.016144 0.874000
-0.012338 -0.020124 0.875000
0.033402 -0.001037 0.875000
-0.001531 -0.021540 0.874000
-0.005895 0.012009 0.881000
-0.035148 -0.007545 0.878000
0.034443 -0.004274 0.874000
-0.018692 -0.026212 0.886000
0.013969 0.021315 0.876000
-0.032655 -0.022749 0.879000
0.035522 -0.001036 0.874000
-0.022550 0.017429 0.880000
0.035162 -0.027655 0.874000
0.023705 0.020955 0.876000
-0.010959 0.013445 0.880000
-0.026053 -0.014018 0.876000
-0.026774 -0.019426 0.876000
0.018296 0.004730 0.876000
-0.001930 -0.028959 0.892000
-0.017420 -0.006815 0.877000
0.033055 -0.030553 0.885000
-0.030225 0.006941 0.882000
0.029698 -0.015390 0.872000
0.015085 0.011969 0.878000
0.021566 0.015204 0.877000
-0.002614 -0.012561 0.875000
-0.018545 0.014515 0.879000
-0.017801 0.004741 0.878000
-0.036190 0.023506 0.877000
-0.012019 -0.007907 0.878000
-0.005520 0.017409 0.879000
-0.030519 0.023586 0.880000
-0.002251 -0.015425 0.874000
-0.034102 0.000767 0.879000
-0.020409 0.028201 0.866000
0.024398 0.002204 0.875000
-0.032183 -0.014379 0.876000
-0.050769 0.009611 0.861000
-0.031605 0.023948 0.880000
0.037680 0.001842 0.874000
0.031998 0.012302 0.876000
-0.001173 0.021291 0.875000
0.022571 -0.004993 0.874000
0.020796 -0.000317 0.875000
-0.026444 -0.006093 0.877000
-0.009884 0.006570 0.881000
-0.018821 -0.018684 0.875000
-0.042472 0.018877 0.880000
0.025779 -0.011096 0.873000
0.042879 0.014366 0.870000
-0.023556 -0.008620 0.877000
0.025750 -0.017543 0.872000
0.027310 0.014465 0.876000
-0.012408 0.001130 0.880000
-0.027684 0.010208 0.882000
0.018275 0.000403 0.875000
0.015718 -0.018641 0.873000
-0.031968 0.001492 0.880000
-0.022860 0.003296 0.878000
-0.031641 0.021800 0.881000
-0.035268 0.018899 0.881000
-0.015254 -0.005371 0.877000
0.035481 -0.006424 0.873000
-0.002673 -0.029425 0.895000
-0.038761 -0.004293 0.878000
-0.033303 0.024949 0.877000
-0.000812 -0.021540 0.874000
0.031529 -0.026905 0.873000
-0.045007 0.002579 0.880000
0.023010 0.014482 0.877000
-0.017400 -0.007168 0.876000
0.027544 -0.016107 0.872000
0.010945 -0.030496 0.894000
0.015085 0.003296 0.878000
0.015223 -0.029129 0.886000
0.012484 -0.015407 0.873000
0.037235 0.021936 0.872000
-0.018162 0.000766 0.878000
0.022262 0.021315 0.876000
0.000627 0.021986 0.874000
-0.051123 0.007484 0.861000
0.028654 -0.010018 0.873000
-0.018928 0.015256 0.880000
-0.032256 0.024616 0.878000
0.034683 -0.018957 0.871000
0.021108 -0.009658 0.873000
0.028392 -0.000317 0.876000
0.034482 0.000403 0.875000
-0.022541 -0.027552 0.894000
0.020773 -0.002115 0.874000
0.036876 0.023372 0.872000
-0.014876 -0.022311 0.876000
-0.040253 -0.000680 0.879000
0.025032 -0.022926 0.872000
0.011072 0.021651 0.875000
-0.045732 0.019964 0.880000
0.022623 0.011220 0.876000
-0.011991 -0.011134 0.876000
0.042929 -0.015372 0.871000
0.045080 -0.004617 0.871000
0.031493 -0.024721 0.872000
0.041949 0.002558 0.873000
-0.028740 0.000406 0.881000
0.026919 0.002564 0.875000
0.014724 0.014137 0.878000
0.013702 -0.028272 0.882000
-0.019992 0.010535 0.879000
-0.022087 -0.010413 0.876000
-0.018566 0.016342 0.880000
0.018275 -0.001397 0.875000
-0.033303 -0.020531 0.877000
-0.024251 -0.019066 0.876000
0.002437 -0.007184 0.878000
-0.016030 0.022499 0.880000
-0.051123 0.005004 0.861000
-0.012032 -0.003936 0.879000
0.000991 0.018835 0.878000
-0.022448 -0.021589 0.876000
0.002075 -0.007545 0.878000
0.021827 -0.012173 0.873000
0.012180 0.020979 0.877000
-0.017821 0.008364 0.879000
-0.018503 -0.006454 0.877000
0.026857 -0.013251 0.873000
-0.004050 -0.020821 0.874000
0.016170 0.009800 0.878000
0.026169 -0.004633 0.874000
-0.020794 -0.028415 0.898000
-0.013148 0.009109 0.881000
-0.031498 -0.008620 0.877000
-0.003330 -0.014705 0.874000
0.000627 -0.019382 0.874000
0.036476 -0.019315 0.871000
-0.016698 -0.003927 0.877000
-0.000456 0.014185 0.881000
0.017234 0.012677 0.877000
0.019289 -0.020773 0.872000
-0.021776 0.005103 0.878000
-0.012046 0.013082 0.880000
-0.043971 0.016361 0.881000
0.045490 -0.008212 0.872000
-0.002981 -0.010424 0.877000
0.042619 0.001479 0.872000
-0.000454 -0.006823 0.878000
-0.042110 0.004028 0.880000
0.034364 -0.012518 0.872000
-0.030268 -0.026816 0.894000
-0.022087 -0.010052 0.876000
-0.001906 0.012009 0.881000
-0.016049 -0.025339 0.881000
0.020773 -0.009310 0.874000
-0.000454 -0.008268 0.878000
0.018593 -0.017563 0.873000
-0.025000 -0.006454 0.877000
-0.003698 -0.024474 0.876000
0.021108 -0.011455 0.873000
-0.002614 -0.014002 0.875000
0.016437 -0.015407 0.873000
-0.029800 -0.025626 0.891000
0.033440 0.002928 0.876000
0.017156 0.023398 0.873000
-0.015579 -0.020845 0.875000
0.028785 0.006901 0.877000
-0.041950 -0.005463 0.892000
0.032432 0.007632 0.878000
-0.030588 0.009845 0.882000
-0.046042 0.015600 0.879000
-0.019203 -0.013297 0.876000
0.026199 0.001484 0.875000
-0.029136 0.003674 0.882000
0.032173 -0.020391 0.871000
-0.001172 -0.020821 0.874000
0.020773 -0.025857 0.874000
-0.037720 0.002214 0.879000
-0.040014 -0.026567 0.898000
0.002792 -0.011134 0.876000
0.039434 -0.003550 0.873000
0.034683 -0.020749 0.871000
0.033839 0.008345 0.877000
0.017595 0.009789 0.877000
-0.053581 0.007320 0.884000
-0.000456 0.010559 0.881000
0.028654 -0.026546 0.873000
-0.039846 -0.008629 0.878000
0.030739 -0.020032 0.871000
-0.046606 0.016628 0.876000
0.028424 0.007623 0.877000
-0.004054 -0.022285 0.875000
0.027671 0.011220 0.876000
0.021467 -0.024390 0.873000
-0.047020 0.014843 0.877000
-0.022448 -0.015460 0.876000
-0.007329 -0.007192 0.879000
0.028753 0.011220 0.876000
0.010328 -0.017922 0.873000
0.007454 -0.017563 0.873000
-0.023169 0.026003 0.876000
0.026888 -0.008590 0.874000
0.042619 -0.007494 0.872000
0.012125 -0.023671 0.873000
0.017555 -0.003558 0.875000
0.026229 -0.027719 0.876000
-0.015958 -0.010052 0.876000
-0.015650 0.000043 0.879000
0.016493 -0.003923 0.876000
-0.048158 0.006909 0.878000
-0.041747 0.004028 0.880000
0.040778 0.018684 0.871000
0.012713 -0.029594 0.889000
-0.031641 0.007296 0.881000
0.031815 -0.021108 0.871000
0.018974 -0.004633 0.874000
-0.024639 -0.021614 0.877000
-0.036551 -0.009703 0.877000
-0.034786 -0.006100 0.878000
-0.036997 0.004747 0.879000
-0.022112 -0.005371 0.877000
-0.032692 0.005476 0.880000
-0.017020 -0.017963 0.875000
0.012932 0.007641 0.879000
0.029305 -0.021466 0.871000
0.010749 0.019557 0.878000
0.017956 0.005819 0.877000
-0.032330 0.001130 0.880000
0.025147 0.014105 0.876000
0.007849 0.020618 0.877000
0.035400 -0.017523 0.871000
0.023623 -0.011096 0.873000
0.027734 -0.028505 0.878000
-0.017821 0.014153 0.879000
-0.036912 -0.013673 0.877000
-0.009446 -0.019022 0.874000
0.047547 -0.010115 0.851000
-0.026836 -0.004293 0.878000
0.027186 -0.016466 0.872000
0.037363 0.008686 0.875000
0.032928 -0.025798 0.872000
0.016512 0.013038 0.877000
-0.031279 0.018899 0.881000
0.019671 -0.012892 0.873000
-0.022049 -0.026667 0.889000
-0.004796 -0.006830 0.879000
-0.012770 0.000768 0.880000
0.021156 0.002204 0.875000
0.036117 -0.023976 0.871000
-0.025781 -0.001042 0.879000
-0.028938 -0.015460 0.876000
-0.032655 -0.003574 0.879000
-0.009096 0.023092 0.875000
-0.037995 -0.019809 0.877000
-0.028378 0.020712 0.881000
-0.000092 -0.019382 0.874000
-0.013418 0.025973 0.875000
0.002442 0.015980 0.880000
-0.047851 0.000043 0.879000
0.007513 0.014169 0.880000
-0.013058 -0.019044 0.875000
-0.039439 -0.016922 0.877000
-0.018460 -0.017243 0.875000
0.030951 -0.002122 0.877000
-0.031859 -0.012951 0.877000
-0.041795 0.012372 0.881000
-0.016717 0.004018 0.878000
-0.006951 -0.024863 0.877000
-0.031859 -0.009342 0.877000
0.016796 -0.016126 0.873000
-0.015289 -0.024919 0.879000
0.037321 0.005799 0.874000
-0.040344 0.017448 0.881000
0.018952 -0.011096 0.873000
0.006023 -0.023699 0.874000
-0.010188 -0.011494 0.876000
0.018635 -0.003558 0.875000
0.025296 -0.031600 0.894000
-0.034425 -0.021277 0.878000
0.038627 -0.020391 0.871000
-0.024278 -0.003566 0.877000
0.000269 0.016324 0.879000
0.034325 -0.018598 0.871000
-0.023169 -0.011494 0.876000
-0.010235 0.004028 0.880000
-0.045680 0.000767 0.879000
0.014741 0.002938 0.879000
-0.019575 -0.027522 0.893000
-0.021415 -0.023807 0.878000
0.024701 -0.025827 0.873000
-0.017039 -0.011494 0.876000
-0.018928 0.022862 0.880000
-0.035228 0.006925 0.880000
-0.019608 0.005464 0.878000
0.009621 -0.023339 0.874000
-0.015271 -0.024530 0.878000
-0.028378 0.015998 0.881000
0.028687 0.022346 0.874000
-0.039123 -0.005739 0.878000
0.000268 -0.012201 0.875000
0.038040 0.006158 0.874000
0.043546 0.004693 0.869000
-0.039167 -0.002127 0.879000
-0.020331 0.003296 0.878000
-0.049321 0.005073 0.873000
-0.042785 0.002576 0.879000
-0.036551 -0.011507 0.877000
0.047122 -0.019629 0.869000
-0.022138 0.001850 0.878000
0.041590 -0.003550 0.873000
0.038400 0.000763 0.874000
0.033287 -0.017543 0.872000
-0.028217 -0.015821 0.876000
-0.020766 0.028201 0.866000
-0.034747 -0.019809 0.877000
-0.031101 -0.019787 0.876000
0.030451 -0.026905 0.873000
-0.042327 0.020618 0.877000
-0.017479 0.023586 0.880000
-0.028610 -0.011146 0.877000
0.035082 -0.011083 0.872000
0.010026 0.019919 0.878000
-0.025810 0.004390 0.880000
-0.015650 0.001852 0.879000
0.015790 -0.001761 0.877000
-0.041291 -0.020555 0.878000
-0.011309 -0.006107 0.879000
0.027544 -0.018620 0.872000
0.022161 -0.017902 0.872000
-0.020315 0.030554 0.862000
-0.034141 0.007649 0.880000
-0.011978 -0.016523 0.875000
-0.020331 0.006187 0.878000
-0.012060 0.007658 0.881000
-0.014219 0.002579 0.880000
0.031276 0.014105 0.876000
0.035923 0.011207 0.875000
0.003145 -0.021540 0.874000
0.003882 0.018473 0.878000
-0.019653 0.017429 0.880000
-0.013857 0.003665 0.880000
-0.021077 0.010535 0.879000
-0.019312 0.022888 0.881000
0.022623 -0.027358 0.876000
0.008182 -0.024418 0.874000
-0.006620 0.013460 0.881000
0.025478 0.006165 0.875000
-0.003694 -0.014362 0.875000
-0.014876 -0.008249 0.876000
0.021108 -0.024031 0.873000
-0.007046 -0.027764 0.889000
-0.035468 -0.015478 0.877000
-0.041338 -0.004660 0.879000
0.030195 -0.006086 0.876000
-0.028740 0.013460 0.881000
-0.021751 -0.003927 0.877000
-0.041700 0.002938 0.879000
-0.024639 -0.007176 0.877000
0.029834 -0.004644 0.876000
0.005328 0.019919 0.878000
-0.036238 -0.024781 0.887000
0.002426 -0.016504 0.874000
0.015000 -0.018641 0.873000
0.037193 -0.024334 0.871000
0.007232 -0.029261 0.890000
-0.024334 0.006555 0.879000
0.043696 -0.004623 0.872000
-0.015668 0.018877 0.880000
0.011779 0.023425 0.874000
-0.016679 -0.021589 0.876000
-0.046818 0.012358 0.880000
-0.021683 -0.026667 0.889000
0.040778 0.020477 0.871000
-0.027527 -0.006454 0.877000
-0.034503 0.010185 0.880000
0.018678 0.010511 0.877000
-0.015579 -0.013642 0.875000
0.005334 0.017409 0.879000
0.009621 -0.013626 0.874000
-0.034707 -0.017984 0.876000
0.026468 -0.021132 0.872000
0.000631 0.016324 0.879000
-0.027443 0.029169 0.863000
-0.005170 0.010559 0.881000
0.026589 0.011941 0.876000
-0.009159 0.009471 0.881000
-0.035870 -0.004293 0.878000
0.018317 0.015925 0.877000
-0.030020 -0.016902 0.876000
-0.013418 -0.016523 0.875000
0.032358 0.015907 0.876000
0.026919 0.001484 0.875000
0.042309 0.004714 0.873000
0.003860 -0.019000 0.873000
0.038751 -0.030450 0.882000
0.010810 -0.000320 0.883000
-0.040615 -0.002127 0.879000
0.033287 0.023372 0.872000
-0.017078 0.025701 0.878000
-0.008414 -0.006107 0.879000
0.014314 -0.008600 0.875000
-0.024278 -0.007537 0.877000
-0.040615 0.002214 0.879000
-0.051478 0.003941 0.861000
0.010749 0.016666 0.878000
-0.037995 -0.018726 0.877000
-0.003342 0.020618 0.877000
0.037594 -0.011801 0.872000
-0.040522 -0.014034 0.877000
0.024010 -0.001036 0.874000
0.040466 0.019065 0.872000
0.040419 0.019760 0.871000
0.027999 0.021651 0.875000
-0.028740 0.001131 0.881000
-0.026927 0.005120 0.881000
0.030520 -0.027687 0.875000
-0.017459 0.011259 0.879000
0.003505 0.022706 0.874000
-0.030415 -0.012951 0.877000
-0.008071 0.011647 0.881000
-0.013841 -0.003213 0.879000
0.011819 -0.008259 0.877000
-0.026172 0.015618 0.880000
0.009621 0.023065 0.874000
-0.006605 0.017047 0.879000
-0.001900 -0.007907 0.878000
-0.025419 0.002214 0.879000
-0.039936 0.009098 0.880000
0.030416 -0.018620 0.872000
0.004258 0.013822 0.881000
-0.020261 -0.017603 0.875000
-0.000453 -0.010773 0.876000
-0.016318 -0.008610 0.876000
-0.031847 -0.027276 0.897000
0.040605 0.013368 0.875000
-0.029862 0.006941 0.882000
-0.035052 -0.026449 0.894000
-0.008434 0.010922 0.881000
0.015412 -0.006447 0.876000
0.044055 -0.008571 0.872000
0.033478 0.008345 0.877000
-0.004059 -0.024474 0.876000
-0.041479 -0.023189 0.882000
-0.027496 -0.014379 0.876000
0.038671 -0.011801 0.872000
0.035400 -0.021466 0.871000
0.041805 -0.020725 0.870000
-0.032729 0.021437 0.881000
0.009324 0.013082 0.880000
0.022931 -0.003194 0.874000
-0.039439 0.022062 0.877000
-0.003330 0.021986 0.874000
-0.013434 -0.022671 0.876000
-0.027321 0.008030 0.882000
0.032891 -0.018598 0.871000
0.029305 -0.021108 0.871000
-0.015289 0.011259 0.879000
0.010737 0.020618 0.877000
-0.010247 0.012372 0.881000
0.020030 -0.024031 0.873000
-0.029004 -0.006100 0.878000
0.029406 0.022346 0.874000
0.010340 -0.012547 0.874000
0.031169 -0.026546 0.873000
-0.003349 0.018856 0.879000
0.012844 0.022680 0.873000
-0.028249 -0.021253 0.877000
