0.032715 -0.006307 0.857000
-0.039783 0.003232 0.861000
-0.046816 -0.002081 0.860000
-0.021404 0.015671 0.863000
-0.019117 -0.023563 0.856000
0.021025 -0.010163 0.855000
-0.034152 0.007493 0.862000
0.025779 0.013154 0.861000
-0.003273 -0.026474 0.859000
0.039769 0.000748 0.857000
0.018295 0.024791 0.859000
-0.037613 0.001812 0.860000
-0.017062 0.025851 0.859000
-0.037042 -0.019664 0.855000
-0.011352 -0.023183 0.855000
-0.042972 0.003232 0.861000
-0.009284 -0.009503 0.859000
-0.013127 -0.014755 0.856000
-0.027025 -0.003501 0.861000
-0.011498 -0.028828 0.866000
0.033260 0.024523 0.862000
0.046065 -0.002776 0.856000
-0.024927 0.011750 0.862000
0.028969 0.015989 0.861000
0.048067 -0.005933 0.854000
0.041582 0.013815 0.858000
-0.036466 -0.008433 0.858000
-0.033049 0.001814 0.861000
0.002387 -0.008099 0.860000
0.042894 0.017658 0.856000
0.037257 -0.002776 0.856000
0.048010 -0.012246 0.853000
-0.030249 -0.001022 0.862000
-0.027316 0.023730 0.859000
-0.030391 -0.018278 0.856000
0.022971 0.023813 0.862000
0.022106 -0.007004 0.856000
-0.034152 0.008557 0.862000
0.000617 -0.006329 0.860000
0.046660 -0.011557 0.854000
0.021477 0.024791 0.859000
-0.016412 0.008912 0.862000
-0.011445 0.001462 0.862000
-0.001870 0.009288 0.864000
0.021780 -0.002074 0.857000
-0.014519 -0.023183 0.855000
-0.018584 0.018890 0.864000
-0.014217 -0.008433 0.858000
-0.042215 0.018448 0.860000
-0.015294 -0.005261 0.859000
-0.024402 -0.014403 0.856000
-0.022772 0.006776 0.861000
0.036057 0.016344 0.861000
0.047419 0.000042 0.855000
0.025425 0.013154 0.861000
-0.002923 -0.008807 0.860000
-0.017335 -0.018960 0.855000
-0.008951 -0.027244 0.861000
-0.035135 0.001104 0.860000
0.013052 0.008567 0.863000
0.002747 0.020975 0.862000
0.015502 0.023077 0.861000
0.044303 0.000747 0.856000
0.036157 -0.009811 0.855000
-0.019651 0.019957 0.864000
0.009855 0.018868 0.863000
-0.040774 -0.026363 0.867000
0.006244 -0.012978 0.855000
0.006604 -0.024620 0.856000
-0.029791 -0.008443 0.859000
-0.017102 0.007839 0.861000
-0.005781 0.009288 0.864000
0.020745 0.000042 0.858000
0.013762 0.007502 0.863000
0.037257 -0.003481 0.856000
0.017962 0.007830 0.860000
-0.020291 0.005712 0.861000
0.008434 0.017092 0.863000
0.015042 -0.012626 0.855000
0.034438 -0.005242 0.856000
0.049118 -0.001335 0.836000
-0.018390 -0.022480 0.855000
-0.016095 0.020312 0.864000
-0.001850 -0.022128 0.855000
-0.018102 -0.003842 0.858000
-0.007121 -0.020696 0.854000
0.026519 0.024168 0.862000
0.026656 -0.012978 0.855000
0.005892 -0.016145 0.855000
0.046770 -0.001367 0.856000
-0.027056 0.001462 0.862000
0.024305 0.007820 0.859000
0.050434 -0.006832 0.835000
-0.048530 0.003578 0.859000
0.010281 -0.029286 0.869000
-0.034307 -0.025354 0.857000
-0.037569 -0.005968 0.859000
0.021172 0.014217 0.861000
-0.018081 -0.011598 0.857000
-0.029574 0.000398 0.863000
-0.028711 0.026917 0.848000
-0.015579 -0.031649 0.875000
0.035266 0.006053 0.859000
-0.012408 -0.023183 0.855000
-0.013589 0.012474 0.863000
0.047419 -0.007348 0.855000
-0.031705 0.014961 0.863000
0.010832 -0.024267 0.856000
0.037387 0.009942 0.859000
0.016821 -0.010175 0.856000
-0.035012 -0.013361 0.857000
-0.013815 -0.017553 0.855000
-0.003614 -0.012993 0.856000
-0.025194 -0.005614 0.859000
-0.014300 0.006081 0.863000
0.022537 0.005699 0.859000
-0.001870 0.013911 0.864000
-0.023835 0.004295 0.861000
0.036411 0.017407 0.861000
0.025838 -0.030568 0.875000
0.022864 0.000396 0.858000
0.017506 -0.013330 0.855000
-0.031205 -0.026827 0.859000
-0.047225 0.010674 0.861000
0.012213 -0.021399 0.854000
0.022236 0.015281 0.861000
-0.017042 -0.007374 0.858000
0.050090 -0.007176 0.835000
0.030422 0.013879 0.862000
-0.030995 0.014961 0.863000
-0.046216 0.011041 0.862000
0.001316 -0.020696 0.854000
-0.035217 0.006783 0.862000
0.023024 -0.027339 0.864000
-0.025188 -0.030787 0.871000
-0.001854 -0.011598 0.857000
0.023433 -0.019969 0.853000
-0.029929 -0.001023 0.863000
-0.008194 -0.012641 0.856000
0.039816 0.021584 0.858000
-0.014655 0.006436 0.863000
-0.043327 0.003586 0.861000
0.003803 -0.005621 0.860000
0.011958 0.000397 0.861000
-0.035843 0.000396 0.860000
-0.037438 -0.024620 0.856000
-0.021961 -0.009481 0.857000
0.020487 0.018491 0.862000
-0.049829 -0.004511 0.851000
-0.034231 0.017823 0.864000
0.005954 0.012489 0.864000
-0.022314 -0.025707 0.857000
-0.022140 0.021735 0.864000
-0.003288 0.016382 0.863000
0.041084 -0.006292 0.855000
0.038179 -0.021023 0.853000
-0.029687 -0.017926 0.856000
0.027359 -0.023535 0.855000
-0.029437 0.023377 0.859000
0.004152 -0.008796 0.859000
0.032952 -0.016126 0.854000
-0.001498 -0.014386 0.855000
-0.013589 0.020289 0.863000
-0.019094 -0.021424 0.855000
-0.014184 -0.023915 0.856000
-0.016039 0.004295 0.861000
0.031934 -0.008755 0.855000
-0.016076 0.017802 0.863000
-0.010049 0.007866 0.864000
-0.006455 -0.009503 0.859000
0.047067 0.000394 0.855000
0.014793 0.001460 0.861000
0.039064 -0.025001 0.857000
-0.006500 0.011791 0.865000
-0.008223 -0.026474 0.859000
0.038892 0.017407 0.861000
-0.020550 -0.010187 0.857000
-0.045348 -0.004200 0.859000
-0.030744 -0.016516 0.856000
-0.007833 -0.014738 0.855000
0.032905 0.019556 0.862000
0.036818 -0.015423 0.854000
-0.022340 -0.006667 0.858000
0.034668 -0.017161 0.853000
0.022918 0.009599 0.860000
0.038314 -0.024267 0.856000
0.045659 -0.006292 0.855000
-0.019469 -0.014403 0.856000
-0.031801 -0.015812 0.856000
0.016079 -0.020696 0.854000
0.000964 -0.020344 0.854000
-0.018186 0.011041 0.862000
0.004526 0.018158 0.863000
0.033303 -0.012260 0.854000
-0.023181 0.027330 0.850000
-0.026052 0.019601 0.864000
-0.022613 -0.020368 0.855000
-0.025696 0.019245 0.864000
0.035889 -0.001369 0.857000
-0.024077 -0.009481 0.857000
0.040216 0.007467 0.859000
-0.042569 0.001104 0.860000
-0.016020 -0.000665 0.860000
0.041886 0.021559 0.857000
0.027008 -0.010163 0.855000
-0.025106 -0.015460 0.856000
-0.035986 -0.021776 0.855000
-0.021759 0.022775 0.863000
-0.044994 -0.005261 0.859000
-0.004665 -0.017905 0.855000
-0.011103 0.006081 0.863000
0.027647 -0.019969 0.853000
-0.001854 -0.011245 0.857000
-0.025667 0.013185 0.863000
-0.000447 0.016026 0.863000
-0.029608 0.019601 0.864000
-0.047579 0.009965 0.861000
0.040428 -0.003481 0.856000
0.027938 0.012105 0.862000
0.032905 0.018491 0.862000
0.046660 -0.010151 0.854000
-0.024870 0.002166 0.860000
-0.010748 0.004660 0.863000
-0.012169 0.003595 0.863000
-0.036381 -0.017221 0.856000
0.006009 -0.030463 0.872000
0.022081 -0.009811 0.855000
-0.016374 -0.001373 0.860000
-0.011471 0.010355 0.864000
-0.024274 0.018890 0.864000
0.013052 0.012474 0.863000
0.006303 0.016737 0.863000
0.029119 -0.011922 0.855000
0.004870 -0.026890 0.861000
0.042189 0.018363 0.856000
0.046660 -0.012260 0.854000
-0.037525 -0.006667 0.858000
-0.017831 -0.027631 0.862000
0.025632 -0.028537 0.868000
-0.029929 0.014250 0.863000
-0.014217 -0.008080 0.858000
0.014019 -0.008776 0.857000
0.034679 0.021330 0.862000
0.003425 -0.020696 0.854000
-0.051035 -0.000998 0.842000
-0.026052 0.018890 0.864000
-0.016355 -0.002786 0.859000
-0.045861 0.008203 0.862000
-0.029929 0.012474 0.863000
0.021197 0.022394 0.862000
0.007759 -0.028861 0.867000
-0.044287 0.015952 0.859000
0.002754 0.011066 0.864000
-0.010405 0.006444 0.864000
-0.031154 0.028313 0.848000
0.008051 0.022696 0.860000
0.035931 0.003927 0.858000
-0.020315 0.011750 0.862000
-0.028218 -0.028439 0.865000
0.026704 -0.028537 0.868000
-0.040680 -0.024879 0.865000
0.022758 -0.017181 0.854000
-0.003277 0.020926 0.860000
-0.041153 -0.001373 0.860000
0.000620 0.014623 0.864000
-0.009262 -0.010892 0.857000
0.023461 -0.017884 0.854000
0.033615 0.020975 0.862000
-0.011923 -0.030428 0.871000
0.043951 -0.002424 0.856000
0.007013 0.016737 0.863000
-0.047414 0.013462 0.858000
-0.045400 0.014201 0.860000
0.023598 0.004639 0.859000
0.031509 -0.019618 0.853000
0.010639 -0.001745 0.869000
0.009843 -0.003860 0.862000
0.037170 -0.012260 0.854000
-0.027088 0.011409 0.863000
0.037697 0.004633 0.858000
-0.008242 -0.005273 0.861000
0.008032 -0.025737 0.858000
0.042239 0.004275 0.857000
-0.030569 -0.005982 0.861000
-0.021936 -0.030393 0.870000
-0.016450 -0.028406 0.864000
-0.013234 0.013185 0.863000
-0.001857 -0.025737 0.858000
0.021907 0.017782 0.862000
-0.039552 -0.022858 0.856000
0.009992 -0.030928 0.875000
0.004859 0.023023 0.859000
0.045095 0.004245 0.851000
0.039298 -0.028961 0.870000
-0.007162 -0.009857 0.859000
-0.037834 -0.025354 0.857000
-0.034660 -0.010892 0.857000
-0.001145 -0.021750 0.854000
0.023461 -0.020696 0.854000
0.016136 -0.006659 0.857000
-0.012760 -0.021424 0.855000
-0.021032 0.028313 0.848000
0.001687 0.014623 0.864000
0.031486 0.019910 0.862000
-0.039783 0.006067 0.861000
0.031804 0.002169 0.861000
0.018359 0.017072 0.862000
-0.024373 -0.018257 0.855000
0.002045 0.013571 0.865000
-0.012422 -0.015107 0.856000
0.009081 -0.025354 0.857000
-0.002560 -0.011245 0.857000
-0.035885 0.005004 0.861000
-0.028508 0.009988 0.863000
-0.006793 -0.025001 0.857000
0.001677 0.021962 0.859000
0.015025 -0.015423 0.854000
-0.047225 0.002523 0.861000
-0.010014 -0.003147 0.861000
-0.025161 0.028246 0.846000
0.044604 -0.006292 0.855000
-0.000799 -0.007391 0.860000
-0.026347 0.011396 0.862000
-0.032098 0.017467 0.864000
0.003794 -0.010199 0.858000
0.010895 0.022368 0.861000
-0.021633 -0.007727 0.858000
0.002722 -0.017532 0.854000
-0.030391 -0.014755 0.856000
0.047771 -0.000662 0.855000
0.019355 0.003224 0.859000
0.035102 -0.023535 0.855000
-0.006485 -0.027663 0.863000
0.036467 -0.012963 0.854000
0.022918 0.012077 0.860000
0.042189 -0.002776 0.856000
-0.016689 -0.007374 0.858000
0.000613 -0.022128 0.855000
-0.033875 -0.021424 0.855000
0.011406 -0.030498 0.873000
0.037474 0.015635 0.861000
0.022758 -0.014720 0.854000
-0.036071 -0.013714 0.857000
-0.038810 0.012474 0.863000
-0.051096 -0.002387 0.843000
0.004836 -0.022831 0.855000
-0.019844 -0.008423 0.857000
0.017274 0.011737 0.861000
0.017154 -0.011922 0.855000
0.039982 -0.010854 0.854000
0.041277 0.015599 0.859000
-0.046762 0.014538 0.859000
0.035578 0.000396 0.858000
0.043548 -0.005940 0.855000
0.033930 0.024849 0.861000
-0.011103 0.005015 0.863000
0.028293 0.022394 0.862000
0.029436 -0.022805 0.854000
-0.027540 -0.018960 0.855000
-0.012408 -0.016145 0.855000
-0.031411 -0.018609 0.855000
-0.004682 -0.010552 0.858000
-0.034972 -0.016869 0.856000
-0.019469 -0.013698 0.856000
0.043446 -0.015756 0.853000
-0.048713 0.007793 0.856000
-0.023180 0.022775 0.863000
-0.018455 -0.007374 0.858000
0.027679 -0.015072 0.854000
-0.045861 0.009977 0.862000
-0.008280 0.011791 0.865000
0.014759 0.024437 0.859000
-0.051790 -0.000305 0.843000
-0.012140 -0.005273 0.861000
-0.024754 -0.024620 0.856000
0.032551 0.021330 0.862000
-0.036323 -0.028373 0.863000
0.028935 -0.000311 0.860000
-0.039119 0.008203 0.862000
0.002754 0.014267 0.864000
-0.015830 -0.030001 0.869000
-0.000798 0.022316 0.859000
-0.029574 0.014961 0.863000
-0.020951 -0.002432 0.859000
0.022758 -0.020696 0.854000
-0.002906 -0.017905 0.855000
-0.023345 -0.013346 0.856000
0.038666 -0.003481 0.856000
0.030491 -0.021750 0.854000
-0.012056 -0.015441 0.855000
0.032952 -0.015072 0.854000
-0.003284 0.019910 0.862000
0.017920 -0.001370 0.858000
-0.041958 0.009267 0.862000
0.039325 -0.023535 0.855000
-0.009251 -0.012641 0.856000
0.035495 -0.004890 0.856000
0.035412 -0.021399 0.854000
0.002023 -0.012289 0.856000
-0.034427 0.000042 0.860000
-0.004314 -0.015793 0.855000
0.029643 -0.002081 0.860000
0.025336 -0.000311 0.858000
0.048951 -0.006566 0.845000
-0.017020 -0.031649 0.875000
0.035266 0.007467 0.859000
-0.032453 0.017467 0.864000
0.008444 0.012845 0.864000
0.035371 -0.019618 0.853000
0.033337 -0.027339 0.864000
-0.006073 -0.023535 0.855000
-0.012509 0.000752 0.862000
0.003489 -0.029677 0.870000
0.011875 -0.012274 0.855000
-0.029185 -0.004924 0.862000
-0.012775 -0.013346 0.856000
-0.033797 0.021330 0.862000
-0.028897 0.005732 0.864000
0.016469 -0.008766 0.856000
-0.005388 -0.025737 0.858000
-0.010296 -0.021424 0.855000
0.011158 -0.019993 0.854000
0.035225 0.001808 0.858000
0.044148 -0.015405 0.853000
-0.036690 -0.020368 0.855000
0.009752 -0.016478 0.854000
-0.000803 0.010355 0.864000
0.023980 0.011369 0.860000
0.004205 -0.029677 0.870000
-0.005401 -0.009160 0.860000
0.019002 0.025144 0.859000
-0.001149 -0.011245 0.857000
-0.040941 0.010698 0.863000
0.040522 0.004986 0.858000
-0.037744 0.015671 0.863000
0.025600 -0.012978 0.855000
0.036552 -0.006652 0.856000
0.031804 0.001460 0.861000
-0.027766 -0.000667 0.862000
0.002757 0.013571 0.865000
-0.009648 -0.007037 0.860000
0.012682 0.001816 0.862000
-0.020694 0.017447 0.863000
0.017174 -0.008766 0.856000
-0.032416 0.009988 0.863000
-0.029540 -0.003860 0.862000
0.016431 -0.015775 0.854000
0.028260 0.016698 0.861000
-0.037259 0.000750 0.860000
-0.009944 -0.015793 0.855000
-0.031632 -0.004210 0.861000
0.002725 -0.016497 0.855000
-0.028663 0.024028 0.857000
0.044903 -0.010854 0.854000
0.023845 -0.028895 0.868000
-0.002566 -0.026474 0.859000
-0.011090 -0.027631 0.862000
0.031841 0.018491 0.862000
-0.019139 -0.010539 0.857000
-0.021935 -0.014755 0.856000
0.007291 -0.021047 0.854000
0.041485 -0.004890 0.856000
-0.046408 -0.005614 0.859000
0.031841 -0.026566 0.862000
0.015484 -0.001727 0.860000
-0.039428 -0.011652 0.861000
-0.018228 0.018890 0.864000
0.026488 0.015281 0.861000
0.045095 0.004595 0.851000
-0.012183 0.010000 0.864000
-0.042007 0.011054 0.863000
0.026843 0.017052 0.861000
0.041436 -0.010515 0.855000
-0.024801 -0.029319 0.870000
-0.008899 -0.014403 0.856000
-0.019891 0.024791 0.859000
-0.014621 -0.000312 0.861000
-0.008537 -0.016497 0.855000
0.037431 0.013139 0.860000
0.040286 -0.021023 0.853000
-0.042972 0.005004 0.861000
0.021703 -0.017181 0.854000
0.016920 0.007130 0.861000
-0.042618 0.003941 0.861000
-0.023372 -0.010892 0.857000
0.026593 -0.017863 0.853000
-0.021000 0.008547 0.861000
-0.011731 -0.025354 0.857000
-0.040106 -0.013890 0.868000
-0.038143 -0.018983 0.856000
-0.036551 -0.000665 0.860000
0.031131 0.022749 0.862000
0.002429 -0.031288 0.875000
0.018980 -0.000664 0.858000
-0.033365 -0.001019 0.860000
-0.026577 -0.026090 0.858000
0.030316 0.026559 0.859000
-0.039657 -0.029541 0.866000
-0.034192 0.015671 0.863000
-0.026022 0.015316 0.863000
0.021000 -0.016478 0.854000
0.003429 -0.016849 0.855000
-0.036551 0.001458 0.860000
0.048418 -0.016126 0.854000
0.044955 -0.009459 0.855000
0.033615 -0.019267 0.853000
-0.028830 -0.027985 0.862000
0.020392 -0.001017 0.858000
0.037474 0.018470 0.861000
-0.025250 0.027298 0.849000
-0.046233 -0.008899 0.869000
-0.003269 -0.026090 0.858000
-0.008557 -0.011598 0.857000
-0.013880 -0.007029 0.859000
0.030843 -0.016478 0.854000
0.019969 -0.010163 0.855000
0.022236 0.024140 0.861000
-0.037878 -0.008786 0.858000
-0.039737 -0.010222 0.860000
-0.036365 -0.028761 0.864000
0.037163 -0.026566 0.862000
0.027583 0.019910 0.862000
0.004532 0.010355 0.864000
-0.021404 0.022775 0.863000
-0.010037 0.015316 0.863000
-0.022115 0.022775 0.863000
-0.014655 0.018513 0.863000
0.017983 0.014926 0.861000
-0.023909 0.026661 0.851000
0.021123 0.003578 0.859000
0.011861 -0.022102 0.854000
0.009060 -0.023535 0.855000
0.028834 -0.025001 0.857000
-0.036113 -0.007727 0.858000
-0.022444 -0.027631 0.862000
-0.026868 -0.014403 0.856000
0.015466 -0.026120 0.859000
-0.024049 -0.023915 0.856000
-0.020622 0.002874 0.860000
-0.028277 -0.023915 0.856000
-0.039200 -0.023210 0.856000
-0.047934 0.007839 0.861000
0.026624 -0.017181 0.854000
0.031095 0.003232 0.861000
-0.048826 -0.002076 0.858000
-0.004709 0.018513 0.863000
-0.029687 -0.014050 0.856000
0.008860 -0.029677 0.870000
-0.026347 0.006429 0.862000
0.029238 -0.027140 0.869000
-0.039029 -0.000311 0.860000
-0.037525 -0.008433 0.858000
-0.021633 -0.004195 0.858000
-0.017517 0.018890 0.864000
0.003077 -0.014386 0.855000
0.009455 0.023023 0.859000
-0.031350 0.014606 0.863000
0.010920 0.019578 0.863000
-0.007481 -0.018257 0.855000
0.002373 -0.016145 0.855000
0.025455 0.023103 0.862000
-0.022089 0.011041 0.862000
0.046065 -0.003833 0.856000
0.001330 0.019223 0.863000
0.036284 0.001808 0.858000
0.042140 -0.010163 0.855000
-0.034547 0.011054 0.863000
0.039018 -0.004538 0.856000
-0.022288 -0.014755 0.856000
-0.038055 0.008557 0.862000
0.002035 0.021305 0.861000
-0.039474 0.009267 0.862000
-0.018102 -0.026090 0.858000
0.024035 -0.026566 0.862000
0.032952 -0.012611 0.854000
0.028767 -0.010163 0.855000
-0.039383 0.000396 0.860000
0.007300 -0.023535 0.855000
-0.021709 0.006421 0.861000
0.015484 -0.000311 0.860000
-0.027252 -0.012303 0.857000
0.041886 0.001101 0.857000
-0.023669 -0.021776 0.855000
-0.007490 -0.012289 0.856000
-0.010648 -0.016497 0.855000
0.026944 -0.019618 0.853000
0.038183 0.019887 0.861000
0.010467 -0.012626 0.855000
0.025750 0.007122 0.860000
-0.005017 -0.017905 0.855000
0.001317 -0.022480 0.855000
-0.001865 0.019910 0.862000
-0.030284 0.001463 0.863000
-0.036323 0.011409 0.863000
0.038183 0.020242 0.861000
-0.017122 0.011396 0.862000
0.014101 0.017782 0.862000
0.014811 0.018491 0.862000
0.022537 0.007113 0.859000
0.041872 -0.026983 0.864000
-0.019628 0.016026 0.863000
-0.016983 -0.018609 0.855000
-0.009604 -0.012289 0.856000
0.029289 -0.001373 0.860000
-0.009592 -0.018609 0.855000
-0.011013 -0.012993 0.856000
0.031158 -0.018565 0.853000
0.032791 -0.003847 0.859000
0.039325 -0.006644 0.855000
0.006281 -0.026505 0.860000
0.028969 0.024849 0.861000
0.016546 0.004290 0.860000
0.031450 0.016698 0.861000
-0.005438 0.008597 0.866000
-0.000447 0.010000 0.864000
0.008697 -0.022102 0.854000
0.017941 0.025851 0.859000
-0.023808 0.002520 0.860000
-0.011378 -0.010187 0.857000
-0.015330 0.000751 0.861000
0.022590 0.015635 0.861000
-0.029506 0.022722 0.861000
0.002725 -0.023183 0.855000
-0.050356 -0.006988 0.854000
0.032084 0.027266 0.859000
-0.007915 0.010711 0.864000
-0.050282 0.003849 0.841000
-0.042569 0.016325 0.860000
-0.048232 0.007830 0.860000
0.038006 -0.002074 0.857000
-0.048826 0.003927 0.858000
0.020133 0.017782 0.862000
-0.041909 0.003232 0.861000
-0.015223 -0.017201 0.855000
0.043900 0.003209 0.855000
0.038269 -0.023887 0.855000
0.012356 0.013200 0.864000
0.002038 0.020620 0.862000
-0.030284 0.015671 0.863000
-0.012408 -0.021424 0.855000
-0.041410 -0.007727 0.858000
-0.017707 -0.014403 0.856000
-0.022392 0.002166 0.860000
0.008405 -0.007037 0.860000
0.042239 0.010977 0.857000
0.018087 -0.028115 0.866000
-0.041105 0.018073 0.859000
-0.018830 -0.000665 0.859000
0.016267 -0.027695 0.864000
-0.022444 0.012815 0.862000
0.018444 -0.028115 0.866000
0.009060 -0.013330 0.855000
-0.016355 -0.004200 0.859000
-0.010037 0.005371 0.863000
0.035061 -0.021750 0.854000
0.032867 0.005712 0.861000
0.026624 -0.016829 0.854000
0.031546 -0.012260 0.854000
-0.003962 -0.015090 0.855000
-0.000445 -0.006329 0.860000
-0.017416 -0.000311 0.859000
0.013407 0.006081 0.863000
0.015376 -0.018938 0.854000
0.012298 -0.005975 0.860000
-0.021025 0.011041 0.862000
0.008013 -0.024620 0.856000
0.033222 0.007130 0.861000
-0.022992 0.025057 0.856000
0.038711 0.001453 0.857000
-0.037613 0.000750 0.860000
0.034245 0.006060 0.860000
-0.008930 0.022316 0.859000
0.020773 -0.030533 0.874000
0.040216 0.020548 0.859000
0.029357 0.024168 0.862000
-0.012140 -0.002792 0.861000
-0.019891 0.000750 0.859000
0.045008 -0.002776 0.856000
-0.031132 -0.025001 0.857000
0.043196 0.014118 0.855000
-0.014090 -0.030822 0.872000
-0.007525 -0.008099 0.860000
-0.021356 0.029674 0.847000
0.009060 -0.014386 0.855000
0.033930 0.009965 0.861000
-0.050880 -0.005562 0.851000
0.011631 0.019578 0.863000
-0.046216 0.007848 0.862000
0.035764 -0.012260 0.854000
-0.021910 -0.023183 0.855000
0.031450 0.001460 0.861000
-0.001153 0.021280 0.860000
-0.043984 -0.001019 0.860000
0.022433 -0.010163 0.855000
0.012327 0.022039 0.862000
0.019778 0.019201 0.862000
-0.020339 0.023130 0.863000
-0.023454 0.003582 0.860000
0.008088 0.015334 0.864000
-0.025696 0.019601 0.864000
-0.031838 -0.010187 0.857000
-0.046216 0.008912 0.862000
0.029436 -0.014017 0.854000
0.037521 -0.021399 0.854000
0.034639 0.016344 0.861000
0.035578 0.026175 0.858000
0.048655 -0.005218 0.852000
-0.003610 -0.014738 0.855000
-0.036948 0.005712 0.861000
0.015728 -0.015072 0.854000
-0.012056 -0.015793 0.855000
-0.018433 -0.025001 0.857000
-0.016747 0.024140 0.861000
-0.034507 0.020620 0.862000
0.000970 0.023023 0.859000
0.032513 0.014217 0.861000
0.022918 0.024820 0.860000
-0.015702 0.013524 0.862000
-0.012466 0.022316 0.859000
0.006980 -0.009150 0.859000
0.019709 0.002871 0.859000
-0.033915 -0.022858 0.856000
0.031194 -0.022453 0.854000
0.027134 0.003224 0.859000
0.002734 -0.010199 0.858000
0.024688 0.010307 0.860000
-0.015702 0.012105 0.862000
0.037828 -0.020672 0.853000
0.020842 0.018137 0.862000
0.043446 -0.015054 0.853000
0.024745 0.019201 0.862000
-0.018742 -0.016849 0.855000
-0.032073 -0.031576 0.873000
-0.022719 -0.001018 0.859000
-0.035257 0.017802 0.863000
0.002741 -0.005621 0.860000
0.032437 -0.002079 0.859000
-0.028186 0.006088 0.864000
-0.032190 -0.012303 0.857000
-0.010405 0.009288 0.864000
-0.013558 -0.001729 0.861000
-0.010037 0.004660 0.863000
-0.000442 -0.015441 0.855000
-0.032467 -0.020720 0.855000
-0.008636 -0.028439 0.865000
-0.022288 -0.023915 0.856000
-0.045151 0.008203 0.862000
-0.024402 -0.015812 0.856000
-0.044087 0.007138 0.862000
0.032829 0.000396 0.860000
-0.038810 0.016382 0.863000
-0.012169 0.014606 0.863000
0.033222 0.017761 0.861000
0.023461 -0.015072 0.854000
-0.005768 0.019910 0.862000
0.031413 -0.000665 0.860000
-0.030320 0.017823 0.864000
0.048712 -0.011895 0.853000
0.036157 -0.023535 0.855000
-0.019537 -0.002786 0.859000
-0.022613 -0.017905 0.855000
0.010115 -0.023535 0.855000
-0.000091 0.016737 0.863000
0.007377 0.013200 0.864000
-0.020315 0.012105 0.862000
0.006588 -0.019290 0.854000
-0.020854 -0.018257 0.855000
0.040263 0.017740 0.860000
0.000265 0.012859 0.865000
-0.025919 0.027615 0.848000
-0.036905 -0.001019 0.860000
-0.035843 -0.001373 0.860000
-0.008930 0.021255 0.859000
-0.029219 0.000398 0.863000
-0.027766 -0.001022 0.862000
0.014019 -0.008070 0.857000
0.040875 0.003574 0.858000
-0.017022 -0.007718 0.857000
-0.029524 -0.031181 0.872000
-0.025637 0.010686 0.862000
-0.005123 -0.030858 0.873000
0.004511 -0.026505 0.860000
-0.010296 -0.022831 0.855000
0.036818 -0.021750 0.854000
-0.035489 0.000396 0.860000
0.017567 -0.002430 0.858000
0.028293 0.021330 0.862000
-0.037525 -0.007374 0.858000
0.031413 -0.003143 0.860000
0.016079 -0.017884 0.854000
0.006588 -0.016478 0.854000
-0.004753 -0.030428 0.871000
-0.032858 -0.023915 0.856000
0.017899 -0.004543 0.857000
-0.028295 0.028942 0.846000
0.014281 -0.030498 0.873000
-0.025429 -0.021072 0.855000
-0.004715 0.009288 0.864000
0.047067 -0.004533 0.855000
-0.022799 0.009267 0.862000
-0.016412 0.011041 0.862000
0.038139 0.014201 0.860000
-0.048530 -0.008443 0.859000
-0.020670 0.012460 0.862000
-0.012169 0.019578 0.863000
0.038405 -0.027759 0.866000
0.009511 0.011066 0.864000
-0.042007 0.012830 0.863000
-0.009682 0.003595 0.863000
-0.015294 -0.004554 0.859000
0.034285 0.016698 0.861000
0.033498 0.000396 0.859000
-0.029490 -0.030787 0.871000
0.035495 -0.004538 0.856000
-0.024783 -0.013009 0.857000
0.039935 -0.019969 0.853000
-0.025312 0.017092 0.863000
0.038621 -0.023887 0.855000
0.021025 -0.011571 0.855000
-0.025224 0.000042 0.860000
-0.048176 -0.003140 0.859000
0.035184 -0.001369 0.857000
-0.018144 0.003582 0.860000
0.008748 0.024084 0.859000
0.033970 0.021684 0.862000
0.004157 -0.007037 0.860000
-0.010002 -0.007745 0.860000
-0.006888 -0.029643 0.869000
0.011631 0.008922 0.863000
0.013730 -0.000666 0.861000
0.045008 -0.002424 0.856000
-0.029117 -0.027212 0.860000
-0.049417 -0.002072 0.856000
0.016920 -0.026535 0.861000
-0.018390 -0.020720 0.855000
-0.006448 -0.026090 0.858000
0.006956 -0.023915 0.856000
0.044200 -0.010854 0.854000
0.016117 -0.009823 0.856000
-0.015648 -0.004200 0.859000
-0.011813 0.001819 0.863000
-0.031132 -0.010892 0.857000
-0.036551 -0.001727 0.860000
-0.023100 0.002520 0.860000
0.030067 0.020975 0.862000
-0.020192 -0.030822 0.872000
0.037477 -0.019969 0.853000
0.000262 -0.013346 0.856000
-0.027220 -0.016164 0.856000
-0.002233 -0.028861 0.867000
0.021099 0.001102 0.858000
-0.019273 0.014250 0.863000
-0.026585 0.027931 0.847000
-0.012879 0.018868 0.863000
-0.039737 0.001458 0.860000
0.005243 0.011422 0.864000
-0.029687 -0.016164 0.856000
-0.028696 -0.026090 0.858000
0.040569 0.011710 0.859000
0.037873 -0.014017 0.854000
-0.008930 0.021609 0.859000
0.017134 -0.015775 0.854000
0.007706 0.022014 0.861000
-0.050282 0.005580 0.841000
0.026656 -0.023183 0.855000
-0.016631 -0.016497 0.855000
-0.040044 -0.004200 0.859000
0.004162 0.021305 0.861000
-0.015611 -0.010187 0.857000
-0.014871 -0.021072 0.855000
-0.038099 0.014961 0.863000
-0.032934 -0.008080 0.858000
0.039702 -0.029353 0.871000
-0.035053 -0.009139 0.858000
0.023952 0.004992 0.859000
0.018822 -0.028504 0.867000
-0.034307 -0.013009 0.857000
-0.024274 0.017823 0.864000
-0.039737 -0.015886 0.860000
0.003820 0.014267 0.864000
-0.026194 -0.009481 0.857000
0.004848 -0.025001 0.857000
0.040617 0.016679 0.860000
-0.025518 -0.008786 0.858000
-0.034033 -0.005614 0.859000
0.021552 0.017072 0.862000
-0.040398 -0.004554 0.859000
0.033615 0.020265 0.862000
0.004887 0.011066 0.864000
-0.041200 0.016698 0.861000
-0.005755 -0.007391 0.860000
0.008079 0.019223 0.863000
-0.036733 -0.017221 0.856000
0.021352 -0.018587 0.854000
0.034912 0.004639 0.859000
0.018583 -0.007709 0.856000
0.022537 0.026205 0.859000
0.008769 -0.026890 0.861000
0.050700 -0.015369 0.851000
0.015875 0.016717 0.862000
0.026365 -0.003132 0.857000
0.016230 -0.026921 0.862000
0.028648 0.008203 0.862000
0.013391 0.003945 0.862000
-0.046108 -0.001727 0.860000
-0.041248 0.008912 0.862000
0.013746 0.005010 0.862000
-0.014655 0.020644 0.863000
-0.015702 0.013879 0.862000
-0.033126 0.008567 0.863000
-0.026268 0.027615 0.848000
-0.010393 0.015316 0.863000
0.005560 -0.025737 0.858000
0.029753 -0.019969 0.853000
0.035722 -0.016108 0.853000
0.009455 0.024437 0.859000
-0.020268 0.004644 0.860000
0.020770 0.004992 0.859000
0.047715 -0.006988 0.854000
0.026012 -0.025001 0.857000
0.043951 0.001452 0.856000
-0.006769 -0.018938 0.854000
-0.032246 -0.029966 0.868000
-0.018433 -0.010539 0.857000
0.016079 -0.016126 0.854000
-0.024783 -0.012656 0.857000
0.000617 -0.026505 0.860000
0.001689 0.013215 0.865000
0.047308 -0.016108 0.853000
0.018980 0.001808 0.858000
0.027008 -0.009107 0.855000
-0.016412 0.010331 0.862000
-0.040799 -0.000665 0.860000
-0.034931 -0.020720 0.855000
0.006627 -0.009150 0.859000
0.017567 -0.002076 0.858000
-0.041909 -0.008462 0.861000
-0.038454 0.013540 0.863000
-0.015348 0.012460 0.862000
-0.006809 -0.010210 0.859000
0.040828 0.000748 0.857000
-0.037302 0.005004 0.861000
-0.036508 -0.003493 0.859000
-0.003631 0.020926 0.860000
0.014338 -0.011922 0.855000
-0.040821 -0.022464 0.868000
0.021805 -0.000664 0.858000
0.041036 -0.012611 0.854000
-0.049946 -0.006277 0.853000
0.033615 -0.016459 0.853000
-0.004324 -0.011950 0.857000
0.010844 -0.010187 0.857000
-0.023726 -0.030393 0.870000
-0.045151 0.013170 0.862000
0.015875 0.013524 0.862000
0.026976 -0.013666 0.854000
0.020039 0.002514 0.858000
-0.042215 0.000042 0.860000
0.027551 0.016698 0.861000
0.036369 0.014555 0.860000
-0.007647 -0.031253 0.874000
0.049177 0.001075 0.837000
-0.040633 -0.009559 0.864000
-0.033875 -0.020368 0.855000
0.021197 0.019910 0.862000
-0.034507 0.007848 0.862000
0.003449 -0.005621 0.860000
0.013267 -0.019993 0.854000
0.040617 0.015263 0.860000
0.037477 -0.018916 0.853000
-0.006137 0.013911 0.864000
0.027229 0.023458 0.862000
-0.009682 0.003950 0.863000
-0.011116 0.011066 0.864000
-0.023399 -0.006314 0.858000
-0.009660 -0.002792 0.861000
-0.025607 0.002169 0.861000
0.032196 0.008203 0.862000
-0.017436 0.000396 0.860000
-0.016767 0.009622 0.862000
-0.044796 0.008912 0.862000
0.037344 0.002161 0.858000
0.008395 0.024437 0.859000
0.005947 0.017802 0.863000
-0.020854 -0.017553 0.855000
-0.037967 0.001458 0.860000
-0.026701 0.004655 0.862000
-0.048232 0.002520 0.860000
0.047715 -0.008042 0.854000
0.007732 0.010711 0.864000
-0.011827 0.011778 0.864000
0.029402 -0.019618 0.853000
-0.018186 0.011750 0.862000
0.035102 -0.010867 0.855000
0.018252 -0.005249 0.857000
-0.002241 -0.030035 0.870000
-0.038232 -0.009492 0.858000
0.004831 -0.018587 0.854000
-0.017375 -0.008776 0.857000
-0.026962 -0.007736 0.859000
-0.041296 0.012830 0.863000
0.041837 -0.005947 0.856000
-0.045701 0.016306 0.859000
0.031934 -0.009459 0.855000
0.022590 0.024140 0.861000
0.009411 -0.014386 0.855000
0.037474 0.022722 0.861000
-0.030995 0.013540 0.863000
-0.013637 -0.028828 0.866000
-0.028088 -0.031181 0.872000
-0.008185 -0.018960 0.855000
-0.028508 0.002174 0.863000
-0.015611 -0.008423 0.857000
0.011631 0.017447 0.863000
-0.019161 0.025115 0.858000
0.007732 0.015689 0.864000
-0.047823 0.014538 0.859000
0.000263 -0.006329 0.860000
0.006650 0.020975 0.862000
0.038806 -0.028148 0.867000
-0.049129 0.005996 0.851000
-0.015575 -0.023183 0.855000
0.025600 -0.011922 0.855000
0.012241 -0.010879 0.856000
-0.026868 -0.017573 0.856000
-0.028153 0.001108 0.863000
-0.002916 -0.010552 0.858000
0.008748 -0.007736 0.859000
0.022891 -0.025767 0.859000
0.027711 -0.011219 0.855000
0.031841 0.022394 0.862000
0.028096 -0.024620 0.856000
0.004836 -0.023535 0.855000
0.019755 -0.026535 0.861000
-0.022693 -0.026443 0.858000
-0.002215 -0.006683 0.860000
-0.017873 0.022090 0.864000
0.033498 0.002517 0.859000
0.016920 0.023431 0.861000
-0.009305 -0.003856 0.861000
0.024867 -0.015072 0.854000
0.034639 0.017761 0.861000
0.014472 0.012119 0.863000
-0.045861 0.011041 0.862000
-0.050342 0.007319 0.842000
-0.035885 0.003232 0.861000
-0.011116 0.010355 0.864000
0.034953 0.007830 0.860000
-0.024274 0.019245 0.864000
-0.007129 -0.015793 0.855000
-0.033075 -0.030787 0.871000
-0.047767 0.013815 0.858000
-0.048530 0.003224 0.859000
-0.015575 -0.016497 0.855000
-0.002913 -0.011598 0.857000
0.005906 -0.011245 0.857000
-0.018207 0.022420 0.863000
0.000970 0.023377 0.859000
-0.030284 0.014250 0.863000
-0.008586 -0.008453 0.860000
-0.008626 0.010000 0.864000
-0.006187 -0.030428 0.871000
0.017274 0.013509 0.861000
0.000972 -0.005627 0.861000
-0.003284 0.020265 0.862000
-0.041248 0.007848 0.862000
0.046363 -0.006996 0.855000
0.051203 -0.012088 0.842000
-0.030744 -0.018278 0.856000
0.015148 0.003586 0.861000
0.034046 -0.010163 0.855000
-0.021231 -0.013698 0.856000
-0.003980 0.021962 0.859000
0.005213 0.023377 0.859000
0.027551 0.015635 0.861000
-0.030635 -0.031576 0.873000
0.047363 -0.011909 0.854000
0.042794 -0.013666 0.854000
0.019243 -0.017181 0.854000
0.006635 -0.006683 0.860000
0.012356 0.011778 0.864000
0.031841 0.012105 0.862000
-0.016057 0.022749 0.862000
0.030879 -0.023535 0.855000
-0.037345 0.008557 0.862000
-0.013589 0.005015 0.863000
0.001669 -0.016849 0.855000
0.036979 -0.027759 0.866000
0.009411 -0.013682 0.855000
-0.029574 0.002529 0.863000
0.000264 0.017092 0.863000
-0.034579 -0.022480 0.855000
0.026365 -0.003485 0.857000
-0.042362 0.013185 0.863000
-0.022851 0.022090 0.864000
0.002019 -0.020344 0.854000
-0.011841 -0.028439 0.865000
0.007670 -0.011245 0.857000
-0.031838 -0.011950 0.857000
0.032905 0.010686 0.862000
0.003091 -0.008796 0.859000
0.004157 -0.006683 0.860000
0.029471 -0.023887 0.855000
0.016211 0.012446 0.861000
-0.010368 0.020242 0.861000
-0.014993 0.005364 0.862000
0.027583 0.023103 0.862000
-0.035406 -0.026090 0.858000
-0.012169 0.019223 0.863000
0.030175 -0.008755 0.855000
0.026457 0.009245 0.860000
0.034639 0.024494 0.861000
0.034285 0.014217 0.861000
0.009511 0.012845 0.864000
0.029003 0.007493 0.862000
0.030991 -0.028537 0.868000
-0.009604 -0.013346 0.856000
-0.023372 -0.009834 0.857000
0.010455 -0.020696 0.854000
0.036680 0.009235 0.859000
0.023272 0.012077 0.860000
0.023326 0.023103 0.862000
0.026134 0.015635 0.861000
-0.032581 -0.009845 0.858000
-0.020362 0.019957 0.864000
-0.041153 -0.000311 0.860000
-0.033719 -0.027212 0.860000
-0.000804 0.009299 0.865000
0.040169 0.006752 0.858000
-0.022652 -0.030393 0.870000
-0.005741 -0.025737 0.858000
-0.033915 -0.018278 0.856000
0.030032 0.017052 0.861000
0.023598 0.005699 0.859000
0.002384 -0.009150 0.859000
0.027906 0.008547 0.861000
-0.026285 -0.004559 0.860000
-0.007560 0.008577 0.864000
0.002387 -0.005975 0.860000
-0.047225 0.003941 0.861000
-0.012437 -0.011245 0.857000
-0.006848 0.013556 0.864000
0.040988 -0.016810 0.853000
-0.021759 0.016382 0.863000
0.038756 0.004633 0.858000
0.037120 0.017052 0.861000
-0.029574 0.011409 0.863000
0.026624 -0.014720 0.854000
0.013650 -0.010879 0.856000
0.048067 -0.002770 0.854000
-0.013234 0.010698 0.863000
0.015520 0.012460 0.862000
0.022971 0.017072 0.862000
-0.003999 0.016737 0.863000
0.047659 0.000393 0.853000
-0.004339 0.020926 0.860000
-0.050342 0.005933 0.842000
0.018980 -0.001723 0.858000
0.027583 0.019201 0.862000
-0.002569 0.021280 0.860000
0.015165 0.005364 0.862000
-0.048826 -0.006667 0.858000
-0.043580 -0.005614 0.859000
-0.017707 -0.013698 0.856000
-0.049122 0.011330 0.857000
0.004176 0.013200 0.864000
-0.007542 0.018491 0.862000
-0.031763 -0.022831 0.855000
0.028868 -0.004902 0.858000
-0.044036 0.002877 0.861000
0.005540 -0.014034 0.855000
0.014101 0.017072 0.862000
0.019709 0.024437 0.859000
0.039417 -0.025001 0.857000
-0.048232 0.008891 0.860000
-0.024402 -0.024620 0.856000
0.015165 0.022039 0.862000
0.032159 0.005358 0.861000
-0.003648 0.010000 0.864000
0.018735 0.020644 0.863000
0.038359 -0.001016 0.857000
-0.027443 0.022065 0.863000
-0.043327 0.005358 0.861000
0.011604 -0.000312 0.861000
0.005947 0.017447 0.863000
-0.012225 -0.029218 0.867000
0.003807 0.021659 0.861000
-0.014167 -0.019664 0.855000
0.029255 -0.025767 0.859000
-0.028897 0.005377 0.864000
-0.005070 0.010000 0.864000
-0.043427 0.010698 0.863000
0.011577 0.024791 0.859000
-0.003277 -0.008099 0.860000
-0.036029 -0.015107 0.856000
0.021805 0.002161 0.858000
0.038136 -0.028537 0.868000
0.000261 -0.013682 0.855000
-0.000442 -0.019641 0.854000
-0.005748 0.021255 0.859000
0.027165 0.005706 0.860000
0.019640 -0.024267 0.856000
-0.035135 0.023404 0.860000
-0.052374 -0.008193 0.870000
0.013052 0.009278 0.863000
0.016230 0.021330 0.862000
-0.010308 -0.014050 0.856000
0.022931 -0.030533 0.874000
0.028935 0.025528 0.860000
-0.027379 0.026630 0.850000
-0.049244 0.002500 0.853000
-0.037746 -0.020368 0.855000
0.032308 -0.027727 0.865000
0.036200 -0.005242 0.856000
0.041229 0.008871 0.858000
0.044551 -0.011206 0.854000
-0.019469 -0.013346 0.856000
0.020794 -0.026151 0.860000
-0.024523 0.027615 0.848000
0.033537 0.003582 0.860000
0.029678 0.016698 0.861000
0.031194 -0.022805 0.854000
-0.032061 0.014961 0.863000
0.048067 -0.005230 0.854000
0.042189 0.019067 0.856000
-0.005788 0.012859 0.865000
-0.003971 -0.011245 0.857000
-0.008232 -0.006683 0.860000
0.011631 0.008212 0.863000
-0.042717 0.012119 0.863000
0.039909 0.015263 0.860000
-0.027475 0.018179 0.864000
0.005566 0.023377 0.859000
0.023653 0.013863 0.861000
0.036637 0.005693 0.858000
-0.011445 -0.027631 0.862000
-0.009944 -0.017201 0.855000
0.001669 -0.017201 0.855000
-0.007137 -0.012289 0.856000
-0.020056 0.027362 0.851000
-0.018808 -0.004548 0.858000
0.016802 -0.023183 0.855000
0.038756 0.003574 0.858000
0.044656 -0.005595 0.856000
0.002040 0.016737 0.863000
0.010516 -0.008796 0.859000
0.029928 -0.025383 0.858000
-0.025901 0.023730 0.859000
0.025690 0.002867 0.858000
-0.006832 0.019556 0.862000
0.001679 -0.007745 0.860000
-0.029964 0.007155 0.864000
0.034668 -0.019267 0.853000
0.020086 0.010307 0.860000
0.011536 -0.024267 0.856000
0.018891 -0.021750 0.854000
0.006244 -0.013330 0.855000
-0.012834 0.023404 0.860000
-0.051035 0.006280 0.842000
0.018980 -0.001017 0.858000
0.011276 0.020289 0.863000
0.014811 0.015298 0.862000
-0.021195 -0.030001 0.869000
-0.042667 0.006074 0.862000
-0.035718 -0.010892 0.857000
-0.019960 0.013524 0.862000
0.003134 -0.030070 0.871000
0.022971 0.017782 0.862000
0.021754 -0.009118 0.856000
-0.004314 -0.021776 0.855000
-0.013945 0.003595 0.863000
0.029085 -0.016829 0.854000
-0.018786 -0.011950 0.857000
-0.029016 -0.011598 0.857000
0.013714 -0.004205 0.860000
0.025071 0.013509 0.861000
-0.014993 0.022749 0.862000
0.021427 -0.025001 0.857000
-0.010748 0.017802 0.863000
0.013634 -0.023887 0.855000
0.043497 -0.014369 0.854000
-0.041105 -0.004554 0.859000
0.022731 -0.018916 0.853000
0.024515 -0.022102 0.854000
0.041886 0.002511 0.857000
0.039630 -0.015072 0.854000
0.024954 -0.002779 0.857000
0.016211 0.010319 0.861000
0.019732 0.009953 0.860000
-0.034741 -0.003140 0.859000
0.001685 0.017802 0.863000
0.039233 -0.015405 0.853000
-0.018764 -0.015107 0.856000
-0.038365 0.020596 0.861000
-0.006137 0.010355 0.864000
0.010174 -0.005621 0.860000
-0.039997 -0.008080 0.858000
0.048067 -0.003121 0.854000
-0.019251 0.010331 0.862000
0.019686 0.002514 0.858000
0.049125 -0.008335 0.848000
0.010103 -0.017532 0.854000
0.002019 -0.018587 0.854000
0.040497 -0.027371 0.865000
-0.029608 0.017823 0.864000
-0.025934 -0.031181 0.872000
-0.034660 -0.014067 0.857000
0.039110 0.024409 0.858000
-0.039337 -0.005968 0.859000
0.010819 -0.023183 0.855000
-0.036281 0.007493 0.862000
-0.045861 0.005719 0.862000
0.034750 -0.008052 0.855000
0.026749 0.000042 0.858000
0.021477 0.026205 0.859000
0.004887 0.012489 0.864000
-0.031705 0.003595 0.863000
0.041690 -0.017161 0.853000
-0.022012 -0.002786 0.859000
0.015025 -0.015072 0.854000
-0.034113 0.004295 0.861000
0.014085 -0.002084 0.861000
-0.005064 0.016382 0.863000
0.036424 -0.019618 0.853000
-0.039783 0.002523 0.861000
0.034599 0.009245 0.860000
-0.015010 0.021354 0.863000
-0.001512 0.017092 0.863000
-0.030640 0.010698 0.863000
0.025660 -0.004896 0.857000
-0.015241 -0.015812 0.856000
0.024192 -0.010515 0.855000
-0.035448 -0.003140 0.859000
-0.026485 -0.021072 0.855000
-0.039904 -0.023563 0.856000
-0.031540 0.028346 0.849000
0.004893 0.013571 0.865000
0.020673 -0.013330 0.855000
0.018583 -0.009118 0.856000
-0.016412 0.014234 0.862000
0.001693 -0.028861 0.867000
0.016117 -0.008766 0.856000
-0.017375 -0.009129 0.857000
0.008697 -0.017181 0.854000
-0.049479 0.000743 0.851000
0.012341 0.019578 0.863000
0.028615 0.015281 0.861000
-0.000448 0.009299 0.865000
0.017962 0.024112 0.860000
-0.034073 -0.001373 0.860000
-0.016660 -0.031649 0.875000
0.026976 -0.016829 0.854000
0.029085 -0.013666 0.854000
-0.022693 -0.005608 0.858000
-0.019914 0.002520 0.860000
0.039584 -0.018565 0.853000
-0.000092 -0.029252 0.868000
0.010565 0.017802 0.863000
0.010908 0.001816 0.862000
-0.023100 0.003936 0.860000
-0.021684 0.004644 0.860000
0.015376 -0.017532 0.854000
0.029323 0.016698 0.861000
-0.029895 0.022394 0.862000
0.032551 0.012815 0.862000
0.032196 0.007138 0.862000
-0.019228 0.007130 0.861000
-0.014604 -0.003497 0.860000
0.032600 -0.022102 0.854000
-0.046462 0.000396 0.860000
0.022511 0.003221 0.858000
0.028648 0.023458 0.862000
0.020086 0.009953 0.860000
0.002045 0.013215 0.865000
-0.048473 -0.007727 0.858000
0.044303 -0.004538 0.856000
0.022758 -0.016126 0.854000
0.003465 0.010711 0.864000
0.039909 0.016679 0.860000
-0.009991 0.021255 0.859000
0.032791 0.027266 0.859000
-0.040044 -0.003493 0.859000
-0.015241 -0.012993 0.856000
-0.005017 -0.016145 0.855000
0.013006 -0.004913 0.860000
-0.001867 0.018513 0.863000
-0.020598 0.024437 0.859000
-0.011405 0.021962 0.859000
-0.040137 0.016698 0.861000
0.035889 -0.001016 0.857000
0.007697 -0.007391 0.860000
0.030915 -0.007004 0.856000
-0.033210 -0.023210 0.856000
0.030777 0.008557 0.862000
0.016585 0.017072 0.862000
-0.012112 0.022316 0.859000
0.037300 0.000395 0.857000
-0.018228 -0.028406 0.864000
0.046715 -0.005588 0.855000
-0.005363 -0.019641 0.854000
0.013021 0.001106 0.861000
-0.013234 0.016382 0.863000
-0.004364 0.011791 0.865000
-0.037215 -0.026827 0.859000
0.033459 -0.004548 0.858000
0.023681 0.019910 0.862000
0.003820 0.010000 0.864000
0.036434 -0.028961 0.870000
-0.016431 0.022420 0.863000
-0.036733 -0.017573 0.856000
0.013006 -0.005621 0.860000
0.013746 0.019201 0.862000
-0.020358 0.027997 0.849000
0.023763 -0.027015 0.865000
0.007377 0.011066 0.864000
0.004166 0.020975 0.862000
0.028615 0.017407 0.861000
0.048655 -0.004867 0.852000
0.002040 0.018513 0.863000
0.021099 -0.000664 0.858000
0.009511 0.013200 0.864000
-0.040184 0.008557 0.862000
0.011590 -0.004913 0.860000
0.027906 0.006776 0.861000
-0.007525 0.020572 0.860000
-0.020976 0.003936 0.860000
-0.005064 0.017802 0.863000
-0.032733 0.021330 0.862000
0.021377 -0.011922 0.855000
-0.022470 0.014250 0.863000
0.036723 0.014555 0.860000
0.028415 -0.022831 0.855000
0.029051 -0.017512 0.853000
-0.038540 -0.012656 0.857000
-0.010296 -0.017905 0.855000
-0.018207 0.023130 0.863000
-0.035530 0.002877 0.861000
-0.032239 0.027298 0.849000
-0.020362 0.019245 0.864000
-0.000796 -0.025354 0.857000
0.038050 0.005693 0.858000
-0.046055 0.015952 0.859000
0.039371 -0.002776 0.856000
-0.012154 -0.001022 0.862000
0.016920 0.012091 0.861000
0.005188 -0.016145 0.855000
-0.024927 0.007138 0.862000
-0.017355 -0.015107 0.856000
-0.032619 -0.006321 0.859000
0.049357 -0.014686 0.852000
0.041837 -0.004890 0.856000
-0.039552 -0.023915 0.856000
-0.005755 0.020572 0.860000
-0.029964 0.017823 0.864000
-0.036025 -0.031576 0.873000
-0.036991 0.009977 0.862000
-0.035635 -0.020016 0.855000
-0.013912 -0.003856 0.861000
-0.015366 0.022065 0.863000
0.016173 -0.026120 0.859000
0.024390 0.020975 0.862000
-0.014958 -0.003497 0.860000
0.032600 -0.014017 0.854000
0.039233 -0.021374 0.853000
0.036552 -0.004185 0.856000
0.042239 0.000748 0.857000
0.036284 0.004280 0.858000
-0.016298 -0.015460 0.856000
-0.037790 -0.023563 0.856000
-0.010393 0.018513 0.863000
-0.015630 -0.008080 0.858000
0.014101 0.003945 0.862000
-0.019251 0.012460 0.862000
-0.051626 0.006309 0.846000
0.008850 -0.029286 0.869000
-0.022444 0.009267 0.862000
0.019046 -0.026535 0.861000
0.031897 -0.012963 0.854000
-0.023046 -0.005608 0.858000
-0.045754 0.014201 0.860000
0.016782 -0.020696 0.854000
-0.031228 0.025930 0.850000
0.042542 0.019067 0.856000
-0.019117 -0.012641 0.856000
-0.022746 0.000750 0.860000
-0.003994 0.019556 0.862000
0.041180 0.000042 0.857000
-0.026233 -0.029319 0.870000
0.005892 -0.015793 0.855000
0.049118 0.000041 0.836000
-0.029185 -0.002796 0.862000
-0.028643 0.028246 0.846000
-0.042873 -0.005614 0.859000
-0.017082 0.003228 0.860000
0.015728 -0.022453 0.854000
0.000977 0.013927 0.865000
-0.033797 0.006074 0.862000
-0.005420 0.018513 0.863000
-0.015348 0.011750 0.862000
0.032196 0.023103 0.862000
-0.006137 0.011066 0.864000
-0.029368 -0.011245 0.857000
-0.032341 -0.003147 0.861000
-0.018186 0.010331 0.862000
0.021295 -0.028115 0.866000
-0.040941 0.014961 0.863000
-0.020550 0.025086 0.857000
-0.009944 -0.015441 0.855000
-0.011745 -0.009845 0.858000
0.010920 0.005726 0.863000
0.000261 -0.020344 0.854000
0.028615 0.005712 0.861000
0.010528 -0.005621 0.860000
0.032121 0.000750 0.860000
-0.023019 -0.009834 0.857000
-0.005058 0.019910 0.862000
0.015376 -0.016478 0.854000
0.012638 0.024437 0.859000
0.034285 0.017052 0.861000
0.013698 -0.005614 0.859000
0.020416 0.006760 0.859000
-0.042313 0.008557 0.862000
0.018273 -0.000311 0.858000
0.033615 0.018846 0.862000
0.004171 0.016737 0.863000
0.018209 -0.012274 0.855000
0.017588 0.000750 0.859000
0.010908 -0.026921 0.862000
-0.000447 0.019223 0.863000
0.023868 -0.007356 0.856000
-0.041603 0.009267 0.862000
-0.044692 0.017387 0.860000
0.003776 -0.017884 0.854000
-0.031949 -0.005267 0.860000
0.043650 0.000395 0.857000
-0.007906 0.014961 0.863000
0.013267 -0.022453 0.854000
-0.035094 -0.002432 0.859000
0.034668 -0.016459 0.853000
0.034831 -0.004190 0.857000
0.029357 0.021330 0.862000
0.019946 -0.015423 0.854000
0.015875 0.011041 0.862000
-0.031411 -0.019664 0.855000
0.038403 0.002161 0.858000
-0.030779 -0.012303 0.857000
-0.030604 -0.000667 0.862000
0.025366 0.005699 0.859000
-0.043630 -0.002081 0.860000
-0.018038 -0.030822 0.872000
-0.004364 -0.028439 0.865000
0.011671 -0.028472 0.866000
0.033694 -0.010515 0.855000
0.043145 -0.010503 0.854000
-0.026931 -0.008433 0.858000
-0.024162 0.000396 0.860000
0.004574 -0.030463 0.872000
-0.013112 -0.022480 0.855000
0.012608 -0.009129 0.857000
0.009155 0.009644 0.864000
-0.038187 -0.011598 0.857000
-0.004314 -0.017553 0.855000
0.034044 -0.030139 0.873000
0.035412 -0.022453 0.854000
-0.048893 0.008117 0.853000
-0.044442 0.006783 0.862000
-0.025224 -0.000311 0.860000
-0.034821 0.003232 0.861000
0.029678 0.004649 0.861000
0.027938 0.018137 0.862000
0.011875 -0.012978 0.855000
-0.048699 -0.008827 0.862000
0.010565 0.017447 0.863000
-0.014808 -0.030822 0.872000
0.022918 0.008891 0.860000
-0.025282 0.006783 0.862000
-0.021255 -0.011598 0.857000
-0.000794 -0.014738 0.855000
0.027102 -0.003136 0.858000
-0.027347 0.026948 0.849000
-0.016039 0.002169 0.861000
-0.015241 -0.014403 0.856000
-0.029219 0.015671 0.863000
0.048604 -0.004102 0.839000
0.012413 -0.028895 0.868000
-0.011458 0.003950 0.863000
0.035061 -0.012260 0.854000
-0.018808 -0.007727 0.858000
0.035389 0.019910 0.862000
-0.025811 -0.023210 0.856000
0.036073 -0.020672 0.853000
0.014422 -0.002081 0.860000
-0.047469 0.011710 0.859000
-0.004003 0.011422 0.864000
-0.017122 -0.027631 0.862000
-0.020927 -0.004902 0.858000
0.035034 0.020265 0.862000
0.018891 -0.015775 0.854000
-0.025931 -0.002435 0.860000
-0.002919 0.022670 0.859000
0.012579 -0.022831 0.855000
0.019310 -0.025001 0.857000
0.032400 -0.005255 0.858000
-0.041555 0.001814 0.861000
-0.031801 -0.014755 0.856000
0.030527 -0.011571 0.855000
0.037120 0.023431 0.861000
0.012341 0.015316 0.863000
0.015538 0.020289 0.863000
0.003429 -0.013330 0.855000
0.046770 -0.000310 0.856000
0.029272 -0.026813 0.870000
-0.021330 -0.027212 0.860000
0.025012 0.003578 0.859000
-0.009284 -0.009150 0.859000
-0.019651 0.022446 0.864000
0.049806 -0.008561 0.836000
-0.009944 -0.022480 0.855000
-0.011827 0.007155 0.864000
-0.030744 -0.023915 0.856000
0.027008 -0.009459 0.855000
-0.021000 0.007130 0.861000
0.003803 -0.006683 0.860000
-0.036690 -0.022480 0.855000
0.022406 -0.021047 0.854000
-0.020339 0.017092 0.863000
-0.000091 -0.006329 0.860000
0.034679 0.020620 0.862000
0.009144 0.016026 0.863000
0.016079 -0.015072 0.854000
0.033264 -0.016459 0.853000
-0.029219 0.013895 0.863000
-0.008626 0.009644 0.864000
0.031131 0.022039 0.862000
-0.005721 -0.014738 0.855000
-0.023481 0.023431 0.861000
-0.023754 -0.030787 0.871000
-0.018584 0.018534 0.864000
0.036467 -0.015072 0.854000
0.021477 0.006760 0.859000
-0.023426 -0.003493 0.859000
-0.013815 -0.023183 0.855000
0.018891 -0.015423 0.854000
-0.001146 -0.014738 0.855000
0.023326 0.017427 0.862000
0.014405 0.025144 0.859000
-0.008271 0.013200 0.864000
-0.005070 -0.028050 0.864000
-0.017416 -0.001725 0.859000
-0.027925 -0.017221 0.856000
-0.035489 0.002166 0.860000
-0.033249 -0.013361 0.857000
0.041935 0.013108 0.858000
0.030491 -0.022102 0.854000
0.003445 0.022670 0.859000
0.019558 -0.028895 0.868000
0.034559 0.027266 0.859000
-0.010735 0.020265 0.862000
0.024716 0.013863 0.861000
-0.042519 -0.006675 0.859000
-0.044338 -0.003143 0.860000
0.036991 0.004280 0.858000
0.030741 0.000397 0.861000
0.037829 0.018824 0.861000
-0.016057 0.007138 0.862000
-0.033011 -0.001727 0.860000
-0.017769 -0.001725 0.859000
-0.014536 -0.023915 0.856000
-0.027798 0.011764 0.863000
-0.033954 -0.011245 0.857000
-0.001507 -0.008099 0.860000
-0.039034 -0.029966 0.868000
0.003425 -0.021750 0.854000
0.022406 -0.022102 0.854000
-0.008319 -0.029643 0.869000
-0.013219 0.000397 0.862000
0.035266 0.007113 0.859000
0.041325 -0.025797 0.860000
0.008346 -0.017884 0.854000
0.016098 -0.022831 0.855000
-0.033126 0.014250 0.863000
0.033576 0.013154 0.861000
-0.016767 0.011041 0.862000
-0.023153 0.010686 0.862000
0.036861 -0.006996 0.855000
-0.016689 -0.006667 0.858000
0.002417 -0.030070 0.871000
-0.000803 0.013911 0.864000
0.026811 0.006060 0.860000
-0.036466 -0.007374 0.858000
-0.033837 0.013540 0.863000
0.037551 -0.029353 0.871000
-0.022314 -0.008776 0.857000
0.022406 -0.015423 0.854000
0.020133 0.016717 0.862000
-0.035843 0.000750 0.860000
0.027071 -0.005601 0.857000
0.013376 0.001460 0.861000
0.013360 -0.005621 0.860000
-0.039383 0.017740 0.860000
-0.044848 0.010698 0.863000
-0.006493 0.014623 0.864000
0.034953 0.011723 0.860000
-0.035298 0.017112 0.864000
0.021123 0.025498 0.859000
-0.001865 -0.027276 0.862000
-0.023180 0.015671 0.863000
-0.007906 0.017802 0.863000
-0.020221 -0.005255 0.858000
-0.037967 0.000042 0.860000
-0.019798 -0.021776 0.855000
