-0.012366 -0.005010 0.877000
0.007411 -0.001743 0.868000
-0.004384 -0.036439 0.869000
0.017174 0.038797 0.856000
0.028448 0.023647 0.856000
0.013702 -0.038799 0.882000
-0.009107 0.005451 0.876000
0.015912 0.023157 0.864000
0.035722 0.029533 0.853000
0.016939 0.033037 0.862000
0.017475 -0.025051 0.871000
-0.021776 -0.006100 0.878000
0.017690 0.025646 0.864000
0.010222 0.017112 0.864000
-0.018907 -0.023472 0.879000
-0.009817 0.011928 0.875000
0.010971 0.010034 0.867000
0.011658 -0.025591 0.865000
-0.006560 0.019805 0.873000
0.003838 0.037912 0.868000
0.009466 0.044287 0.860000
-0.006935 0.015529 0.875000
-0.028577 0.001125 0.876000
-0.006538 -0.033974 0.870000
-0.019924 -0.044304 0.876000
0.040466 0.003991 0.872000
-0.024334 -0.007916 0.879000
-0.020284 -0.040338 0.876000
0.030210 0.032455 0.856000
0.016939 0.030554 0.862000
-0.008357 0.020883 0.873000
0.002042 0.045916 0.864000
0.008789 -0.021624 0.863000
-0.016318 0.005091 0.876000
0.015148 -0.011297 0.861000
-0.020238 0.006878 0.874000
-0.001878 -0.021750 0.868000
-0.007254 -0.039345 0.870000
0.002404 -0.021699 0.866000
-0.031101 -0.002481 0.876000
0.021123 0.002164 0.859000
0.008453 -0.007078 0.865000
0.026365 0.004980 0.857000
-0.000808 0.032986 0.870000
-0.013388 -0.035169 0.873000
-0.008746 0.004370 0.876000
0.017608 0.001812 0.860000
0.015502 -0.014487 0.861000
0.020440 0.017387 0.860000
-0.014466 -0.033732 0.873000
-0.006896 0.032628 0.870000
-0.033092 -0.010472 0.881000
-0.001164 -0.027108 0.868000
-0.026535 -0.020601 0.880000
-0.004384 -0.024278 0.869000
0.009878 0.017844 0.865000
-0.003311 -0.027140 0.869000
-0.010860 -0.037641 0.872000
-0.010897 0.014449 0.875000
-0.026172 -0.019877 0.880000
0.019046 0.030518 0.861000
-0.028740 -0.010109 0.881000
-0.007970 0.031554 0.870000
-0.006180 -0.020009 0.870000
-0.026535 -0.001405 0.880000
0.011631 -0.004575 0.863000
0.005982 -0.008174 0.868000
0.009187 0.033586 0.867000
-0.000450 0.036567 0.870000
-0.006920 -0.012892 0.873000
-0.003669 -0.044665 0.869000
-0.024667 -0.032480 0.878000
-0.002602 0.025854 0.871000
-0.005099 -0.043234 0.869000
-0.015236 -0.008970 0.876000
0.002047 -0.020987 0.866000
0.025690 -0.000311 0.858000
0.014811 0.019201 0.862000
-0.030588 -0.020285 0.882000
0.026365 0.022969 0.857000
0.000978 -0.030254 0.866000
0.036732 0.029147 0.852000
0.017649 0.030554 0.862000
-0.006943 0.004370 0.876000
-0.012683 -0.012907 0.874000
0.015165 -0.017342 0.862000
-0.016337 -0.001040 0.877000
0.005670 -0.043533 0.875000
0.002404 -0.018135 0.866000
0.012111 -0.032976 0.872000
-0.030484 -0.004660 0.879000
0.009218 -0.034332 0.870000
0.021856 0.024466 0.860000
0.035020 0.026724 0.853000
0.038314 0.015192 0.856000
-0.024943 -0.042453 0.875000
0.031139 0.035779 0.843000
0.013407 0.011409 0.863000
-0.006896 -0.023590 0.870000
-0.016981 0.018009 0.873000
-0.006575 0.014088 0.875000
-0.032040 -0.018470 0.882000
0.018465 -0.020297 0.867000
0.039748 0.002914 0.872000
-0.000806 -0.019249 0.868000
-0.002235 -0.027466 0.868000
-0.002235 -0.040327 0.868000
-0.004742 -0.031432 0.869000
-0.017740 -0.030928 0.875000
-0.021029 -0.034609 0.877000
0.027776 0.027555 0.857000
-0.037401 -0.020601 0.880000
0.013407 0.002884 0.863000
0.030527 0.015878 0.855000
0.008463 -0.029541 0.866000
-0.029862 -0.014477 0.882000
0.024900 -0.022412 0.880000
-0.004769 0.012993 0.874000
0.030175 0.023268 0.855000
0.008444 -0.023427 0.864000
-0.009749 0.032233 0.869000
0.037477 0.020405 0.853000
0.002760 -0.027402 0.866000
0.015502 -0.004564 0.861000
0.019024 -0.006329 0.860000
-0.009446 0.017310 0.874000
0.002412 0.042247 0.869000
-0.012727 -0.004288 0.877000
-0.013794 0.005451 0.876000
0.021074 0.037431 0.857000
0.013391 -0.013439 0.862000
0.020086 0.032961 0.860000
-0.033075 -0.000315 0.871000
0.046193 0.017488 0.865000
0.001336 -0.020297 0.867000
-0.001166 0.030838 0.870000
-0.019203 -0.037814 0.876000
-0.001528 -0.012160 0.872000
0.008962 -0.043420 0.880000
-0.015958 -0.020147 0.876000
-0.003319 0.023345 0.871000
-0.008025 0.004370 0.876000
0.008125 -0.000672 0.868000
0.024716 0.036558 0.837000
0.008840 0.029338 0.868000
-0.033341 -0.008268 0.878000
0.006346 -0.001388 0.869000
-0.011617 0.011928 0.875000
-0.004031 -0.016070 0.870000
0.021957 -0.013115 0.864000
0.021805 0.007105 0.858000
-0.042665 -0.011963 0.884000
-0.032330 -0.034365 0.880000
0.018713 -0.013794 0.862000
-0.018460 -0.041372 0.875000
0.000623 -0.041756 0.868000
-0.002953 -0.021059 0.869000
-0.014859 0.012648 0.875000
-0.008706 -0.026157 0.872000
0.002061 -0.045537 0.872000
0.004904 0.019669 0.867000
-0.005835 0.024448 0.872000
0.020770 0.002871 0.859000
-0.004758 0.024448 0.872000
0.016211 -0.012006 0.861000
-0.022037 0.004720 0.874000
0.006332 0.016458 0.867000
0.012682 -0.008117 0.862000
-0.003323 -0.012877 0.872000
-0.013464 -0.000318 0.878000
0.035156 0.002535 0.865000
-0.008328 -0.041852 0.870000
0.002760 -0.022056 0.866000
0.030879 0.017637 0.855000
-0.023945 -0.035009 0.878000
0.004186 -0.013502 0.866000
-0.020645 -0.035651 0.876000
-0.003694 0.010847 0.875000
0.038180 0.004693 0.869000
-0.010872 -0.015767 0.873000
-0.030675 -0.041919 0.864000
-0.023972 -0.002127 0.879000
-0.021101 -0.020964 0.880000
0.034599 0.006060 0.860000
0.031231 0.017989 0.855000
-0.008357 -0.012173 0.873000
0.002054 0.019714 0.869000
0.003116 -0.029541 0.866000
0.014456 0.011750 0.862000
0.034317 0.031990 0.853000
0.029858 0.029989 0.856000
-0.021776 -0.011159 0.878000
0.008799 -0.010270 0.864000
0.030598 0.004980 0.857000
-0.001523 0.041890 0.869000
-0.032692 -0.008649 0.880000
-0.003677 0.029081 0.871000
-0.026504 -0.028175 0.879000
0.005968 -0.031323 0.866000
-0.013043 -0.020101 0.874000
0.003847 0.015798 0.870000
-0.018121 -0.041419 0.876000
0.030527 0.022212 0.855000
0.034046 0.012007 0.855000
0.028482 0.005686 0.857000
-0.037358 -0.023472 0.879000
0.009900 0.003254 0.867000
0.027071 0.002511 0.857000
-0.028708 -0.031467 0.880000
0.004244 -0.047296 0.878000
0.018692 0.035125 0.861000
0.022642 -0.011679 0.863000
-0.019563 -0.033487 0.876000
-0.033856 -0.014114 0.882000
0.025455 -0.006698 0.862000
0.024147 -0.011719 0.866000
-0.012310 -0.033373 0.873000
0.026765 -0.011774 0.870000
0.018670 0.004998 0.860000
-0.035748 -0.034530 0.875000
-0.004384 -0.042161 0.869000
0.016211 0.010674 0.861000
0.000623 0.041890 0.869000
0.004195 0.019692 0.868000
0.032952 0.029567 0.854000
0.023924 -0.000311 0.858000
0.005961 -0.015978 0.865000
-0.029828 -0.019174 0.881000
0.020842 -0.011665 0.862000
-0.013778 0.013008 0.875000
-0.009107 0.003649 0.876000
-0.022138 -0.024168 0.878000
-0.010872 -0.013970 0.873000
0.034668 0.022160 0.853000
-0.006575 0.011568 0.875000
-0.028281 0.000043 0.878000
0.022520 -0.018979 0.872000
-0.009478 -0.001040 0.877000
0.046549 0.017844 0.865000
0.029823 0.011303 0.855000
-0.007998 0.021961 0.873000
-0.014893 -0.024863 0.877000
0.027186 -0.012877 0.872000
-0.024695 -0.014066 0.879000
-0.001878 -0.022464 0.868000
-0.027621 -0.030018 0.880000
0.029858 0.010259 0.856000
0.012000 0.022801 0.864000
0.006696 -0.004244 0.868000
0.036517 -0.000675 0.872000
0.007750 0.023924 0.866000
0.023924 0.011343 0.858000
0.017156 -0.026905 0.873000
0.025690 0.033237 0.858000
-0.029432 -0.003941 0.880000
-0.010860 -0.034770 0.872000
0.031582 0.020804 0.855000
0.009499 -0.019138 0.863000
0.003847 0.016514 0.870000
0.037637 -0.000316 0.873000
0.028801 0.034217 0.856000
0.017294 0.033392 0.862000
-0.005822 -0.023232 0.870000
-0.003690 0.014432 0.874000
-0.032183 -0.004283 0.876000
0.026012 0.023675 0.857000
-0.001528 -0.010365 0.872000
0.010663 -0.034013 0.871000
0.035371 0.028128 0.853000
-0.027259 -0.025310 0.880000
0.028096 0.009907 0.856000
0.003816 0.046218 0.863000
0.016623 0.028491 0.864000
0.020440 0.030129 0.860000
-0.018121 -0.014379 0.876000
-0.038497 -0.010724 0.872000
-0.037763 -0.017704 0.880000
-0.030959 -0.043951 0.862000
-0.034467 -0.041773 0.861000
0.026348 -0.020239 0.880000
0.032681 -0.008240 0.875000
0.036517 -0.001034 0.872000
0.017628 0.009965 0.861000
-0.023195 -0.039662 0.877000
-0.016355 -0.024891 0.878000
-0.006920 0.025554 0.873000
-0.032403 -0.017744 0.882000
0.037422 0.003615 0.868000
-0.023610 -0.015875 0.879000
-0.011232 -0.020438 0.873000
-0.037162 0.000043 0.866000
-0.015236 0.006894 0.876000
-0.013342 0.022244 0.870000
-0.007621 0.030156 0.871000
-0.028708 -0.033278 0.880000
-0.033492 -0.029724 0.882000
0.031915 -0.000313 0.864000
-0.005457 -0.040373 0.869000
-0.018481 0.005812 0.876000
0.024716 0.037247 0.837000
-0.018142 -0.007537 0.877000
-0.018121 0.005812 0.876000
-0.031931 -0.006469 0.879000
0.003116 -0.033818 0.866000
0.009511 -0.025205 0.864000
-0.010860 0.024448 0.872000
0.017254 0.003936 0.860000
0.017983 0.033708 0.861000
0.033773 0.009566 0.857000
-0.016244 0.019065 0.872000
0.019445 -0.014876 0.863000
-0.027983 -0.032192 0.880000
-0.021751 -0.032804 0.877000
0.037785 0.010661 0.860000
-0.040324 -0.006010 0.865000
-0.037358 -0.022387 0.879000
0.016565 0.007839 0.861000
0.003134 0.013666 0.871000
0.010234 0.041341 0.865000
0.001700 0.012949 0.871000
-0.006553 0.022654 0.872000
0.005249 -0.015622 0.865000
0.048251 0.016156 0.870000
-0.033092 -0.032591 0.881000
0.008125 -0.033896 0.868000
0.021452 0.004280 0.858000
-0.019946 -0.009703 0.877000
-0.025303 0.003284 0.875000
0.018337 0.018115 0.861000
-0.021005 -0.042501 0.876000
0.025012 -0.003140 0.859000
-0.034548 -0.004264 0.872000
0.013746 -0.014504 0.862000
0.011658 0.011079 0.865000
-0.027259 -0.020601 0.880000
0.031972 0.009202 0.856000
-0.029298 -0.038896 0.876000
0.008932 -0.040745 0.877000
-0.014122 -0.012187 0.874000
-0.008706 0.025884 0.872000
-0.034588 -0.035888 0.873000
0.030137 -0.002802 0.864000
-0.024943 0.002564 0.875000
0.010920 -0.004575 0.863000
-0.031314 -0.027183 0.882000
0.013067 0.032403 0.864000
-0.022112 -0.031360 0.877000
0.013067 0.002532 0.864000
-0.029070 -0.033640 0.880000
0.010590 0.040985 0.865000
0.018380 0.026682 0.863000
-0.023195 -0.038579 0.877000
-0.034141 -0.011909 0.880000
0.016920 0.015989 0.861000
-0.009446 0.015511 0.874000
0.024954 0.013799 0.857000
0.016211 0.002523 0.861000
0.000265 -0.039969 0.868000
0.039075 0.001480 0.873000
-0.007246 0.037955 0.869000
-0.036997 -0.025643 0.879000
0.010210 -0.007772 0.863000
0.043044 0.018427 0.859000
0.009855 -0.020559 0.863000
-0.039841 -0.010699 0.870000
0.015165 0.017427 0.862000
0.008473 -0.004239 0.867000
-0.000805 -0.030646 0.867000
-0.022730 -0.045589 0.873000
0.019112 0.023513 0.864000
0.025375 0.036170 0.836000
-0.011604 0.015511 0.874000
0.000623 0.028298 0.869000
0.001340 0.039431 0.870000
-0.027245 -0.043185 0.868000
0.004558 -0.010329 0.869000
-0.001530 0.015134 0.873000
0.023598 -0.002432 0.859000
-0.004399 0.020500 0.872000
0.003127 0.041174 0.869000
-0.032403 -0.012299 0.882000
0.004547 0.026092 0.867000
0.011328 0.006466 0.867000
-0.000808 0.040506 0.870000
-0.029103 -0.023888 0.881000
-0.011644 0.001848 0.877000
-0.001524 0.023676 0.870000
0.012014 -0.025591 0.865000
0.029823 0.015526 0.855000
-0.001878 -0.025322 0.868000
-0.032004 -0.032591 0.881000
0.026751 0.036170 0.836000
0.008463 0.016082 0.866000
-0.021029 -0.033887 0.877000
-0.020307 0.002209 0.877000
0.038756 0.013462 0.858000
-0.007998 -0.013251 0.873000
0.001693 -0.038139 0.867000
-0.004045 -0.010377 0.873000
-0.018142 0.004014 0.877000
-0.012324 -0.012547 0.874000
-0.018842 -0.030964 0.876000
0.015520 0.009977 0.862000
0.017608 0.001104 0.860000
0.023571 0.017346 0.858000
0.004224 -0.044562 0.874000
-0.010835 0.026183 0.870000
-0.020307 -0.009342 0.877000
0.041132 0.018010 0.856000
0.008820 0.013944 0.866000
0.035441 -0.002110 0.872000
0.016585 0.034457 0.862000
0.035412 0.017968 0.854000
0.005249 -0.020962 0.865000
-0.012366 -0.007176 0.877000
-0.011604 -0.022979 0.874000
-0.011978 0.011207 0.875000
-0.006896 -0.035407 0.870000
-0.014155 -0.021950 0.876000
0.018316 -0.000311 0.860000
-0.017059 -0.026668 0.877000
0.016437 -0.027983 0.873000
0.028767 0.012359 0.855000
0.001334 -0.034174 0.866000
0.024716 -0.006336 0.861000
0.000978 -0.030610 0.866000
0.021590 -0.025252 0.878000
-0.002953 -0.024994 0.869000
0.021952 -0.024530 0.878000
-0.025029 -0.033564 0.878000
0.006696 0.015047 0.868000
0.024630 0.022643 0.858000
0.022158 0.012049 0.858000
0.033303 0.023944 0.854000
-0.034219 -0.025367 0.882000
-0.006180 0.034418 0.870000
0.014742 0.040653 0.858000
-0.012005 0.003292 0.877000
0.016920 -0.013424 0.861000
0.016211 0.006067 0.861000
-0.005476 -0.013595 0.872000
-0.037463 -0.009658 0.873000
0.014117 0.035917 0.863000
0.007045 0.015744 0.867000
0.021830 0.036458 0.859000
-0.008716 0.024117 0.873000
-0.004758 0.031985 0.872000
0.012341 0.013895 0.863000
-0.025057 -0.015513 0.879000
-0.032403 -0.028635 0.882000
-0.032942 -0.006093 0.877000
0.007750 0.023567 0.866000
-0.025188 -0.043692 0.871000
-0.000092 -0.031716 0.867000
0.030527 0.017285 0.855000
0.032321 -0.008600 0.875000
0.035371 0.019000 0.853000
0.009165 0.023896 0.865000
-0.010154 -0.024390 0.873000
0.002047 -0.027759 0.866000
0.005273 -0.005322 0.869000
-0.037345 -0.037564 0.862000
0.020977 0.039408 0.839000
-0.010897 0.011928 0.875000
-0.013418 -0.011121 0.875000
0.013354 -0.040297 0.883000
-0.037358 -0.032879 0.879000
0.004200 -0.009256 0.869000
0.032777 -0.002458 0.868000
0.016230 0.018491 0.862000
-0.008016 0.013728 0.875000
0.019002 -0.002432 0.859000
-0.019969 -0.017302 0.878000
-0.026856 -0.045276 0.867000
0.017254 -0.010222 0.860000
0.001698 -0.043284 0.870000
0.023924 -0.000664 0.858000
-0.019969 -0.024168 0.878000
0.004904 0.021453 0.867000
-0.037720 -0.031793 0.879000
-0.035108 -0.034248 0.877000
0.002412 0.040101 0.869000
-0.011617 -0.009680 0.875000
-0.018183 -0.021302 0.879000
0.019024 0.017033 0.860000
-0.029828 -0.022075 0.881000
0.022184 0.027619 0.859000
0.018316 -0.006683 0.860000
-0.029298 0.000764 0.876000
0.006346 0.012561 0.869000
0.003847 0.012576 0.870000
-0.001887 -0.012877 0.872000
0.032753 0.005693 0.858000
0.009878 0.022828 0.865000
0.019801 -0.014876 0.863000
0.002047 -0.031679 0.866000
-0.025448 -0.017342 0.880000
-0.019924 -0.036732 0.876000
0.008097 -0.027371 0.865000
-0.017400 -0.012936 0.876000
0.001339 0.022218 0.869000
0.009544 0.006109 0.867000
-0.021053 -0.006461 0.878000
-0.032283 -0.038942 0.869000
0.018648 -0.003493 0.859000
-0.000449 -0.024579 0.867000
0.016920 0.010319 0.861000
-0.015615 0.000404 0.877000
-0.031314 -0.030087 0.882000
0.007876 -0.044868 0.880000
-0.003677 0.028722 0.871000
-0.023583 -0.025252 0.878000
0.007054 0.033267 0.868000
0.007377 -0.013115 0.864000
0.044156 0.018448 0.860000
0.019938 -0.019986 0.869000
0.009499 -0.015941 0.863000
0.003124 0.031124 0.868000
0.029160 0.035138 0.836000
0.032952 0.026404 0.854000
-0.013403 0.017310 0.874000
0.013746 -0.016277 0.862000
0.003829 -0.019917 0.866000
-0.027653 -0.015186 0.881000
0.029153 0.022943 0.856000
0.039969 0.005766 0.869000
0.012726 -0.024167 0.865000
0.024983 0.030412 0.858000
-0.015994 -0.022723 0.878000
0.042994 0.019112 0.858000
-0.004758 0.025166 0.872000
-0.032692 -0.034365 0.880000
-0.002967 0.017649 0.873000
-0.012310 -0.016126 0.873000
-0.000092 -0.026720 0.867000
0.016211 0.001460 0.861000
-0.007656 -0.008960 0.875000
-0.004389 -0.016787 0.870000
0.018316 0.016325 0.860000
-0.012005 -0.005371 0.877000
-0.014876 0.006533 0.876000
-0.020331 -0.002486 0.878000
0.010933 0.014978 0.864000
-0.003307 0.040770 0.868000
-0.000808 0.026183 0.870000
0.010971 0.032515 0.867000
0.024954 0.014151 0.857000
-0.007952 0.033625 0.868000
0.024601 0.005333 0.857000
-0.006904 -0.015730 0.871000
0.013407 0.017092 0.863000
-0.002593 -0.043185 0.868000
-0.006194 0.029473 0.872000
0.002760 -0.027046 0.866000
-0.002960 0.032307 0.871000
0.005975 0.036797 0.867000
0.006681 -0.032392 0.866000
0.008840 0.009689 0.868000
0.030634 -0.005673 0.868000
0.035722 0.030235 0.853000
0.036467 0.016562 0.854000
0.036327 0.009235 0.859000
-0.031279 -0.009022 0.881000
-0.004753 -0.014655 0.871000
0.021590 -0.024891 0.878000
-0.033092 -0.033679 0.881000
-0.010154 -0.013251 0.873000
0.017983 -0.013069 0.861000
-0.002960 0.027647 0.871000
0.007411 -0.004959 0.868000
-0.024667 -0.039707 0.878000
0.027260 -0.005285 0.863000
-0.008706 -0.016466 0.872000
-0.035268 -0.019174 0.881000
-0.002593 -0.022107 0.868000
-0.009055 -0.033655 0.871000
0.035042 -0.001749 0.871000
-0.018100 -0.037771 0.875000
-0.035590 -0.014082 0.880000
0.024601 0.010271 0.857000
-0.000451 0.019401 0.871000
-0.007979 -0.027202 0.871000
0.013746 -0.014149 0.862000
0.008088 -0.026272 0.864000
-0.005457 -0.029286 0.869000
0.037034 0.010649 0.859000
0.005650 -0.040871 0.872000
-0.008338 -0.019315 0.871000
0.029180 -0.015495 0.878000
0.035951 0.002184 0.867000
-0.033492 -0.026820 0.882000
0.014117 -0.018783 0.863000
-0.015615 -0.021614 0.877000
0.001691 -0.027759 0.866000
0.024305 -0.003140 0.859000
0.002049 -0.035641 0.867000
-0.020981 -0.045334 0.875000
-0.034268 -0.005712 0.874000
0.002052 -0.039969 0.868000
0.014101 -0.014858 0.862000
0.012741 0.025706 0.866000
-0.017020 -0.029848 0.875000
0.006704 -0.036439 0.869000
0.002409 0.023979 0.868000
0.006689 0.039295 0.867000
0.024372 0.036558 0.837000
0.024093 -0.020892 0.877000
0.038666 0.015896 0.856000
0.010565 -0.015231 0.863000
0.017435 -0.022848 0.869000
0.016136 0.039195 0.857000
-0.010872 -0.021516 0.873000
0.009499 -0.017007 0.863000
0.008107 0.023924 0.866000
0.005322 -0.045437 0.877000
-0.009107 0.006894 0.876000
0.020109 0.026975 0.861000
-0.013028 -0.033373 0.873000
0.017608 -0.005975 0.860000
0.005631 0.010058 0.869000
0.003469 -0.025591 0.865000
0.036685 -0.003562 0.876000
0.002760 -0.022769 0.866000
-0.009783 0.025166 0.872000
0.019355 -0.001725 0.859000
0.012741 0.031409 0.866000
-0.011270 -0.007528 0.876000
-0.042558 -0.007808 0.867000
0.006317 -0.030575 0.865000
0.035389 0.006074 0.862000
0.031267 0.010259 0.856000
0.012711 0.022090 0.864000
-0.010549 -0.004644 0.876000
0.023218 0.012402 0.858000
0.040333 0.019374 0.854000
-0.041440 -0.009224 0.866000
0.037302 0.032190 0.849000
0.011034 -0.033693 0.872000
-0.001165 -0.016410 0.869000
0.033303 0.027810 0.854000
0.037170 0.017617 0.854000
0.029858 0.033864 0.856000
0.008125 -0.000314 0.868000
-0.005822 -0.025022 0.870000
-0.024334 -0.014066 0.879000
0.004553 0.041841 0.868000
0.008125 0.008974 0.868000
0.016262 -0.036299 0.883000
-0.015958 0.009057 0.876000
0.031897 0.017265 0.854000
-0.017039 -0.017263 0.876000
-0.025810 -0.012995 0.880000
-0.003307 -0.031395 0.868000
0.032249 0.016562 0.854000
-0.009467 0.005091 0.876000
-0.009828 0.004370 0.876000
0.013112 0.026806 0.867000
-0.004384 -0.019271 0.869000
0.020086 0.036146 0.860000
0.018757 0.025646 0.864000
0.017962 -0.009868 0.860000
0.021148 -0.006683 0.860000
-0.002235 -0.028895 0.868000
0.014793 -0.013069 0.861000
0.021123 0.010295 0.859000
-0.012712 0.007975 0.876000
0.031231 0.016582 0.855000
0.005618 0.023951 0.867000
-0.023222 -0.030673 0.878000
-0.029103 -0.014098 0.881000
0.020086 0.033669 0.860000
-0.019992 -0.022749 0.879000
0.032815 -0.003534 0.869000
-0.005117 0.029473 0.872000
-0.021005 -0.035651 0.876000
-0.009457 0.015169 0.875000
-0.033455 -0.033316 0.881000
0.023924 0.029353 0.858000
-0.012005 -0.005732 0.877000
0.028129 0.030729 0.857000
0.035371 0.028480 0.853000
-0.010922 0.001487 0.877000
0.027391 0.015896 0.856000
0.008088 -0.021649 0.864000
-0.002611 0.014792 0.874000
-0.033837 -0.042581 0.863000
-0.038662 -0.024697 0.884000
0.040061 0.004703 0.871000
0.027711 -0.007442 0.866000
0.026427 -0.002432 0.859000
0.033655 0.023944 0.854000
-0.017420 -0.000679 0.877000
0.026049 -0.013206 0.870000
0.016211 0.006421 0.861000
-0.018142 -0.042189 0.877000
0.009566 0.031160 0.869000
0.030634 -0.004959 0.868000
0.004553 0.040412 0.868000
-0.006896 -0.033258 0.870000
-0.033856 -0.015203 0.882000
0.022994 0.037936 0.837000
0.014811 0.016363 0.862000
-0.008706 -0.027951 0.872000
-0.016262 0.014416 0.873000
-0.015236 -0.020868 0.876000
-0.003334 0.011568 0.875000
-0.019203 -0.042862 0.876000
-0.028740 -0.007934 0.881000
0.029609 0.001103 0.859000
0.026874 -0.005279 0.862000
0.019755 0.031582 0.861000
0.027455 0.001455 0.858000
-0.031570 -0.006469 0.879000
0.022864 0.005693 0.858000
-0.017781 -0.006815 0.877000
0.008820 0.014300 0.866000
0.004558 0.016853 0.869000
0.029017 0.038265 0.852000
0.013422 0.003954 0.864000
-0.025419 -0.034687 0.879000
0.021123 -0.001018 0.859000
0.002770 0.031875 0.869000
-0.037720 -0.024919 0.879000
-0.022163 -0.003574 0.879000
0.003481 0.033267 0.868000
-0.009828 0.001485 0.876000
0.040971 0.014909 0.860000
-0.014187 0.000043 0.878000
-0.006180 -0.027887 0.870000
-0.035613 -0.038318 0.863000
0.002054 0.034379 0.869000
0.015857 -0.008462 0.861000
-0.005815 -0.037870 0.869000
0.007385 -0.008858 0.865000
0.016931 -0.033278 0.880000
-0.032829 -0.003554 0.874000
-0.020354 -0.023472 0.879000
0.047425 0.016476 0.868000
-0.009107 -0.006086 0.876000
-0.037432 -0.036585 0.864000
-0.035968 -0.037963 0.863000
0.002770 0.030087 0.869000
0.024617 -0.014996 0.870000
-0.025029 -0.037178 0.878000
-0.015579 -0.017603 0.875000
0.007377 -0.017382 0.864000
-0.004036 -0.015372 0.871000
0.002412 0.034736 0.869000
0.040994 0.007902 0.868000
-0.028120 -0.040918 0.873000
-0.010997 -0.041387 0.883000
0.003838 0.037554 0.868000
0.026225 -0.007781 0.864000
-0.035588 -0.043864 0.889000
-0.026535 -0.025672 0.880000
0.032944 0.002174 0.863000
0.036424 0.019703 0.853000
-0.005822 -0.030752 0.870000
0.027039 0.016601 0.856000
0.037609 0.013783 0.856000
-0.005129 0.016950 0.874000
-0.000092 -0.032073 0.867000
-0.021702 -0.046054 0.875000
0.004563 0.011143 0.870000
0.006339 -0.007459 0.868000
0.039793 0.002199 0.873000
-0.018481 -0.027719 0.876000
0.015148 -0.003147 0.861000
0.020770 -0.003140 0.859000
-0.035789 -0.034209 0.876000
0.004547 0.043577 0.867000
0.021652 -0.015640 0.866000
0.020440 0.035085 0.860000
0.015682 -0.027202 0.871000
0.027903 -0.011801 0.872000
-0.019137 0.012260 0.873000
-0.022112 -0.038218 0.877000
0.039969 0.008269 0.869000
0.003481 0.026480 0.868000
0.018004 0.028425 0.862000
-0.000806 -0.041041 0.868000
0.030879 0.033121 0.855000
0.002054 -0.041088 0.869000
0.003838 0.039341 0.868000
0.007143 -0.044817 0.879000
0.005261 0.023594 0.867000
-0.008025 0.002928 0.876000
-0.007279 0.022680 0.873000
-0.014106 -0.036607 0.873000
-0.013028 0.019087 0.873000
-0.011909 0.026183 0.870000
0.030562 0.032455 0.856000
0.001696 0.029371 0.869000
-0.002593 -0.030681 0.868000
-0.016262 0.013697 0.873000
0.003869 -0.045334 0.875000
-0.029399 -0.002851 0.879000
0.029146 -0.014756 0.877000
-0.018864 -0.000679 0.877000
-0.026897 -0.021326 0.880000
-0.015976 0.000404 0.877000
0.031304 0.006391 0.857000
-0.026143 -0.027090 0.879000
0.021123 0.012417 0.859000
0.040711 0.012815 0.862000
0.033615 0.003236 0.862000
-0.008126 -0.044495 0.887000
-0.016679 -0.027719 0.876000
0.015857 -0.002792 0.861000
-0.019203 0.006173 0.876000
-0.028740 -0.016636 0.881000
-0.014876 -0.020868 0.876000
0.007428 -0.037197 0.870000
-0.009413 -0.039391 0.871000
-0.027983 -0.034365 0.880000
0.031673 0.036340 0.848000
0.007411 -0.034968 0.868000
0.019024 0.036500 0.860000
0.008483 0.033625 0.868000
0.047425 0.016119 0.868000
-0.002241 0.039431 0.870000
0.010933 0.019601 0.864000
-0.034063 -0.009352 0.878000
-0.002235 -0.023893 0.868000
0.000983 -0.008561 0.871000
-0.025130 -0.045023 0.869000
0.016979 -0.018804 0.864000
0.023571 0.007458 0.858000
0.011644 0.014978 0.864000
0.026012 0.028966 0.857000
-0.018756 0.010810 0.872000
-0.011644 0.000043 0.877000
0.017175 -0.028015 0.874000
-0.000092 0.022933 0.869000
-0.008347 0.028037 0.872000
-0.004758 0.027319 0.872000
0.025573 -0.009937 0.866000
0.013762 0.012830 0.863000
0.024249 0.008508 0.857000
-0.017059 -0.002844 0.877000
0.010565 -0.014520 0.863000
0.032286 0.032417 0.855000
0.000267 0.015476 0.872000
-0.029828 -0.019537 0.881000
0.022983 -0.021589 0.876000
-0.038488 -0.026759 0.880000
0.009855 -0.018428 0.863000
-0.029466 -0.029327 0.881000
-0.022756 0.005439 0.874000
-0.012683 0.027382 0.874000
-0.031066 0.000403 0.875000
0.021394 -0.018577 0.870000
-0.004036 0.033741 0.871000
0.003124 0.023622 0.868000
0.019024 0.006768 0.860000
0.014456 0.018491 0.862000
0.013762 0.003239 0.863000
-0.015202 -0.032692 0.874000
0.013067 0.039515 0.864000
0.003829 -0.033462 0.866000
-0.012267 0.025108 0.870000
0.017983 0.036897 0.861000
-0.013778 -0.010761 0.875000
0.010565 -0.008127 0.863000
0.036125 0.032424 0.846000
-0.022834 -0.035691 0.877000
0.008483 0.010046 0.868000
-0.012352 -0.025195 0.876000
-0.009424 -0.018261 0.872000
0.040558 0.002921 0.874000
0.009855 -0.022690 0.863000
0.008135 -0.034651 0.869000
0.000978 -0.033818 0.866000
0.000624 -0.045433 0.870000
0.025779 -0.015767 0.873000
-0.012698 0.010847 0.875000
-0.004742 -0.043592 0.869000
-0.000450 0.025824 0.870000
-0.001526 0.033741 0.871000
-0.011604 -0.010749 0.874000
0.014456 0.001816 0.862000
-0.036676 -0.027121 0.880000
-0.021851 -0.018812 0.881000
-0.007595 0.033982 0.868000
0.019400 -0.010234 0.861000
-0.015615 -0.005371 0.877000
-0.018503 -0.005371 0.877000
-0.006553 0.026602 0.872000
-0.028971 -0.038579 0.877000
-0.008726 0.018749 0.874000
0.038224 0.018320 0.854000
0.013778 0.034892 0.864000
0.008840 0.033625 0.868000
-0.015184 0.016212 0.873000
0.012327 -0.004924 0.862000
0.008483 -0.033896 0.868000
0.004605 -0.047296 0.878000
0.000979 -0.026720 0.867000
-0.017380 -0.034530 0.875000
0.028720 -0.013642 0.875000
0.012356 0.011778 0.864000
-0.004742 -0.032505 0.869000
0.014523 0.027131 0.866000
0.001339 -0.013906 0.869000
0.039325 0.017285 0.855000
-0.036954 -0.033925 0.878000
0.017628 0.016344 0.861000
0.002412 0.035809 0.869000
-0.011257 0.012288 0.875000
0.007062 0.010415 0.869000
0.007402 -0.032430 0.867000
-0.028015 -0.003945 0.881000
0.018593 -0.024749 0.873000
-0.014499 0.013728 0.875000
0.033303 0.024295 0.854000
-0.027259 -0.029294 0.880000
0.007759 -0.033500 0.867000
-0.019563 0.004730 0.876000
0.021197 -0.012375 0.862000
0.002792 -0.047549 0.876000
0.023813 -0.023861 0.880000
-0.007254 -0.028961 0.870000
0.030175 0.024323 0.855000
-0.032403 -0.029361 0.882000
-0.005117 0.024089 0.872000
0.009499 -0.013100 0.863000
0.039555 0.012431 0.860000
0.008820 -0.004234 0.866000
-0.017020 -0.034890 0.875000
-0.010177 0.013368 0.875000
-0.016318 0.007254 0.876000
-0.012727 0.004014 0.877000
0.006317 -0.014198 0.865000
-0.023972 -0.003213 0.879000
0.039253 0.007196 0.869000
-0.010549 -0.003562 0.876000
0.006078 -0.048237 0.882000
-0.019946 -0.027389 0.877000
-0.033129 -0.015566 0.882000
-0.003319 0.033382 0.871000
0.008444 -0.008136 0.864000
-0.007998 -0.012892 0.873000
-0.007998 0.019087 0.873000
-0.007612 -0.038987 0.870000
-0.033492 -0.027546 0.882000
0.000623 0.021860 0.869000
-0.025781 -0.024919 0.879000
-0.003665 0.040055 0.868000
0.005625 0.033267 0.868000
-0.018885 -0.018025 0.878000
-0.026897 -0.026759 0.880000
0.015183 0.034852 0.863000
-0.018864 0.002209 0.877000
0.007750 -0.030254 0.866000
0.017608 -0.001727 0.860000
-0.024306 -0.031757 0.878000
-0.029862 -0.014114 0.882000
-0.005099 -0.035366 0.869000
0.030032 -0.000312 0.861000
-0.009096 0.013368 0.875000
-0.030588 -0.014477 0.882000
-0.001170 0.013697 0.873000
0.036434 0.000401 0.870000
-0.037744 -0.036898 0.863000
0.023681 -0.009537 0.862000
0.003124 0.030052 0.868000
0.034006 0.017968 0.854000
-0.011644 0.002209 0.877000
0.006009 -0.040154 0.872000
-0.016318 0.008336 0.876000
0.007759 0.027163 0.867000
0.005954 -0.023783 0.864000
-0.002960 0.036609 0.871000
0.031340 0.004633 0.858000
0.026734 -0.011045 0.869000
-0.004758 0.028396 0.872000
0.044619 0.012204 0.869000
0.002054 0.027941 0.869000
0.029119 0.012359 0.855000
0.004200 -0.008899 0.869000
-0.025086 -0.015893 0.880000
0.006346 -0.000315 0.869000
0.014489 -0.022005 0.864000
0.025061 0.037591 0.837000
0.009208 0.030802 0.869000
-0.038990 -0.005667 0.867000
-0.021415 0.009439 0.878000
0.000982 0.038715 0.870000
0.001696 0.020787 0.869000
-0.011923 0.023345 0.871000
0.011873 -0.040568 0.881000
0.037235 0.000043 0.872000
0.042570 0.007930 0.871000
0.014101 -0.003860 0.862000
-0.035549 -0.012619 0.879000
0.019355 0.003931 0.859000
0.025719 0.036170 0.836000
-0.011244 -0.010749 0.874000
0.029988 -0.007835 0.870000
0.017274 0.007839 0.861000
0.000624 0.020095 0.870000
-0.036870 -0.011494 0.876000
0.015183 -0.018072 0.863000
-0.000450 0.027257 0.870000
0.000623 0.041532 0.869000
0.033693 0.001821 0.864000
-0.011193 0.025824 0.870000
0.014607 -0.028636 0.871000
-0.037316 -0.014411 0.878000
-0.002235 -0.034968 0.868000
-0.035549 -0.012257 0.879000
-0.005489 0.016950 0.874000
-0.030588 -0.021737 0.882000
0.012711 0.036670 0.864000
0.036919 -0.001035 0.873000
0.028096 0.021533 0.856000
-0.007988 -0.015748 0.872000
-0.007647 0.017670 0.874000
0.002776 -0.043692 0.871000
0.017649 0.029135 0.862000
0.018337 -0.012715 0.861000
0.039325 0.017989 0.855000
0.004899 -0.033105 0.866000
-0.017059 -0.006093 0.877000
-0.015254 -0.026668 0.877000
0.010614 0.002541 0.867000
-0.011937 -0.038000 0.872000
0.009377 -0.046945 0.885000
-0.022473 -0.036774 0.877000
0.016939 0.033392 0.862000
-0.009446 -0.011828 0.874000
0.016249 0.021354 0.863000
-0.002602 0.030514 0.871000
0.009187 0.012889 0.867000
-0.005476 0.026961 0.872000
-0.026172 -0.009374 0.880000
0.033069 0.032850 0.848000
0.039723 0.016953 0.856000
0.034165 0.008165 0.858000
0.010920 -0.004930 0.863000
-0.008696 -0.031145 0.871000
0.002760 -0.018135 0.866000
-0.001880 -0.016410 0.869000
0.005605 -0.021318 0.865000
-0.000449 -0.041398 0.868000
0.010234 -0.027727 0.865000
0.020701 -0.020391 0.871000
-0.008386 0.011220 0.876000
0.007741 -0.027727 0.865000
0.007045 0.042864 0.867000
-0.007638 0.020524 0.873000
0.016230 0.019556 0.862000
-0.002596 -0.020344 0.869000
0.017294 0.031618 0.862000
0.020678 -0.019651 0.870000
0.024249 0.007802 0.857000
-0.004775 0.015529 0.875000
0.027841 -0.000665 0.859000
0.017962 0.007122 0.860000
0.004978 -0.048490 0.880000
0.032952 0.017617 0.854000
-0.026203 -0.043592 0.869000
0.009555 0.007545 0.868000
0.027455 0.000396 0.858000
0.015520 0.014234 0.862000
-0.027983 -0.035089 0.880000
-0.034350 -0.038139 0.867000
0.000265 0.044545 0.865000
0.008453 0.021760 0.865000
0.019755 0.030164 0.861000
0.004547 0.043934 0.867000
0.018017 -0.031829 0.880000
-0.036635 -0.022749 0.879000
0.004910 0.035768 0.868000
-0.017039 0.007615 0.876000
-0.029103 -0.021350 0.881000
0.003124 0.043628 0.868000
-0.003677 -0.014296 0.871000
0.006704 0.011488 0.869000
0.017983 0.032290 0.861000
0.005340 -0.047766 0.880000
-0.007988 0.029114 0.872000
-0.009076 0.024836 0.873000
-0.031677 -0.022826 0.882000
-0.036468 -0.010401 0.875000
0.000266 0.020811 0.870000
-0.017039 0.007975 0.876000
0.023924 0.027940 0.858000
0.019755 0.031936 0.861000
0.000624 0.040147 0.870000
0.038224 0.002550 0.870000
-0.006194 0.027678 0.872000
0.042424 0.010046 0.868000
0.009176 0.014300 0.866000
0.009499 -0.019848 0.863000
0.024038 -0.019404 0.875000
-0.041796 -0.007799 0.866000
-0.017440 -0.020193 0.878000
0.010222 0.015689 0.864000
-0.011978 -0.029128 0.875000
0.021805 -0.000664 0.858000
0.029858 0.026466 0.856000
-0.002243 0.019760 0.871000
0.010971 0.008250 0.867000
0.012055 -0.029252 0.868000
0.025720 -0.002079 0.859000
-0.011604 0.018389 0.874000
0.009676 -0.039391 0.879000
0.019709 -0.004554 0.859000
0.026134 -0.004564 0.861000
0.035102 0.014470 0.855000
0.012327 -0.010246 0.862000
-0.033856 -0.031176 0.882000
0.008088 -0.015604 0.864000
0.034044 -0.004987 0.873000
0.016900 -0.000665 0.860000
-0.031677 -0.017381 0.882000
-0.029466 -0.009022 0.881000
-0.036721 -0.040141 0.864000
0.038621 0.016934 0.855000
-0.033129 -0.013025 0.882000
-0.029964 -0.042274 0.864000
0.002047 -0.027402 0.866000
-0.032256 -0.036093 0.878000
0.022891 -0.002786 0.859000
0.024745 -0.008117 0.862000
-0.004769 0.016590 0.874000
0.030879 0.026787 0.855000
-0.010188 -0.007528 0.876000
0.021011 -0.018913 0.869000
0.012755 0.030017 0.867000
-0.021293 0.007229 0.873000
0.000622 -0.034571 0.867000
0.016900 -0.001727 0.860000
0.031546 0.020077 0.854000
0.028515 0.001455 0.858000
-0.038588 -0.001027 0.866000
0.002770 0.030802 0.869000
-0.042201 -0.006737 0.867000
0.003829 -0.020987 0.866000
0.014101 0.000043 0.862000
0.038485 0.030901 0.852000
-0.007296 0.005445 0.875000
-0.040324 -0.003873 0.865000
-0.021053 -0.024891 0.878000
0.024630 0.026528 0.858000
-0.042656 -0.007468 0.869000
-0.009467 -0.007889 0.876000
-0.005822 -0.017503 0.870000
0.000622 -0.036355 0.867000
0.042375 0.010391 0.867000
0.003124 0.024336 0.868000
-0.010525 0.019108 0.874000
0.043145 0.016698 0.861000
0.035722 0.027777 0.853000
0.007377 -0.016671 0.864000
-0.014515 -0.007889 0.876000
0.022826 -0.016787 0.870000
0.006317 -0.016334 0.865000
0.024983 0.000749 0.858000
-0.011591 0.022320 0.873000
-0.004045 -0.046667 0.873000
0.005267 -0.037111 0.868000
0.013730 -0.010589 0.861000
0.026073 -0.001725 0.859000
0.004893 -0.029151 0.865000
0.030918 0.033802 0.837000
0.025690 0.033944 0.858000
-0.030191 -0.029690 0.881000
0.024277 0.029000 0.858000
-0.010885 0.020547 0.874000
0.025839 -0.007416 0.863000
-0.009096 0.014809 0.875000
-0.010860 -0.038000 0.872000
0.002406 -0.035641 0.867000
0.023218 0.013462 0.858000
0.008444 -0.010981 0.864000
0.022184 0.031155 0.859000
0.005961 -0.014554 0.865000
-0.032809 -0.040141 0.864000
-0.009467 0.010860 0.876000
-0.027602 -0.042827 0.868000
0.021502 0.031545 0.860000
-0.001162 -0.035284 0.867000
-0.018907 -0.023834 0.879000
-0.004036 0.021552 0.871000
-0.004384 -0.042519 0.869000
0.024716 0.037936 0.837000
-0.004384 -0.042877 0.869000
0.031231 0.013766 0.855000
-0.015615 -0.025946 0.877000
0.018337 0.017052 0.861000
0.033852 0.006053 0.859000
0.021452 0.004986 0.858000
0.046140 0.018179 0.864000
0.020416 -0.002786 0.859000
0.023338 0.037247 0.837000
-0.028346 -0.029656 0.880000
0.005989 0.011846 0.869000
0.004537 -0.030575 0.865000
-0.001166 0.029405 0.870000
-0.018524 -0.025252 0.878000
0.009155 -0.006358 0.864000
-0.010860 -0.035129 0.872000
0.032891 -0.004617 0.871000
-0.006538 -0.034690 0.870000
0.016230 0.020265 0.862000
-0.018183 -0.021663 0.879000
0.033303 0.019374 0.854000
-0.027983 -0.035451 0.880000
-0.014859 0.013728 0.875000
0.027903 -0.012160 0.872000
-0.000806 -0.018177 0.868000
-0.013103 0.000766 0.878000
-0.034219 -0.026457 0.882000
0.005961 -0.029863 0.865000
0.007029 -0.011350 0.865000
0.018891 0.038355 0.854000
0.003477 -0.035998 0.867000
-0.014548 0.000405 0.878000
-0.029951 -0.039167 0.874000
0.039371 0.015544 0.856000
-0.001878 -0.027466 0.868000
0.003142 0.011182 0.873000
0.010590 0.013571 0.865000
-0.005457 -0.039658 0.869000
-0.027621 -0.017342 0.880000
-0.009413 0.027647 0.871000
0.009912 0.032910 0.868000
0.014117 0.003950 0.863000
-0.005835 -0.013595 0.872000
0.008809 -0.006722 0.865000
-0.011591 -0.019000 0.873000
0.025012 -0.002432 0.859000
0.028035 -0.006010 0.865000
0.016211 -0.001021 0.861000
-0.036449 -0.000670 0.866000
0.000266 -0.046560 0.871000
0.000982 -0.044717 0.870000
0.018004 0.020620 0.862000
-0.004026 -0.023921 0.869000
-0.005117 0.019783 0.872000
0.037213 0.014822 0.855000
-0.019519 0.007957 0.874000
-0.006928 -0.011828 0.874000
-0.017020 -0.032369 0.875000
-0.000808 0.038715 0.870000
-0.008716 0.023039 0.873000
0.002766 0.021121 0.868000
-0.019586 0.002931 0.877000
0.005618 -0.034214 0.867000
-0.003665 -0.034611 0.868000
0.017956 -0.029194 0.877000
0.040326 0.006123 0.869000
0.003838 -0.012104 0.868000
-0.007603 0.032948 0.869000
0.000977 0.044901 0.865000
0.025719 0.036514 0.836000
0.000623 0.042913 0.868000
-0.012669 -0.035529 0.873000
-0.011232 -0.020078 0.873000
0.015077 0.040606 0.857000
-0.032403 -0.013388 0.882000
0.029160 0.035482 0.836000
0.019783 -0.027421 0.878000
0.018735 0.027037 0.863000
-0.032220 -0.004649 0.877000
0.024630 0.030412 0.858000
0.000622 -0.032430 0.867000
0.020745 0.037122 0.858000
-0.005848 -0.008590 0.874000
-0.009435 -0.026546 0.873000
-0.019496 0.011182 0.873000
0.009544 0.011819 0.867000
0.027983 0.037123 0.842000
0.013762 0.039114 0.863000
-0.019946 -0.015478 0.877000
-0.011964 -0.011108 0.874000
0.027248 -0.014705 0.874000
0.002776 -0.044051 0.871000
0.041325 0.014909 0.860000
0.023245 0.027619 0.859000
-0.003303 0.042507 0.867000
-0.035503 -0.036439 0.869000
-0.037763 -0.023499 0.880000
-0.016698 0.002570 0.877000
-0.000451 0.017629 0.872000
-0.000808 0.034060 0.870000
-0.009065 -0.023285 0.872000
0.008610 -0.044194 0.881000
0.037873 0.018320 0.854000
0.012250 -0.035895 0.882000
0.004292 -0.050028 0.888000
-0.030554 -0.034041 0.881000
-0.000092 -0.017820 0.868000
0.025304 -0.012833 0.869000
0.031231 0.016934 0.855000
-0.004045 0.018368 0.873000
0.033655 0.016211 0.854000
-0.014171 -0.005371 0.877000
-0.028577 0.000764 0.876000
0.002054 0.039028 0.869000
-0.031314 -0.020285 0.882000
0.006696 -0.036040 0.868000
-0.024555 -0.043124 0.874000
-0.000807 0.041890 0.869000
-0.027653 -0.006483 0.881000
-0.036997 -0.023111 0.879000
-0.010537 -0.025886 0.875000
-0.008756 0.000765 0.877000
-0.008357 -0.013251 0.873000
-0.001169 0.018706 0.872000
-0.014432 0.021911 0.871000
-0.005476 0.025525 0.872000
0.037565 0.015174 0.855000
-0.036635 -0.016237 0.879000
-0.007988 -0.013595 0.872000
-0.019924 -0.038896 0.876000
0.001339 -0.041446 0.869000
0.018108 -0.020654 0.867000
0.021802 -0.019696 0.872000
-0.000805 -0.035641 0.867000
0.002404 -0.025620 0.866000
0.007402 -0.033500 0.867000
0.010245 0.025706 0.866000
0.005605 -0.024167 0.865000
0.007054 -0.006030 0.868000
0.002417 0.013307 0.871000
-0.000092 -0.037426 0.867000
-0.030530 -0.040062 0.870000
-0.016698 -0.020170 0.877000
-0.009783 -0.020773 0.872000
0.012441 -0.030393 0.870000
0.008830 -0.032430 0.867000
0.018442 -0.033028 0.883000
0.017234 -0.030277 0.877000
0.000626 0.016194 0.872000
-0.001521 -0.024965 0.868000
0.007402 0.036797 0.867000
0.004200 -0.006037 0.869000
-0.011193 0.027973 0.870000
0.000626 -0.048105 0.873000
0.022184 -0.002079 0.859000
0.012370 0.033152 0.865000
-0.012005 -0.002483 0.877000
0.014862 0.028880 0.865000
0.028003 -0.005647 0.864000
-0.012669 0.019805 0.873000
-0.005495 0.015529 0.875000
0.020440 0.016325 0.860000
0.027744 0.010964 0.856000
0.007045 0.042507 0.867000
-0.014139 0.010847 0.875000
0.001698 -0.009983 0.870000
-0.010910 0.010139 0.876000
-0.021415 -0.010798 0.878000
-0.007979 -0.030070 0.871000
-0.000808 0.034776 0.870000
-0.034905 -0.018449 0.881000
0.011671 0.010023 0.866000
-0.015958 0.008696 0.876000
0.003847 0.015440 0.870000
-0.039524 -0.039749 0.887000
-0.015939 -0.010041 0.875000
-0.027621 -0.027121 0.880000
0.028548 -0.000311 0.859000
-0.012295 -0.033693 0.872000
-0.021293 0.006870 0.873000
0.023924 0.012049 0.858000
-0.005129 -0.007511 0.874000
-0.039483 -0.009625 0.870000
-0.041392 -0.007078 0.865000
-0.025332 -0.041780 0.876000
-0.024361 -0.016617 0.880000
0.000265 -0.015676 0.868000
-0.034628 -0.035569 0.874000
-0.011283 -0.003205 0.877000
-0.027983 -0.024223 0.880000
-0.029103 -0.008296 0.881000
-0.020377 -0.018791 0.880000
0.009466 0.043226 0.860000
0.015520 -0.015923 0.862000
-0.024334 -0.006469 0.879000
0.026255 -0.008858 0.865000
-0.020645 0.003649 0.876000
-0.025057 -0.024919 0.879000
-0.017380 -0.039211 0.875000
0.016488 0.038842 0.857000
0.010602 -0.001383 0.866000
-0.014155 -0.026998 0.876000
0.007419 0.011488 0.869000
-0.022396 0.006518 0.874000
-0.002967 -0.009658 0.873000
-0.007656 0.015529 0.875000
0.045028 0.011501 0.870000
-0.014842 -0.017224 0.874000
-0.014893 -0.005371 0.877000
-0.004409 0.016590 0.874000
0.045282 0.013618 0.868000
0.008799 -0.024850 0.864000
0.029119 0.015526 0.855000
0.033875 0.033311 0.842000
-0.007304 0.010860 0.876000
0.015857 0.006421 0.861000
-0.016299 -0.038851 0.875000
0.017628 0.014572 0.861000
-0.021776 -0.007545 0.878000
0.013810 0.028557 0.866000
-0.037475 -0.001381 0.865000
0.004910 -0.037469 0.868000
-0.012352 -0.026277 0.876000
0.013082 -0.024523 0.865000
-0.010922 0.001126 0.877000
-0.011551 0.025824 0.870000
0.011302 0.024964 0.865000
-0.024334 -0.010810 0.879000
0.025425 -0.005982 0.861000
0.019378 -0.006329 0.860000
-0.013794 0.006894 0.876000
0.008125 0.032910 0.868000
-0.021366 -0.041059 0.876000
-0.033947 -0.035610 0.875000
0.004916 -0.002818 0.869000
-0.012324 -0.021540 0.874000
0.033655 0.018320 0.854000
-0.027464 -0.040652 0.875000
0.012584 -0.037262 0.880000
0.022013 0.037681 0.839000
0.033655 0.020780 0.854000
-0.021053 -0.001763 0.878000
0.022545 -0.019719 0.873000
0.022537 0.028326 0.859000
0.029540 0.006391 0.857000
0.040732 0.018693 0.855000
-0.009403 0.029405 0.870000
-0.030191 -0.026064 0.881000
-0.004036 0.024779 0.871000
-0.023945 -0.036093 0.878000
-0.001164 -0.019249 0.868000
0.008473 -0.002812 0.867000
-0.004764 -0.012173 0.873000
0.014811 -0.015568 0.862000
-0.016299 -0.015082 0.875000
-0.027290 -0.005033 0.881000
0.021084 -0.021132 0.872000
0.000623 0.028656 0.869000
0.033376 0.000399 0.865000
0.026597 0.037816 0.842000
0.021527 -0.009880 0.861000
0.033299 0.002174 0.863000
0.009165 -0.026659 0.865000
0.016939 0.032683 0.862000
0.012341 0.014250 0.863000
-0.021005 -0.037453 0.876000
0.006665 -0.019871 0.864000
0.024630 0.001102 0.858000
0.009900 0.008250 0.867000
0.021729 0.038048 0.855000
0.007394 -0.031679 0.866000
0.007732 -0.023783 0.864000
-0.026143 -0.028537 0.879000
-0.013403 -0.018662 0.874000
-0.039124 -0.009267 0.870000
-0.022886 -0.009363 0.879000
0.019801 0.022065 0.863000
-0.017059 -0.025585 0.877000
0.031897 0.020780 0.854000
-0.022886 -0.014428 0.879000
-0.037345 -0.038629 0.862000
0.028096 0.011669 0.856000
0.010614 0.009678 0.867000
-0.041392 -0.006010 0.865000
0.000265 -0.035998 0.867000
0.029823 0.023620 0.855000
-0.026535 -0.013720 0.880000
0.002047 -0.026333 0.866000
0.005982 0.029338 0.868000
0.022184 -0.003140 0.859000
-0.027259 -0.030381 0.880000
-0.026172 -0.016617 0.880000
0.038400 0.000043 0.874000
0.041352 0.008617 0.868000
-0.008338 -0.023259 0.871000
-0.009076 0.020165 0.873000
-0.037806 -0.040931 0.881000
-0.016299 0.011568 0.875000
0.008463 0.014300 0.866000
0.001698 -0.043642 0.870000
-0.019203 -0.031685 0.876000
0.015857 0.001814 0.861000
0.024601 0.010624 0.857000
0.015875 0.033392 0.862000
-0.039301 -0.005304 0.866000
0.019445 0.025261 0.863000
0.005261 0.021810 0.867000
-0.035952 -0.015531 0.880000
0.024249 0.002511 0.857000
-0.018460 -0.038851 0.875000
-0.013357 0.020835 0.871000
0.032718 0.033882 0.839000
0.010222 0.020312 0.864000
-0.004026 -0.019629 0.869000
-0.000448 0.044545 0.865000
-0.028378 -0.046370 0.881000
-0.025086 -0.004665 0.880000
-0.007656 0.005085 0.875000
-0.000808 -0.045433 0.870000
-0.002960 0.032665 0.871000
-0.033856 -0.026094 0.882000
0.024249 0.005686 0.857000
-0.001164 -0.040684 0.868000
-0.003319 0.030156 0.871000
0.001340 -0.012490 0.870000
-0.014139 0.013368 0.875000
0.013407 0.012119 0.863000
0.022158 0.006399 0.858000
0.003825 -0.030219 0.865000
0.032173 -0.006051 0.871000
-0.009478 -0.001401 0.877000
0.005631 0.015422 0.869000
-0.035952 -0.023137 0.880000
0.030951 0.005333 0.857000
0.014657 -0.030893 0.874000
-0.000805 -0.036712 0.867000
-0.034542 -0.015548 0.881000
-0.004742 -0.023563 0.869000
0.017174 0.039501 0.856000
0.017936 -0.028440 0.876000
-0.016337 -0.025946 0.877000
0.011972 -0.013439 0.862000
-0.020621 -0.043893 0.875000
-0.000092 -0.028504 0.867000
0.025595 -0.020578 0.879000
0.022511 0.000396 0.858000
0.019755 0.027684 0.861000
0.027776 0.033551 0.857000
-0.028740 -0.020262 0.881000
-0.005111 -0.016089 0.871000
-0.012338 -0.009680 0.875000
-0.012727 -0.002483 0.877000
0.008088 -0.014182 0.864000
0.035371 0.027426 0.853000
-0.003311 -0.045380 0.869000
-0.038750 -0.016366 0.886000
-0.016318 -0.009331 0.876000
0.020770 -0.001018 0.859000
0.021148 -0.008807 0.860000
-0.019563 -0.031685 0.876000
-0.013043 0.017310 0.874000
0.015857 -0.012715 0.861000
-0.009055 -0.041900 0.871000
-0.016679 -0.007528 0.876000
-0.025810 -0.005752 0.880000
0.011302 0.033508 0.865000
0.004574 -0.041948 0.872000
-0.015254 -0.025585 0.877000
-0.025419 -0.029984 0.879000
-0.006215 0.009407 0.875000
0.022158 0.011696 0.858000
0.013345 0.042468 0.859000
0.005631 -0.001745 0.869000
-0.017781 0.001126 0.877000
0.008107 0.024636 0.866000
-0.003307 -0.030324 0.868000
0.021830 0.012770 0.859000
-0.004775 0.013728 0.875000
0.010174 0.042518 0.860000
0.013407 0.011764 0.863000
-0.001883 0.024034 0.870000
0.045028 0.011859 0.870000
-0.007237 0.036840 0.868000
0.019709 -0.002079 0.859000
-0.003319 -0.015013 0.871000
0.004938 -0.042715 0.873000
-0.009413 0.027288 0.871000
0.007428 0.001475 0.870000
0.010293 -0.033258 0.870000
0.008463 0.014656 0.866000
-0.037591 -0.013297 0.876000
-0.002953 -0.023563 0.869000
0.017608 0.003582 0.860000
-0.021077 -0.016598 0.879000
0.012398 0.030731 0.867000
0.025449 -0.016864 0.874000
-0.030951 -0.020285 0.882000
0.014472 0.039469 0.863000
0.017274 0.017761 0.861000
-0.009805 -0.011108 0.874000
-0.014482 0.015511 0.874000
-0.024772 -0.044665 0.869000
0.020086 0.030837 0.860000
0.011671 0.007884 0.866000
0.016211 -0.002792 0.861000
0.042521 0.008279 0.870000
0.016585 0.036585 0.862000
0.009855 -0.008837 0.863000
0.025720 -0.001372 0.859000
0.015165 0.006783 0.862000
-0.024361 -0.022050 0.880000
0.034285 -0.002105 0.870000
-0.025781 -0.035773 0.879000
-0.004399 0.029114 0.872000
0.028801 0.027875 0.856000
0.033249 -0.004617 0.871000
0.013985 -0.033887 0.877000
0.017354 0.024964 0.865000
-0.039304 -0.000676 0.874000
0.015875 0.038359 0.862000
-0.002960 -0.015013 0.871000
-0.005135 0.010127 0.875000
-0.020331 -0.006461 0.878000
0.023924 0.010990 0.858000
0.026334 0.010259 0.856000
0.029119 0.011303 0.855000
0.026365 0.017679 0.857000
-0.023972 -0.023472 0.879000
0.008820 0.025349 0.866000
-0.007630 0.026961 0.872000
-0.022499 -0.026698 0.878000
0.005298 -0.041996 0.873000
0.011123 -0.038667 0.879000
-0.014466 0.017290 0.873000
-0.023610 -0.024196 0.879000
-0.020645 -0.036372 0.876000
-0.022138 -0.006823 0.878000
0.030210 0.008145 0.856000
0.015171 -0.037389 0.883000
-0.036806 -0.036313 0.866000
0.004195 0.026837 0.868000
0.020416 -0.001725 0.859000
-0.035625 -0.035488 0.872000
0.010257 0.007536 0.867000
-0.006194 0.023372 0.872000
-0.004742 -0.045738 0.869000
-0.004747 -0.016429 0.870000
-0.023248 -0.007192 0.879000
0.009197 0.028623 0.868000
0.014117 0.020999 0.863000
-0.007271 -0.013954 0.872000
-0.015561 -0.030893 0.874000
0.005625 0.032910 0.868000
-0.028740 -0.023888 0.881000
0.029858 0.008498 0.856000
0.014085 -0.013778 0.861000
0.037077 0.009953 0.860000
-0.017781 -0.001040 0.877000
0.008463 0.025706 0.866000
-0.033404 -0.041419 0.861000
-0.022112 -0.038940 0.877000
-0.022422 0.003284 0.875000
0.002047 -0.032036 0.866000
0.015857 -0.000312 0.861000
0.015000 -0.029420 0.873000
-0.033455 -0.011922 0.881000
0.002760 -0.019204 0.866000
0.020818 0.021659 0.861000
0.011930 0.041761 0.859000
-0.019246 -0.017302 0.878000
0.008163 -0.038000 0.872000
0.030022 -0.008919 0.871000
0.007750 0.022854 0.866000
-0.001164 -0.021392 0.868000
-0.033092 -0.032228 0.881000
-0.012698 -0.023005 0.875000
0.008125 0.002544 0.868000
0.003127 0.035809 0.869000
-0.024334 -0.023472 0.879000
-0.008357 0.024117 0.873000
-0.015976 0.002931 0.877000
0.004181 -0.024523 0.865000
0.004537 -0.022386 0.865000
0.017962 0.002874 0.860000
-0.010130 -0.032938 0.871000
-0.013418 -0.029128 0.875000
0.024418 -0.009192 0.863000
0.029471 0.017989 0.855000
0.019148 -0.031539 0.882000
-0.002602 0.026930 0.871000
0.004547 0.022524 0.867000
0.012711 0.033470 0.864000
-0.001878 -0.042470 0.868000
-0.011950 -0.013970 0.873000
-0.002602 0.031948 0.871000
0.027102 0.001455 0.858000
-0.035188 -0.012257 0.879000
0.019378 0.036854 0.860000
0.004887 0.044849 0.864000
0.038531 0.019703 0.853000
0.023952 0.033983 0.859000
0.012028 0.006459 0.866000
-0.020692 -0.015134 0.878000
0.006441 -0.048237 0.882000
0.010847 -0.045174 0.886000
-0.010513 -0.022953 0.873000
-0.003311 -0.046096 0.869000
-0.009096 -0.010041 0.875000
-0.014859 -0.015803 0.875000
0.008453 -0.028795 0.865000
-0.004036 0.024420 0.871000
-0.000451 -0.012146 0.871000
-0.006896 -0.025739 0.870000
0.028801 0.032455 0.856000
0.007021 -0.018449 0.864000
0.031934 0.011303 0.855000
-0.031713 -0.038044 0.873000
-0.035952 -0.017342 0.880000
0.014101 0.000752 0.862000
-0.001165 0.041890 0.869000
-0.002605 -0.010365 0.872000
0.030210 0.008850 0.856000
0.023218 0.015934 0.858000
-0.001164 -0.042470 0.868000
0.021000 0.038355 0.854000
