-0.016012 -0.001404 0.879000
-0.032477 -0.010144 0.884000
-0.001174 0.018792 0.876000
-0.007638 0.026632 0.873000
0.037344 0.024056 0.858000
0.033569 -0.006402 0.870000
0.027487 0.033630 0.859000
-0.010501 -0.020773 0.872000
-0.033548 -0.037008 0.874000
0.003869 0.016970 0.875000
-0.000808 -0.014996 0.870000
0.000267 0.035933 0.872000
-0.042157 -0.017724 0.881000
0.013067 -0.005647 0.864000
-0.004414 -0.044253 0.875000
0.007445 0.026602 0.872000
-0.018566 0.004028 0.880000
0.020866 -0.012389 0.863000
0.003473 -0.024194 0.866000
0.015893 -0.014165 0.863000
-0.004736 -0.031395 0.868000
-0.012032 0.007279 0.879000
0.009250 0.036333 0.873000
0.015183 -0.010968 0.863000
-0.036933 0.004335 0.869000
0.014828 -0.007061 0.863000
0.013082 -0.002093 0.865000
0.018129 0.033982 0.868000
0.021977 -0.023111 0.879000
-0.024417 0.003311 0.882000
0.029712 0.027716 0.862000
-0.018907 -0.000680 0.879000
0.002066 0.023425 0.874000
0.016362 0.041174 0.869000
0.039723 0.012726 0.856000
0.002785 0.024864 0.874000
0.001336 -0.031359 0.867000
-0.019608 -0.008629 0.878000
-0.022834 0.008706 0.877000
-0.017440 -0.021639 0.878000
-0.040390 -0.009758 0.882000
0.037344 0.025468 0.858000
-0.023637 -0.010822 0.880000
0.024008 0.005712 0.861000
0.027165 0.000042 0.860000
0.006317 -0.022742 0.865000
-0.000811 0.033818 0.873000
-0.024417 0.003674 0.882000
0.004542 -0.015997 0.866000
0.033537 0.024466 0.860000
-0.042607 0.000400 0.868000
-0.040753 -0.018470 0.882000
-0.006920 -0.013611 0.873000
-0.005514 0.010884 0.878000
-0.011604 -0.012907 0.874000
-0.039841 0.000759 0.870000
0.004589 0.014809 0.875000
-0.042883 -0.021350 0.881000
-0.022808 -0.030243 0.876000
-0.011631 0.019152 0.876000
0.031413 0.021634 0.860000
0.010577 -0.013115 0.864000
-0.003681 0.031985 0.872000
0.007094 0.014056 0.873000
0.021602 0.014623 0.864000
-0.038212 -0.009395 0.882000
-0.015579 0.016609 0.875000
0.003477 -0.030289 0.867000
-0.005822 -0.021084 0.870000
-0.018907 -0.005383 0.879000
0.017097 0.029763 0.870000
0.006009 0.023013 0.872000
0.022008 0.032834 0.866000
-0.006583 0.023839 0.876000
0.008799 -0.018449 0.864000
0.046711 0.006831 0.868000
-0.015271 -0.006100 0.878000
0.007741 -0.015622 0.865000
-0.008756 -0.004649 0.877000
0.005961 -0.019538 0.865000
0.007094 0.033818 0.873000
0.028260 -0.002792 0.861000
0.002789 0.034976 0.875000
-0.000815 0.017369 0.877000
0.034205 0.021255 0.859000
-0.026958 -0.017381 0.882000
0.027355 0.036169 0.844000
-0.003311 -0.036797 0.869000
0.014117 -0.014876 0.863000
-0.004022 -0.028895 0.868000
0.002047 -0.023125 0.866000
-0.037806 -0.006483 0.881000
0.027323 -0.008502 0.865000
0.027519 0.010661 0.860000
0.040522 0.009577 0.858000
0.009544 -0.004953 0.867000
0.000626 0.035256 0.873000
-0.009392 -0.037154 0.869000
0.001356 0.012720 0.880000
0.019068 -0.008472 0.862000
-0.004736 -0.033896 0.868000
-0.029896 -0.006135 0.883000
-0.039754 -0.020695 0.884000
0.035225 0.016993 0.858000
0.044004 0.002552 0.871000
-0.008696 -0.026485 0.871000
0.013173 0.037684 0.871000
-0.018162 -0.008629 0.878000
-0.039390 -0.022514 0.884000
0.031693 0.009224 0.858000
0.020842 0.000043 0.862000
0.004574 0.040958 0.872000
0.026905 -0.007416 0.863000
0.007876 -0.036900 0.880000
0.014590 0.035134 0.870000
0.026811 0.006414 0.860000
0.036919 -0.005706 0.873000
0.029643 0.012785 0.860000
0.026134 -0.005273 0.861000
-0.000092 -0.016391 0.868000
0.033754 0.030429 0.839000
0.027551 -0.004564 0.861000
0.039723 0.020124 0.856000
0.007029 -0.015622 0.865000
0.000628 0.030294 0.875000
-0.036843 -0.011599 0.884000
-0.013403 -0.024418 0.874000
0.048888 0.004365 0.875000
0.040122 0.010977 0.857000
0.021881 0.000751 0.861000
-0.009138 0.010173 0.879000
0.032791 0.003931 0.859000
0.016979 -0.015960 0.864000
-0.031641 -0.024614 0.881000
0.034559 0.022316 0.859000
0.025042 0.001458 0.860000
-0.011564 -0.034372 0.871000
-0.012281 -0.033296 0.871000
-0.009500 0.002938 0.879000
0.008799 -0.017026 0.864000
0.019466 -0.026034 0.880000
0.025514 0.022446 0.864000
-0.026202 0.005120 0.881000
-0.026232 -0.014114 0.882000
0.015236 0.009310 0.866000
-0.005501 0.025281 0.876000
-0.028806 -0.003227 0.883000
-0.017700 -0.033013 0.873000
-0.029533 -0.003227 0.883000
0.004967 0.010523 0.878000
-0.001878 -0.034611 0.868000
-0.043679 -0.027823 0.868000
0.038272 0.002529 0.863000
0.027938 0.032328 0.862000
0.026980 -0.017644 0.877000
-0.001176 0.013399 0.877000
-0.009128 0.011969 0.878000
-0.033779 -0.032192 0.880000
0.007445 0.008657 0.872000
0.012814 0.033382 0.871000
-0.034905 -0.030053 0.881000
-0.000452 0.033497 0.874000
-0.025390 -0.024530 0.878000
-0.007603 -0.031789 0.869000
-0.036479 -0.013418 0.884000
0.026550 0.020644 0.863000
0.016604 -0.002089 0.863000
-0.016281 -0.029094 0.874000
0.032791 0.013831 0.859000
-0.021801 0.006555 0.879000
0.001712 -0.038218 0.877000
0.017077 -0.020702 0.869000
0.034522 -0.009691 0.876000
-0.022163 -0.022025 0.879000
0.027487 0.001457 0.859000
-0.016318 -0.012936 0.876000
-0.042299 -0.028928 0.869000
0.034831 0.012035 0.857000
0.038403 0.007811 0.858000
-0.010200 0.019535 0.877000
-0.035266 0.003632 0.872000
-0.027888 -0.038218 0.877000
0.036637 0.022643 0.858000
0.020963 0.028590 0.867000
0.003134 0.040194 0.871000
-0.024667 -0.024891 0.878000
-0.044004 -0.024105 0.889000
-0.030157 0.002941 0.880000
0.020226 0.017864 0.866000
-0.006173 -0.038585 0.869000
0.033852 0.018073 0.859000
0.011712 -0.000672 0.869000
-0.029004 -0.037539 0.878000
-0.020739 0.000768 0.880000
0.000989 0.015547 0.876000
0.000623 -0.032110 0.868000
0.022008 0.027131 0.866000
-0.009478 -0.007176 0.877000
0.026550 0.019578 0.863000
-0.020377 0.002941 0.880000
-0.034386 0.000765 0.877000
-0.009117 -0.005010 0.877000
0.015898 -0.031574 0.883000
0.018822 0.020026 0.867000
0.033891 0.029775 0.860000
0.042293 0.025260 0.851000
0.004579 0.018727 0.873000
0.023623 -0.017922 0.873000
-0.001898 0.013760 0.877000
0.022494 -0.017164 0.871000
-0.000451 -0.037957 0.871000
0.004224 0.032778 0.874000
0.000988 0.019490 0.875000
0.006719 -0.002825 0.871000
0.025484 -0.008837 0.863000
-0.021801 -0.010810 0.879000
0.048609 0.006846 0.870000
-0.001523 -0.036081 0.869000
-0.007691 0.011982 0.879000
-0.036115 -0.017421 0.884000
0.021881 -0.005627 0.861000
0.003851 -0.007485 0.871000
0.004542 -0.027046 0.866000
0.034720 -0.000668 0.863000
0.004258 -0.040931 0.881000
-0.011950 -0.022234 0.873000
0.037697 0.022643 0.858000
-0.025029 0.007271 0.878000
0.017710 -0.017046 0.865000
0.024008 0.004295 0.861000
-0.021727 -0.029521 0.876000
-0.012046 0.000406 0.880000
-0.019246 -0.010075 0.878000
-0.004764 0.030585 0.873000
-0.003690 -0.011468 0.874000
0.013173 0.039835 0.871000
-0.001174 0.019513 0.876000
0.002429 0.018770 0.875000
0.018844 0.029695 0.868000
0.003145 0.036735 0.874000
0.038711 0.020500 0.857000
0.013438 -0.019894 0.865000
-0.004435 0.007279 0.879000
-0.042460 -0.030219 0.865000
0.017455 0.029047 0.870000
-0.001889 0.032740 0.873000
-0.029533 -0.001774 0.883000
-0.012394 -0.005745 0.879000
0.024119 0.031728 0.865000
0.034872 0.016993 0.858000
0.011289 -0.012759 0.864000
0.031413 0.015971 0.860000
-0.033167 -0.019218 0.883000
-0.042717 -0.030859 0.863000
-0.030294 -0.004322 0.884000
-0.004399 -0.041948 0.872000
0.013842 0.004330 0.868000
0.023980 0.035792 0.860000
-0.015579 0.016249 0.875000
0.006383 0.039253 0.874000
-0.008405 0.014859 0.878000
-0.004389 -0.017503 0.870000
-0.009065 -0.016825 0.872000
0.015154 -0.031539 0.882000
-0.011551 -0.036839 0.870000
-0.024389 -0.002132 0.881000
-0.012408 0.000043 0.880000
0.000625 -0.037240 0.871000
-0.003345 -0.045489 0.878000
-0.001166 -0.037197 0.870000
0.037431 0.004290 0.860000
0.026225 0.029914 0.864000
-0.018439 -0.034850 0.874000
0.025514 0.026358 0.864000
-0.039214 -0.000675 0.872000
0.005249 -0.020606 0.865000
-0.001521 -0.023179 0.868000
0.010305 0.009005 0.871000
0.018150 0.029371 0.869000
-0.034984 -0.024306 0.883000
-0.036479 -0.017784 0.884000
-0.010835 -0.042210 0.870000
-0.019159 -0.035569 0.874000
-0.010154 -0.015767 0.873000
-0.014449 -0.034411 0.872000
0.014896 0.042507 0.867000
0.016305 0.016439 0.866000
0.034643 -0.005686 0.870000
-0.038094 0.001835 0.871000
0.008163 0.013322 0.872000
-0.034219 -0.026457 0.882000
-0.031279 -0.023888 0.881000
0.008182 -0.032332 0.874000
-0.035348 -0.019581 0.883000
-0.010835 -0.038271 0.870000
-0.030484 0.004023 0.879000
-0.015994 0.011969 0.878000
0.018004 -0.003860 0.862000
0.009946 0.026930 0.871000
-0.038255 -0.016311 0.883000
0.034482 -0.008960 0.875000
0.042472 0.002547 0.869000
0.005968 -0.017066 0.866000
-0.020692 -0.011520 0.878000
-0.004026 -0.025351 0.869000
0.008200 -0.033487 0.876000
-0.026595 -0.004676 0.882000
-0.006951 0.018452 0.877000
-0.033227 -0.037051 0.875000
-0.022087 -0.032045 0.876000
-0.012998 -0.044409 0.871000
-0.018059 -0.035169 0.873000
0.020866 0.006436 0.863000
0.005631 -0.008541 0.869000
0.031493 -0.010006 0.872000
-0.015579 -0.026607 0.875000
-0.006545 -0.020391 0.871000
0.033498 0.017366 0.859000
0.009923 0.017568 0.869000
-0.029727 -0.036455 0.878000
-0.012727 0.016647 0.877000
-0.042157 -0.022438 0.881000
0.005006 -0.042938 0.885000
-0.021851 -0.000682 0.881000
0.032046 0.009577 0.858000
-0.010947 0.000405 0.879000
0.030316 0.001103 0.859000
0.032793 -0.012605 0.878000
-0.015615 -0.008981 0.877000
-0.008726 0.026663 0.874000
-0.001165 -0.035724 0.869000
0.014914 0.021478 0.868000
0.018380 -0.013455 0.863000
0.019090 0.000753 0.863000
-0.000449 -0.028861 0.867000
-0.014090 -0.033335 0.872000
-0.006583 -0.007168 0.876000
0.004933 -0.002828 0.872000
0.045324 0.009977 0.862000
-0.013747 -0.043793 0.873000
-0.028410 -0.007943 0.882000
0.014428 -0.032628 0.882000
0.024035 0.012815 0.862000
0.001334 -0.024907 0.866000
0.019491 0.014639 0.865000
0.005267 -0.030324 0.868000
-0.000092 -0.033896 0.868000
0.006735 0.013338 0.873000
-0.021077 -0.015151 0.879000
-0.012032 -0.003213 0.879000
-0.026958 0.003674 0.882000
0.039739 0.003599 0.864000
0.024418 0.016026 0.863000
-0.002593 -0.022464 0.868000
0.031377 0.001457 0.859000
0.016912 -0.027814 0.879000
0.041132 0.022590 0.856000
-0.041178 0.000400 0.868000
-0.000092 -0.022081 0.867000
-0.043222 -0.028828 0.866000
-0.004791 0.007632 0.878000
-0.009478 0.019535 0.877000
-0.007254 -0.024664 0.870000
0.025425 0.007484 0.861000
0.005625 -0.009246 0.868000
-0.038269 -0.002478 0.875000
0.000627 -0.039167 0.874000
0.030381 -0.010353 0.871000
-0.003307 -0.028895 0.868000
-0.013058 0.020211 0.875000
-0.007638 0.025913 0.873000
0.031486 -0.002086 0.862000
0.004186 -0.022769 0.866000
-0.025751 -0.024530 0.878000
0.033145 0.002871 0.859000
-0.035711 -0.024306 0.883000
-0.036933 0.007196 0.869000
-0.033129 -0.001772 0.882000
0.017792 0.035809 0.869000
0.003513 -0.036372 0.876000
0.020389 -0.020797 0.873000
-0.010935 -0.003932 0.878000
-0.005495 0.026693 0.875000
-0.039124 -0.032184 0.870000
-0.018799 -0.034850 0.874000
-0.029004 -0.035371 0.878000
-0.000452 -0.010377 0.873000
0.034165 0.013815 0.858000
0.034831 0.010624 0.857000
0.001708 0.030655 0.875000
0.004547 -0.012447 0.867000
-0.023890 -0.031685 0.876000
0.041517 0.004666 0.864000
-0.006560 0.029507 0.873000
0.035554 0.031840 0.849000
0.002409 -0.031395 0.868000
-0.014532 0.014843 0.877000
-0.006590 0.021701 0.877000
0.015949 0.015726 0.866000
0.000979 -0.020297 0.867000
0.010946 -0.021318 0.865000
-0.035388 -0.015238 0.884000
0.006023 0.034936 0.874000
-0.010489 -0.045126 0.871000
0.038400 -0.004633 0.874000
0.005961 -0.022386 0.865000
-0.012625 -0.039703 0.870000
-0.044082 -0.002841 0.876000
0.018742 -0.026759 0.880000
0.030422 0.029490 0.862000
-0.038255 -0.026487 0.883000
0.031095 0.022014 0.861000
0.043044 0.009588 0.859000
0.025042 0.003582 0.860000
-0.011591 -0.019360 0.873000
0.024688 0.000396 0.860000
-0.004068 0.011246 0.878000
0.032702 -0.004234 0.866000
-0.009403 -0.028961 0.870000
-0.036190 -0.001401 0.877000
0.003489 -0.010699 0.870000
0.022339 0.016776 0.865000
0.014472 -0.008837 0.863000
-0.010235 0.006563 0.880000
-0.003307 -0.033182 0.868000
-0.000453 0.025253 0.875000
-0.030484 -0.034687 0.879000
-0.016262 -0.032295 0.873000
0.010305 0.026213 0.871000
0.040169 0.009577 0.858000
0.014489 -0.002091 0.864000
0.008163 0.042034 0.872000
-0.006935 -0.011481 0.875000
-0.007691 0.010535 0.879000
0.008532 0.034896 0.873000
0.008125 -0.006388 0.868000
-0.016374 -0.003213 0.879000
0.033800 -0.010773 0.876000
0.022571 -0.019382 0.874000
0.035931 0.018759 0.858000
0.015610 0.017171 0.867000
0.015556 -0.001735 0.864000
0.001718 -0.040884 0.880000
0.043797 0.025671 0.853000
-0.030449 -0.037178 0.878000
0.034519 0.014521 0.858000
-0.027684 -0.005039 0.882000
-0.027197 -0.033203 0.878000
-0.016012 0.006194 0.879000
-0.009761 -0.043642 0.870000
-0.014859 -0.025886 0.875000
-0.039346 -0.038843 0.883000
0.003829 -0.019204 0.866000
-0.020354 -0.003574 0.879000
0.001340 -0.013206 0.870000
-0.000807 -0.015694 0.869000
-0.018885 0.008716 0.878000
0.026457 -0.001727 0.860000
0.019870 0.017864 0.866000
-0.008016 0.024172 0.875000
-0.024723 -0.020964 0.880000
-0.007262 -0.042617 0.871000
0.006696 -0.008174 0.868000
0.006324 -0.024907 0.866000
0.023078 0.017508 0.866000
0.008512 0.023703 0.871000
-0.029761 -0.032879 0.879000
0.004205 0.041580 0.870000
0.003505 0.029900 0.874000
0.011289 -0.013115 0.864000
-0.010130 -0.028277 0.871000
0.014183 0.017528 0.867000
-0.015885 -0.037282 0.872000
0.013067 -0.008492 0.864000
-0.009424 -0.021491 0.872000
0.014472 -0.011679 0.863000
0.030387 0.019887 0.861000
-0.003698 0.020594 0.876000
-0.034025 0.001487 0.877000
0.032121 0.021280 0.860000
0.031312 -0.006737 0.867000
0.025304 -0.013191 0.869000
0.035973 0.004992 0.859000
0.008453 -0.011706 0.865000
0.006712 0.044444 0.870000
0.012785 0.022218 0.869000
0.007070 -0.005686 0.870000
-0.012983 -0.041136 0.870000
0.008483 -0.005673 0.868000
-0.020739 0.001130 0.880000
0.010222 -0.016315 0.864000
-0.029004 -0.036093 0.878000
0.001348 0.026693 0.875000
0.011009 0.003266 0.870000
-0.024026 -0.001770 0.881000
0.014791 -0.032265 0.882000
-0.035543 0.007204 0.870000
-0.040464 -0.031395 0.868000
-0.011578 -0.027592 0.872000
-0.033129 -0.022463 0.882000
0.014623 0.030191 0.872000
0.009511 -0.014893 0.864000
0.038050 0.007458 0.858000
0.005975 -0.027434 0.867000
-0.000093 0.017008 0.877000
-0.030916 0.001494 0.881000
-0.000453 0.029574 0.875000
-0.024444 -0.015220 0.883000
0.035348 0.001814 0.861000
0.003501 0.025554 0.873000
0.009577 0.013650 0.870000
-0.017098 0.006917 0.879000
0.034599 0.028359 0.860000
0.012441 0.043012 0.870000
0.012055 -0.000672 0.868000
0.043797 0.025320 0.853000
0.015556 -0.000313 0.864000
-0.010872 -0.016126 0.873000
-0.037677 -0.031034 0.878000
0.026104 0.003228 0.860000
0.002763 -0.028504 0.867000
-0.040344 -0.015186 0.881000
0.002059 0.039835 0.871000
-0.022163 0.006555 0.879000
-0.014122 -0.019382 0.874000
-0.001166 -0.015354 0.870000
0.022365 0.034260 0.866000
0.003856 0.043111 0.872000
0.013547 0.028755 0.872000
0.020866 0.008922 0.863000
0.037653 0.020148 0.857000
-0.013715 -0.034372 0.871000
-0.039936 -0.006476 0.880000
-0.002593 -0.034968 0.868000
0.028781 -0.008155 0.866000
-0.032367 -0.029690 0.881000
0.037561 0.001819 0.863000
-0.012380 0.015221 0.878000
-0.022525 -0.010810 0.879000
0.013173 0.041269 0.871000
0.034303 0.032000 0.844000
0.006023 0.038893 0.874000
0.041984 0.008881 0.859000
-0.005514 0.014498 0.878000
-0.010835 -0.039703 0.870000
0.028363 0.035779 0.843000
0.022034 0.018242 0.867000
-0.009839 0.019535 0.877000
0.010663 0.011156 0.871000
-0.006935 -0.046774 0.875000
0.004584 0.037814 0.874000
0.027938 0.024877 0.862000
-0.000454 -0.042189 0.877000
0.043796 -0.000317 0.874000
-0.006888 -0.035366 0.869000
0.016873 -0.026668 0.877000
0.005657 0.039927 0.873000
0.031804 0.025912 0.861000
-0.041116 -0.021737 0.882000
-0.039026 -0.018876 0.884000
-0.011923 -0.030787 0.871000
-0.010947 -0.001042 0.879000
-0.010142 -0.021132 0.872000
0.007078 0.021911 0.871000
0.034872 0.015580 0.858000
0.019423 -0.008117 0.862000
-0.041989 -0.001747 0.870000
-0.037528 -0.027213 0.883000
0.002426 0.024504 0.874000
0.010602 -0.006017 0.866000
0.030991 -0.007459 0.868000
0.020203 0.016776 0.865000
-0.033817 -0.002132 0.881000
-0.026444 -0.037857 0.877000
0.027583 0.019201 0.862000
0.015592 0.007528 0.866000
-0.010130 -0.025410 0.871000
0.044924 0.005402 0.868000
0.038006 0.012388 0.857000
-0.039167 -0.028899 0.879000
-0.006575 -0.010761 0.875000
-0.023301 -0.000319 0.881000
-0.021077 -0.015513 0.879000
0.030719 0.032579 0.841000
0.012470 -0.027233 0.872000
0.019558 0.029338 0.868000
0.027165 0.007476 0.860000
-0.009839 0.017730 0.877000
0.006354 0.043370 0.870000
0.015592 0.009310 0.866000
-0.020716 -0.008639 0.879000
-0.005495 -0.007520 0.875000
-0.039034 0.003258 0.868000
-0.010935 0.011607 0.878000
-0.036801 -0.027213 0.883000
0.015201 -0.016315 0.864000
0.013469 -0.022081 0.867000
-0.012267 -0.037197 0.870000
0.007070 0.044802 0.870000
0.011752 0.030549 0.872000
-0.017781 -0.026307 0.877000
-0.000092 -0.036839 0.870000
-0.012310 -0.021875 0.873000
0.015930 0.005027 0.865000
-0.038585 -0.031253 0.874000
0.023732 -0.020170 0.877000
-0.025839 -0.019174 0.881000
0.005298 0.039927 0.873000
0.008860 -0.001031 0.870000
0.035184 0.013799 0.857000
-0.010872 -0.016844 0.873000
0.004910 -0.029966 0.868000
-0.029070 -0.024223 0.880000
-0.012338 -0.011121 0.875000
0.015930 0.010011 0.865000
-0.012046 0.000768 0.880000
-0.000455 -0.044506 0.880000
0.010626 -0.026037 0.868000
0.030734 0.035768 0.851000
0.005961 -0.020962 0.865000
0.003865 0.017670 0.874000
-0.016717 -0.022361 0.878000
0.030670 0.011356 0.859000
-0.044189 -0.030184 0.864000
-0.026083 -0.033887 0.877000
0.022616 0.036230 0.862000
0.039417 0.025086 0.857000
-0.037892 -0.013040 0.883000
0.032867 0.028747 0.861000
0.004589 0.011207 0.875000
0.003505 0.037095 0.874000
0.029800 -0.013282 0.875000
0.006023 0.039613 0.874000
0.026843 0.012800 0.861000
-0.015976 -0.007898 0.877000
0.033183 0.022342 0.860000
-0.005822 -0.023948 0.870000
0.036680 0.027266 0.859000
-0.019969 -0.024168 0.878000
-0.021464 -0.015169 0.880000
0.024889 -0.012090 0.867000
-0.014910 -0.005377 0.878000
0.031878 -0.003154 0.863000
0.017435 0.036882 0.869000
0.000634 -0.046164 0.884000
0.003856 -0.035129 0.872000
-0.045992 -0.031282 0.885000
-0.014432 -0.037240 0.871000
-0.013118 0.010535 0.879000
0.020939 0.029983 0.866000
-0.022550 0.005839 0.880000
0.013810 0.000756 0.866000
0.013810 0.000043 0.866000
-0.001898 -0.043632 0.877000
0.012427 0.023291 0.869000
-0.040207 -0.028143 0.878000
0.008163 0.014399 0.872000
-0.025839 -0.011922 0.881000
0.017455 0.028689 0.870000
-0.018481 0.010860 0.876000
-0.013357 -0.036881 0.871000
0.027906 0.012446 0.861000
0.041685 -0.002478 0.875000
0.028293 0.025942 0.862000
-0.030088 0.004741 0.878000
0.003170 -0.039843 0.881000
-0.015903 -0.032295 0.873000
0.034246 -0.005322 0.869000
0.001336 -0.018870 0.867000
0.000623 -0.016034 0.868000
-0.012394 -0.002851 0.879000
0.004621 -0.039843 0.881000
0.002066 0.021986 0.874000
-0.034747 -0.038540 0.868000
0.015085 -0.029227 0.878000
0.006735 0.016212 0.873000
0.029357 -0.004570 0.862000
-0.015958 -0.011494 0.876000
-0.016262 -0.032654 0.873000
0.018974 -0.022619 0.874000
0.005618 -0.010306 0.867000
0.024831 0.029236 0.865000
0.042309 -0.000676 0.873000
-0.018524 -0.018748 0.878000
-0.033227 0.004005 0.875000
-0.022188 -0.020964 0.880000
-0.009055 -0.024334 0.871000
0.008799 -0.016315 0.864000
0.003131 -0.010699 0.870000
0.006009 0.017988 0.872000
0.007750 -0.010650 0.866000
0.019090 -0.012389 0.863000
0.005982 -0.009603 0.868000
0.003481 -0.030681 0.868000
0.039769 0.020500 0.857000
-0.019969 0.007993 0.878000
0.008473 -0.026720 0.867000
-0.005457 -0.028213 0.869000
0.020818 -0.007399 0.861000
-0.012669 -0.022593 0.873000
-0.034660 -0.013418 0.884000
-0.011937 -0.024003 0.872000
-0.002608 -0.012533 0.873000
-0.040988 -0.031962 0.864000
0.027669 0.035779 0.843000
0.001350 0.016268 0.876000
-0.002950 -0.023179 0.868000
-0.031641 -0.022800 0.881000
-0.008706 -0.020055 0.872000
-0.018142 -0.014034 0.877000
0.011393 -0.028310 0.872000
0.007445 0.015476 0.872000
-0.003345 0.013775 0.878000
0.020226 0.017508 0.866000
0.012770 0.015405 0.868000
-0.013794 -0.011134 0.876000
-0.014944 -0.000681 0.880000
0.030351 -0.000665 0.860000
-0.031243 -0.028207 0.880000
0.000982 -0.013206 0.870000
0.011367 0.002191 0.870000
0.006719 -0.002108 0.871000
0.037697 0.007105 0.858000
-0.035348 -0.021399 0.883000
0.010626 -0.003172 0.868000
0.023763 0.028880 0.865000
0.019445 0.003595 0.863000
0.034285 0.000397 0.861000
0.042326 0.004320 0.866000
0.009229 0.024062 0.871000
0.002092 -0.045852 0.885000
-0.024389 -0.019537 0.881000
-0.000092 -0.009299 0.873000
-0.034390 -0.038183 0.868000
0.020963 0.027163 0.867000
0.011986 -0.013810 0.863000
-0.030122 0.004023 0.879000
-0.001531 -0.041325 0.874000
0.018657 -0.024474 0.876000
-0.005520 0.011620 0.879000
-0.013731 -0.029387 0.872000
0.020866 -0.010968 0.863000
-0.019586 -0.026307 0.877000
-0.041603 -0.034017 0.862000
-0.011322 0.005114 0.880000
0.031377 0.013831 0.859000
-0.006959 0.016305 0.878000
-0.004045 -0.013251 0.873000
-0.036479 -0.012327 0.884000
-0.005815 -0.037512 0.869000
0.000990 -0.041106 0.877000
-0.003307 -0.031038 0.868000
0.017018 0.016795 0.866000
-0.008686 -0.041494 0.870000
0.016998 0.042765 0.865000
0.014215 0.042605 0.869000
0.009577 0.015082 0.870000
0.023424 -0.022025 0.879000
-0.024334 -0.022025 0.879000
0.005715 -0.040251 0.882000
-0.008686 -0.027171 0.870000
-0.038320 0.004330 0.868000
-0.001533 0.023452 0.875000
0.012069 0.020787 0.869000
-0.008686 -0.042568 0.870000
0.013826 0.015030 0.867000
0.007394 -0.011363 0.866000
0.037866 0.029639 0.846000
0.015201 -0.001380 0.864000
-0.007246 -0.034651 0.869000
0.008512 0.015458 0.871000
0.008463 -0.010294 0.866000
-0.002608 -0.012173 0.873000
0.014363 -0.029589 0.878000
-0.007979 -0.019315 0.871000
-0.014155 0.015547 0.876000
-0.015480 -0.043547 0.890000
0.013127 0.010760 0.868000
0.011034 0.034138 0.872000
-0.037571 -0.015601 0.884000
-0.034905 -0.002857 0.881000
0.001693 -0.030646 0.867000
-0.006229 0.019896 0.877000
-0.001895 0.028887 0.876000
-0.036176 0.006473 0.868000
-0.005495 -0.010401 0.875000
-0.017841 0.004390 0.880000
-0.020739 -0.002492 0.880000
0.014879 0.012518 0.866000
-0.029169 -0.004318 0.883000
0.015700 0.029832 0.872000
0.015137 -0.031140 0.881000
-0.005117 -0.042666 0.872000
0.018844 0.031124 0.868000
-0.040892 -0.010520 0.885000
0.013127 0.018263 0.868000
-0.015526 -0.041230 0.872000
-0.001162 -0.029218 0.867000
0.037300 0.019442 0.857000
-0.024752 -0.011922 0.881000
0.025869 0.022446 0.864000
-0.013857 0.005476 0.880000
-0.003703 0.009428 0.877000
-0.020261 -0.032369 0.875000
-0.012770 0.001130 0.880000
-0.038320 -0.033896 0.868000
0.002776 -0.010353 0.871000
-0.034660 -0.010871 0.884000
0.031059 0.020572 0.860000
0.012055 -0.001029 0.868000
0.012770 0.017906 0.868000
-0.002981 0.010150 0.877000
0.013469 0.013960 0.867000
0.034165 0.010636 0.858000
0.037344 0.023349 0.858000
-0.010119 -0.031468 0.870000
-0.014548 0.013414 0.878000
-0.028079 -0.000683 0.883000
0.015236 0.009666 0.866000
0.000267 -0.038762 0.873000
-0.013403 -0.020101 0.874000
0.024716 -0.004919 0.861000
0.011367 0.006488 0.870000
0.026811 0.005706 0.860000
0.028935 0.012077 0.860000
0.012208 -0.032517 0.879000
0.013842 0.017906 0.868000
0.026673 -0.010662 0.867000
-0.009138 0.004747 0.879000
0.041114 0.005015 0.863000
-0.019630 -0.018769 0.879000
-0.030916 -0.025339 0.881000
0.034245 0.025174 0.860000
0.019984 -0.019674 0.871000
-0.018162 -0.023807 0.878000
-0.039528 0.005779 0.871000
0.013485 0.002544 0.868000
-0.012683 -0.018662 0.874000
0.020963 0.026449 0.867000
0.020179 0.013556 0.864000
-0.028643 -0.036455 0.878000
0.022442 -0.016052 0.869000
0.021222 0.011409 0.863000
0.003505 0.027742 0.874000
-0.001170 0.033818 0.873000
-0.011671 0.009088 0.879000
0.021345 0.024693 0.868000
0.011537 -0.035936 0.883000
-0.039619 -0.015911 0.881000
-0.039619 -0.012648 0.881000
0.032753 0.009930 0.858000
0.017649 -0.004570 0.862000
0.020842 0.000752 0.862000
0.017293 -0.028207 0.880000
0.008532 0.037052 0.873000
0.008932 -0.033887 0.877000
-0.029070 -0.022775 0.880000
0.006383 0.037814 0.874000
0.023980 0.001104 0.860000
0.022590 0.001460 0.861000
-0.013495 -0.000681 0.880000
-0.037605 0.004687 0.868000
-0.002617 0.026003 0.876000
0.003188 -0.045174 0.886000
0.033103 0.031157 0.840000
0.011752 0.029114 0.872000
-0.000093 0.016647 0.877000
0.006727 0.017629 0.872000
0.022944 0.003586 0.861000
0.042163 0.001475 0.870000
-0.002277 -0.048711 0.884000
0.010651 0.024750 0.870000
0.017294 -0.011310 0.862000
0.007094 0.013697 0.873000
0.032084 0.003578 0.859000
0.024447 0.017112 0.864000
0.030457 -0.004575 0.863000
-0.041958 -0.032597 0.862000
-0.032077 -0.015584 0.883000
0.012814 0.026571 0.871000
-0.028410 -0.017381 0.882000
-0.033492 -0.022826 0.882000
0.010651 0.012934 0.870000
0.006368 0.042034 0.872000
-0.017078 -0.023807 0.878000
0.021652 0.028201 0.866000
0.036991 0.025115 0.858000
0.035869 0.028391 0.840000
-0.017340 -0.033373 0.873000
-0.040539 -0.034017 0.862000
0.006009 -0.032617 0.872000
-0.042472 -0.024586 0.880000
-0.008696 -0.023259 0.871000
0.019201 0.035054 0.868000
0.007445 0.027678 0.872000
0.003493 -0.008202 0.871000
0.013531 0.038401 0.871000
-0.038181 -0.031936 0.873000
0.019892 0.028947 0.867000
-0.008053 0.008726 0.879000
-0.015976 -0.021614 0.877000
0.009577 0.015798 0.870000
-0.034346 -0.035290 0.876000
0.042326 0.003963 0.866000
-0.010154 -0.016485 0.873000
0.012770 0.014690 0.868000
-0.016281 -0.029454 0.874000
0.010257 -0.003882 0.867000
0.032753 0.012402 0.858000
0.018066 -0.015978 0.865000
-0.023301 -0.001407 0.881000
0.022236 0.000397 0.861000
0.039479 -0.003914 0.874000
-0.030157 -0.025672 0.880000
-0.014219 -0.001767 0.880000
-0.010525 -0.012547 0.874000
-0.033664 -0.035691 0.877000
0.015826 -0.028899 0.879000
-0.026474 -0.029589 0.878000
0.024334 0.000750 0.860000
0.032121 0.019864 0.860000
-0.006173 -0.030359 0.869000
-0.005868 0.021701 0.877000
0.026104 -0.002789 0.860000
-0.003326 0.033818 0.873000
0.008809 -0.023098 0.865000
0.028902 0.033630 0.859000
-0.028281 -0.034648 0.878000
-0.017700 -0.034451 0.873000
-0.030449 -0.037539 0.878000
0.016041 0.029439 0.871000
0.028195 0.033630 0.859000
-0.041103 -0.028735 0.874000
-0.019225 -0.025946 0.877000
0.020630 -0.017105 0.868000
-0.013763 -0.016504 0.874000
-0.043629 -0.028148 0.867000
-0.000449 -0.023152 0.867000
0.036637 0.007811 0.858000
0.024716 -0.004564 0.861000
-0.007673 0.021701 0.877000
-0.032716 -0.038674 0.871000
-0.005105 -0.018219 0.870000
0.011354 -0.025709 0.869000
-0.028313 -0.027090 0.879000
-0.031208 -0.033964 0.879000
0.005631 -0.008899 0.869000
-0.006236 0.007993 0.878000
-0.033205 -0.012691 0.884000
-0.023222 0.006909 0.878000
-0.011684 0.002941 0.880000
-0.011244 0.022346 0.874000
-0.010573 0.012691 0.878000
-0.009435 -0.015767 0.873000
-0.024695 0.006194 0.879000
0.040075 0.013078 0.856000
-0.024251 -0.032406 0.876000
0.024843 -0.020193 0.878000
-0.011950 -0.018282 0.873000
0.039723 0.014839 0.856000
0.004584 0.029900 0.874000
-0.040938 -0.012355 0.886000
0.000271 -0.047727 0.886000
-0.036397 -0.028998 0.882000
0.005650 0.020141 0.872000
-0.019203 0.011581 0.876000
0.028548 0.003224 0.859000
0.010651 0.023318 0.870000
0.019491 -0.014910 0.865000
-0.032729 -0.025701 0.881000
-0.000806 -0.034253 0.868000
0.007086 0.015835 0.872000
0.033478 -0.011507 0.877000
-0.023691 -0.017381 0.882000
0.010293 0.022602 0.870000
-0.024639 -0.028472 0.877000
-0.033167 -0.015220 0.883000
-0.025477 -0.009747 0.881000
0.011367 0.023318 0.870000
0.013142 0.002904 0.869000
-0.010119 -0.044000 0.870000
0.000623 -0.016391 0.868000
0.022971 0.005364 0.862000
-0.031350 -0.001410 0.883000
0.040824 -0.001034 0.872000
-0.012019 -0.006100 0.878000
-0.007312 0.022062 0.877000
-0.020377 0.004390 0.880000
-0.032330 -0.033278 0.880000
-0.021342 -0.031649 0.875000
0.023790 -0.012789 0.866000
0.029712 0.028070 0.862000
-0.021851 0.005120 0.881000
-0.026172 -0.020239 0.880000
-0.029037 -0.028899 0.879000
0.015517 -0.031176 0.882000
0.008860 0.021169 0.870000
0.005255 -0.027046 0.866000
-0.029037 -0.028537 0.879000
0.031095 0.023785 0.861000
-0.012366 0.017008 0.877000
0.027971 0.026682 0.863000
0.001693 -0.017086 0.867000
0.034478 0.009566 0.857000
0.029751 0.033003 0.843000
-0.030588 0.001496 0.882000
0.012000 -0.011692 0.864000
0.015288 0.041890 0.869000
-0.008319 -0.034651 0.869000
0.018401 -0.014893 0.864000
0.021552 0.003590 0.862000
0.009511 -0.019516 0.864000
-0.040464 0.003615 0.868000
0.002773 -0.034332 0.870000
0.016979 0.041293 0.864000
0.031102 0.034004 0.842000
-0.023556 -0.027750 0.877000
0.015930 0.003959 0.865000
0.017374 0.018221 0.866000
0.035537 0.013446 0.857000
-0.016981 -0.039481 0.873000
-0.027590 -0.027452 0.879000
0.002404 -0.027046 0.866000
0.023759 -0.020916 0.878000
0.009878 -0.022386 0.865000
-0.025361 -0.029916 0.877000
-0.014825 -0.029061 0.873000
-0.007329 0.006917 0.879000
-0.001162 -0.025293 0.867000
0.008541 -0.032332 0.874000
-0.015254 -0.023419 0.877000
0.040871 -0.002113 0.873000
0.002417 -0.011429 0.871000
0.015341 0.026961 0.872000
0.023434 0.031409 0.866000
0.002785 0.027382 0.874000
0.031730 0.012063 0.859000
-0.022087 -0.031685 0.876000
-0.031749 -0.005050 0.884000
0.003149 0.033536 0.875000
0.021197 0.000752 0.862000
0.011644 -0.010626 0.864000
-0.013763 -0.016864 0.874000
0.040497 0.003603 0.865000
-0.027352 0.002224 0.883000
0.035307 0.028359 0.860000
0.008901 -0.031972 0.874000
0.019778 -0.010956 0.862000
0.038982 0.003595 0.863000
-0.037528 -0.024669 0.883000
-0.013013 -0.030822 0.872000
-0.025722 -0.030638 0.877000
-0.004026 -0.037154 0.869000
-0.000092 -0.013922 0.870000
0.019068 -0.005989 0.862000
0.000622 -0.026720 0.867000
0.037046 -0.007889 0.876000
0.031804 0.028038 0.861000
0.000623 -0.014264 0.869000
-0.006943 -0.047188 0.876000
0.002068 0.031015 0.875000
0.018508 0.028656 0.869000
-0.035711 -0.025396 0.883000
-0.006888 -0.036081 0.869000
-0.028410 -0.012299 0.882000
0.038711 0.010624 0.857000
-0.019268 -0.020940 0.879000
0.044004 0.002194 0.871000
0.001339 -0.034651 0.869000
-0.004747 -0.018935 0.870000
0.016286 0.007875 0.865000
-0.043422 -0.027529 0.870000
-0.003728 -0.049382 0.883000
0.007795 0.021552 0.871000
-0.005457 -0.036439 0.869000
0.007385 -0.018114 0.865000
0.007454 0.011182 0.873000
0.012441 0.024034 0.870000
0.003120 -0.018513 0.867000
0.048967 0.007204 0.870000
0.016585 -0.010956 0.862000
-0.004068 0.015582 0.878000
0.002420 -0.006776 0.872000
-0.003690 -0.010029 0.874000
-0.011671 0.010535 0.879000
-0.045000 -0.033178 0.887000
0.016399 0.026571 0.871000
-0.020377 -0.021688 0.880000
0.019400 -0.024502 0.877000
-0.009138 0.005832 0.879000
0.022008 0.033547 0.866000
0.029357 0.031264 0.862000
-0.009772 -0.023617 0.871000
-0.001162 -0.031002 0.867000
0.023353 -0.009903 0.863000
-0.040938 -0.009802 0.886000
0.043295 0.006444 0.864000
-0.008357 -0.046308 0.873000
-0.000806 -0.018177 0.868000
-0.030157 -0.023861 0.880000
0.006368 0.041675 0.872000
0.032046 0.006752 0.858000
-0.009862 0.009450 0.879000
0.007804 0.000402 0.872000
0.000265 -0.023866 0.867000
-0.008686 -0.030752 0.870000
0.009912 0.045057 0.868000
0.010675 -0.028669 0.872000
0.019445 0.003950 0.863000
-0.037528 -0.011586 0.883000
0.033891 0.027297 0.860000
-0.020354 -0.023111 0.879000
-0.007682 0.014498 0.878000
0.002090 -0.044708 0.884000
0.033183 0.023758 0.860000
-0.004409 -0.010749 0.874000
-0.025171 -0.016311 0.883000
-0.007673 0.020257 0.877000
-0.037892 -0.015584 0.883000
-0.006215 -0.011841 0.875000
-0.005848 -0.012907 0.874000
0.040892 0.028063 0.851000
0.039164 -0.000677 0.875000
-0.005135 -0.007520 0.875000
-0.034296 -0.005050 0.884000
0.027671 -0.015821 0.876000
0.005279 0.043370 0.870000
0.006016 0.016571 0.873000
-0.026143 0.007279 0.879000
0.009544 -0.005667 0.867000
0.008107 -0.008512 0.866000
0.036637 0.008165 0.858000
0.008097 -0.022030 0.865000
-0.004807 -0.048908 0.881000
0.041229 0.009577 0.858000
0.019135 0.015351 0.865000
-0.043072 -0.030859 0.863000
0.035184 0.011682 0.857000
-0.008357 -0.015048 0.873000
0.024802 -0.009559 0.864000
-0.005152 0.009800 0.878000
-0.025361 -0.034970 0.877000
-0.004785 0.020618 0.877000
-0.006173 -0.026067 0.869000
0.009218 0.019737 0.870000
0.005663 0.035296 0.874000
0.012829 0.031267 0.872000
0.000633 -0.044607 0.882000
-0.041432 -0.022438 0.881000
0.006071 -0.039118 0.881000
-0.029136 -0.010484 0.882000
0.014330 -0.028079 0.876000
-0.043833 -0.030539 0.864000
0.010933 -0.018449 0.864000
0.014607 0.040194 0.871000
0.046960 0.008597 0.866000
-0.041893 0.001472 0.868000
0.022365 0.035329 0.866000
0.033145 0.003224 0.859000
-0.026958 -0.005402 0.882000
-0.019225 -0.026307 0.877000
0.013531 0.035533 0.871000
-0.042520 -0.021350 0.881000
0.015253 0.015744 0.867000
0.022237 -0.020124 0.875000
-0.009761 -0.031826 0.870000
-0.002617 0.027084 0.876000
0.012384 -0.002452 0.866000
-0.018545 -0.003936 0.879000
-0.018907 -0.004660 0.879000
0.002782 0.022680 0.873000
0.037344 0.007458 0.858000
-0.035307 -0.035529 0.873000
0.037363 -0.006439 0.875000
0.040875 0.009577 0.858000
-0.007691 0.007279 0.879000
0.012111 0.038804 0.872000
0.010688 0.039927 0.873000
0.020535 0.014267 0.864000
0.024860 0.019290 0.866000
-0.005495 -0.009680 0.875000
0.038582 0.003590 0.862000
-0.006888 -0.035008 0.869000
0.019801 0.002529 0.863000
-0.039754 -0.021787 0.884000
0.021271 0.037069 0.865000
0.023434 0.033547 0.866000
-0.004050 -0.011828 0.874000
0.026843 0.010319 0.861000
0.024447 -0.010626 0.864000
-0.040436 -0.021035 0.883000
0.016286 0.008231 0.865000
-0.037528 -0.014130 0.883000
-0.028442 0.001861 0.883000
0.001348 0.032815 0.875000
-0.009392 -0.038227 0.869000
-0.033548 0.004720 0.874000
-0.011232 -0.019000 0.873000
-0.016355 -0.004654 0.878000
0.003493 -0.008561 0.871000
0.017334 0.003243 0.864000
0.043398 0.009942 0.859000
0.004210 -0.005334 0.871000
-0.002950 -0.034253 0.868000
-0.017440 -0.023084 0.878000
0.011725 0.003266 0.870000
-0.011684 0.006201 0.880000
-0.036976 0.003982 0.870000
-0.004785 0.019535 0.877000
-0.023301 -0.019900 0.881000
-0.015167 -0.036924 0.872000
-0.017320 -0.038718 0.872000
0.013531 0.038043 0.871000
0.022998 0.012474 0.863000
0.009522 -0.012418 0.865000
-0.001530 -0.010377 0.873000
-0.008766 0.015582 0.878000
-0.000450 -0.034651 0.869000
0.003167 -0.040884 0.880000
0.008116 -0.026720 0.867000
-0.013073 -0.010413 0.876000
0.010026 -0.033203 0.878000
-0.011283 0.018452 0.877000
0.002052 -0.014247 0.868000
0.013890 0.039118 0.871000
-0.008025 -0.008249 0.876000
0.015218 -0.018826 0.865000
-0.027983 -0.021688 0.880000
0.020156 -0.012744 0.863000
-0.032330 -0.032192 0.880000
-0.032358 -0.039391 0.871000
-0.029828 -0.019174 0.881000
0.005968 -0.024907 0.866000
-0.031208 0.002938 0.879000
-0.014927 -0.005022 0.879000
-0.025114 -0.012285 0.881000
0.027734 -0.017302 0.878000
-0.031895 0.002934 0.878000
0.019201 0.035768 0.868000
-0.034945 -0.027546 0.882000
-0.005141 0.025642 0.876000
0.015218 -0.018114 0.865000
-0.029499 -0.015566 0.882000
-0.004379 -0.033539 0.868000
0.012785 0.023291 0.869000
-0.035543 -0.036123 0.870000
0.009588 0.025496 0.871000
0.024008 0.006421 0.861000
-0.021702 -0.031649 0.875000
0.007078 -0.002108 0.871000
0.006689 -0.027791 0.867000
-0.000092 0.036609 0.871000
-0.013841 -0.003936 0.879000
0.019090 0.001819 0.863000
-0.001166 -0.014638 0.870000
0.028969 0.017407 0.861000
-0.010597 0.006925 0.880000
0.015949 0.013231 0.866000
-0.023691 -0.014477 0.882000
0.039064 0.020853 0.857000
0.002054 -0.033935 0.869000
0.037300 0.012388 0.857000
0.030032 0.022722 0.861000
0.034559 0.019134 0.859000
-0.011578 -0.022209 0.872000
-0.025869 -0.002498 0.882000
0.021577 0.007502 0.863000
0.020725 -0.019337 0.872000
0.015664 0.034418 0.870000
0.018359 -0.006698 0.862000
0.010675 0.033062 0.872000
0.025690 0.035003 0.858000
0.003481 -0.031395 0.868000
0.012456 0.034458 0.871000
0.012341 -0.012744 0.863000
-0.009076 -0.015407 0.873000
0.013794 -0.002093 0.865000
-0.012380 0.011969 0.878000
0.029712 0.031264 0.862000
0.022590 0.003586 0.861000
-0.016755 0.001854 0.880000
-0.020377 -0.000681 0.880000
0.016939 -0.007053 0.862000
0.004584 0.029181 0.874000
0.048911 0.008269 0.869000
-0.001900 0.015944 0.878000
-0.010165 0.023425 0.874000
-0.018481 0.011941 0.876000
-0.008319 -0.040373 0.869000
0.018778 0.014995 0.865000
0.012770 0.016834 0.868000
0.025204 -0.019832 0.878000
0.010933 -0.012759 0.864000
0.019783 -0.024891 0.878000
0.000989 0.016268 0.876000
0.002412 -0.013191 0.869000
0.009599 0.041675 0.872000
-0.006236 0.016305 0.878000
-0.012983 -0.041494 0.870000
0.016022 0.024034 0.870000
0.040351 0.027931 0.847000
0.005358 -0.037753 0.883000
-0.042834 -0.024586 0.880000
-0.013715 -0.039391 0.871000
-0.041009 -0.002469 0.872000
0.003509 0.016609 0.875000
-0.000449 -0.024222 0.867000
-0.010573 0.017028 0.878000
-0.031750 -0.038807 0.874000
0.026457 0.001104 0.860000
0.013531 0.034099 0.871000
0.013778 -0.006358 0.864000
0.001691 -0.025620 0.866000
0.041209 0.003959 0.865000
-0.015668 0.002941 0.880000
-0.029828 -0.019900 0.881000
0.031559 -0.004225 0.864000
0.013531 0.026571 0.871000
0.016979 0.002888 0.864000
0.014879 0.003963 0.866000
-0.032367 -0.025339 0.881000
0.036991 0.022643 0.858000
0.009889 -0.023125 0.866000
-0.037291 0.004335 0.869000
-0.019608 -0.016941 0.878000
-0.015976 0.013038 0.877000
-0.008016 -0.047494 0.875000
0.029962 0.006406 0.859000
-0.007979 -0.044051 0.871000
0.011752 0.039522 0.872000
0.034165 0.008871 0.858000
-0.022422 -0.034170 0.875000
0.028031 -0.015460 0.876000
0.003865 0.029181 0.874000
-0.006967 0.011620 0.879000
-0.034464 -0.033602 0.879000
-0.017440 -0.020555 0.878000
0.013842 0.006831 0.868000
0.015967 0.020026 0.867000
0.003138 -0.006058 0.872000
-0.016679 -0.026998 0.876000
0.003847 -0.033258 0.870000
0.020606 0.019312 0.867000
0.004205 -0.009625 0.870000
-0.004068 0.009439 0.878000
-0.001176 0.018091 0.877000
-0.031677 -0.017381 0.882000
-0.001893 0.036417 0.875000
-0.031462 -0.038535 0.876000
0.003120 -0.016729 0.867000
0.001348 0.019851 0.875000
0.006361 -0.004259 0.871000
0.039064 0.010624 0.857000
-0.020763 0.004757 0.881000
0.027583 0.018491 0.862000
-0.035226 0.004703 0.871000
-0.027166 -0.037135 0.877000
0.006735 0.010104 0.873000
-0.012741 -0.007184 0.878000
-0.032113 -0.004686 0.884000
-0.013028 -0.026187 0.873000
-0.017440 -0.006823 0.878000
-0.000092 -0.039526 0.874000
-0.017821 -0.039029 0.879000
0.005298 0.024836 0.873000
-0.017821 -0.022025 0.879000
-0.001898 0.012677 0.877000
0.019603 -0.018935 0.870000
-0.029727 -0.037539 0.878000
-0.024639 -0.032804 0.877000
-0.017400 0.014105 0.876000
-0.037231 -0.001399 0.876000
0.018087 0.017508 0.866000
-0.021101 -0.003941 0.880000
0.037296 0.028079 0.841000
0.028523 -0.010329 0.869000
-0.006598 0.015582 0.878000
0.013142 0.022933 0.869000
-0.009862 0.004747 0.879000
-0.023917 -0.026668 0.877000
0.014248 0.032665 0.871000
-0.032729 -0.027152 0.881000
-0.025477 -0.005758 0.881000
0.027165 -0.000311 0.860000
0.014523 0.010379 0.866000
-0.022938 -0.002495 0.881000
0.034872 0.007811 0.858000
0.008532 0.039567 0.873000
-0.021101 -0.004303 0.880000
-0.039474 -0.034371 0.862000
0.013067 -0.007069 0.864000
-0.027653 -0.018812 0.881000
-0.026958 -0.004313 0.882000
0.013082 -0.002805 0.865000
0.032815 -0.006395 0.869000
0.038403 0.025115 0.858000
-0.034542 -0.031140 0.881000
0.020606 0.028590 0.867000
0.023790 -0.012432 0.866000
-0.001168 -0.014296 0.871000
0.010234 -0.021318 0.865000
0.038400 -0.004993 0.874000
-0.028281 -0.031757 0.878000
0.013842 0.042913 0.868000
0.009293 0.002931 0.877000
0.011393 0.027678 0.872000
0.003509 0.034616 0.875000
-0.000453 0.021651 0.875000
-0.032040 -0.000319 0.882000
-0.037935 -0.023606 0.884000
-0.030658 -0.002867 0.884000
0.010675 0.038804 0.872000
-0.019992 -0.004660 0.879000
0.002080 -0.040884 0.880000
-0.019246 -0.007907 0.878000
0.036327 0.025851 0.859000
0.009599 0.011169 0.872000
-0.031172 0.003657 0.878000
-0.030623 -0.012676 0.883000
-0.032040 -0.000682 0.882000
-0.005152 0.016305 0.878000
-0.021851 0.003307 0.881000
0.035619 0.025851 0.859000
0.011034 0.035215 0.872000
0.007513 0.007649 0.880000
0.026225 0.031692 0.864000
-0.007665 -0.010773 0.876000
-0.039709 -0.024669 0.883000
0.012014 -0.021318 0.865000
-0.017117 0.004752 0.880000
0.025750 0.005352 0.860000
-0.011991 -0.009691 0.876000
-0.014499 -0.021565 0.875000
0.003138 -0.007853 0.872000
0.029678 -0.003147 0.861000
0.005612 -0.017066 0.866000
0.020109 -0.004919 0.861000
0.044312 0.003266 0.870000
0.016979 0.003599 0.864000
0.026225 -0.008492 0.864000
-0.014139 0.018410 0.875000
-0.014582 -0.001043 0.880000
-0.040436 -0.020672 0.883000
-0.012281 -0.032221 0.871000
0.028681 0.030589 0.863000
-0.001893 0.031015 0.875000
0.020464 -0.006691 0.861000
0.013718 -0.033755 0.883000
-0.007296 -0.011481 0.875000
0.042879 0.002191 0.870000
0.000270 -0.046112 0.883000
-0.038181 -0.000316 0.873000
-0.034296 -0.013418 0.884000
0.031730 0.003224 0.859000
-0.025506 -0.000682 0.882000
0.016022 0.032986 0.870000
0.030445 0.034738 0.843000
0.041485 0.022238 0.856000
-0.002984 -0.045128 0.878000
0.024774 -0.009192 0.863000
-0.006244 0.010897 0.879000
0.028293 -0.005634 0.862000
0.019892 0.029304 0.867000
-0.031713 -0.002500 0.883000
0.028548 0.000396 0.859000
0.015306 0.034060 0.870000
-0.023637 -0.012271 0.880000
-0.007329 0.010173 0.879000
0.040428 0.015192 0.856000
0.010639 0.013634 0.869000
-0.034102 -0.033602 0.879000
0.012055 0.015047 0.868000
-0.025506 0.001859 0.882000
-0.006912 -0.016107 0.872000
0.022998 0.013895 0.863000
0.024119 -0.011706 0.865000
-0.016736 0.005832 0.879000
0.035266 0.025144 0.859000
-0.020716 0.006555 0.879000
-0.013028 -0.020438 0.873000
-0.011551 -0.042568 0.870000
-0.037528 -0.009405 0.883000
-0.008347 -0.019337 0.872000
-0.031713 -0.011586 0.883000
0.015893 -0.006706 0.863000
0.008172 0.033818 0.873000
0.010933 -0.016671 0.864000
-0.020763 0.002582 0.881000
0.012000 -0.012048 0.864000
-0.003338 0.021315 0.876000
-0.008328 -0.041136 0.870000
-0.021801 -0.012257 0.879000
-0.012352 -0.009691 0.876000
0.039417 0.025439 0.857000
-0.000815 0.014121 0.877000
-0.023195 0.007262 0.877000
-0.006530 -0.035724 0.869000
-0.005514 0.008355 0.878000
-0.005875 -0.048019 0.878000
-0.025143 0.000407 0.882000
-0.029399 -0.032517 0.879000
0.032829 0.023758 0.860000
-0.034542 -0.029690 0.881000
0.018778 0.016420 0.865000
0.019423 -0.000667 0.862000
-0.025869 -0.001772 0.882000
0.031767 0.020572 0.860000
0.009969 -0.030139 0.873000
-0.039474 -0.036500 0.862000
-0.004769 -0.012187 0.874000
-0.033455 -0.026789 0.881000
-0.005094 -0.029966 0.868000
0.005663 0.011554 0.874000
0.037213 0.027843 0.855000
0.024334 0.002520 0.860000
0.032432 -0.013327 0.878000
0.011034 0.028396 0.872000
-0.012394 0.009811 0.879000
-0.029399 -0.028175 0.879000
0.017314 -0.013100 0.863000
0.043903 0.003620 0.869000
0.023461 0.022167 0.867000
0.024831 -0.010638 0.865000
-0.014791 -0.037598 0.871000
0.029643 0.016325 0.860000
0.002782 -0.036607 0.873000
0.009588 0.003269 0.871000
-0.013073 -0.008970 0.876000
-0.006943 -0.006447 0.876000
0.035973 0.025498 0.859000
0.035973 0.025144 0.859000
0.025543 0.019624 0.865000
0.020701 -0.018598 0.871000
-0.017781 -0.014034 0.877000
0.035387 0.031343 0.845000
0.012770 0.010760 0.868000
-0.028806 -0.000320 0.883000
0.027608 -0.014705 0.874000
-0.003311 -0.023921 0.869000
-0.000813 0.032095 0.875000
0.009176 -0.023838 0.866000
-0.009413 -0.044051 0.871000
-0.037865 -0.000317 0.874000
-0.006173 -0.039300 0.869000
-0.003323 -0.040871 0.872000
-0.011283 -0.008620 0.877000
0.000268 0.023812 0.875000
-0.015254 -0.024502 0.877000
0.023626 -0.001727 0.860000
-0.011206 -0.030787 0.871000
0.020464 -0.004210 0.861000
0.022778 -0.024278 0.882000
0.020133 0.002171 0.862000
0.009946 0.004345 0.871000
-0.025722 -0.030999 0.877000
-0.034464 -0.033240 0.879000
0.016998 0.010723 0.865000
0.031028 0.032886 0.840000
0.012696 -0.012744 0.863000
-0.023301 -0.014098 0.881000
0.024418 0.014961 0.863000
-0.031641 -0.042018 0.881000
0.026488 0.010319 0.861000
-0.013403 -0.015065 0.874000
0.014506 0.001111 0.865000
-0.017821 0.007279 0.879000
0.031413 0.000042 0.860000
-0.028079 -0.003954 0.883000
0.006023 0.014072 0.874000
-0.000454 0.012677 0.877000
-0.038531 -0.007209 0.881000
0.008463 -0.024194 0.866000
0.014845 -0.004225 0.864000
-0.042568 -0.018107 0.882000
-0.006605 0.011259 0.879000
-0.038619 -0.016311 0.883000
-0.018142 -0.018005 0.877000
-0.005105 -0.017861 0.870000
-0.001900 0.015221 0.878000
0.042288 0.010990 0.858000
-0.013434 -0.009331 0.876000
0.017792 0.022576 0.869000
0.007795 0.017250 0.871000
-0.036843 -0.015601 0.884000
0.013422 -0.018804 0.864000
-0.029332 -0.041106 0.877000
0.014896 0.016458 0.867000
-0.020307 -0.025585 0.877000
-0.001165 -0.016767 0.869000
-0.014876 -0.025195 0.876000
-0.042883 -0.023888 0.881000
-0.008686 -0.041136 0.870000
0.016493 -0.025916 0.876000
-0.006896 -0.022516 0.870000
-0.033530 -0.014493 0.883000
0.013547 0.029832 0.872000
0.014183 0.013960 0.867000
-0.022163 -0.009363 0.879000
-0.006180 -0.020367 0.870000
0.006354 -0.007119 0.870000
0.012627 -0.034482 0.883000
-0.001519 -0.028861 0.867000
-0.007603 -0.032147 0.869000
0.004224 0.036735 0.874000
0.018025 -0.013100 0.863000
0.002779 -0.035847 0.872000
0.047177 0.005772 0.870000
0.023051 0.034932 0.865000
-0.009783 -0.020773 0.872000
-0.003338 0.023839 0.876000
0.023051 0.028168 0.865000
-0.037849 -0.027909 0.882000
0.005663 0.038174 0.874000
0.031241 -0.012201 0.875000
0.035619 0.028680 0.859000
-0.031822 -0.037814 0.876000
-0.030623 -0.009769 0.883000
-0.002977 0.020234 0.876000
-0.020692 -0.035371 0.878000
-0.034072 -0.037870 0.869000
0.013531 0.034816 0.871000
-0.036438 -0.023943 0.883000
0.008512 0.015816 0.871000
0.003505 0.018749 0.874000
-0.020716 -0.009363 0.879000
-0.020284 -0.026637 0.876000
-0.037061 0.002196 0.872000
0.003860 -0.035529 0.873000
-0.039982 -0.026789 0.881000
0.016059 0.027678 0.872000
0.001708 0.019490 0.875000
-0.015903 -0.030858 0.873000
0.002415 -0.034332 0.870000
-0.024026 0.004757 0.881000
0.033222 0.000397 0.861000
-0.001168 -0.013938 0.871000
0.034519 0.007105 0.858000
0.013516 -0.024664 0.870000
-0.031931 0.001852 0.879000
0.006361 -0.003183 0.871000
-0.007612 -0.028603 0.870000
0.022721 -0.013502 0.866000
0.026488 0.011028 0.861000
-0.012408 0.001130 0.880000
0.033812 0.004986 0.858000
0.037300 0.016620 0.857000
0.025779 0.008193 0.861000
0.024975 -0.014280 0.870000
0.023626 -0.002789 0.860000
0.005650 0.024089 0.872000
0.001348 0.019490 0.875000
0.005292 0.020141 0.872000
0.019755 -0.007045 0.861000
0.031523 -0.003509 0.863000
-0.036843 -0.014874 0.884000
0.043044 0.025641 0.852000
-0.034621 -0.018855 0.883000
0.009599 0.030191 0.872000
0.035619 0.022316 0.859000
0.017669 0.001463 0.863000
-0.005463 -0.020009 0.870000
0.027999 -0.015082 0.875000
0.030134 0.032695 0.844000
0.007078 0.020477 0.871000
0.013531 0.041986 0.871000
0.008512 0.024062 0.871000
0.045996 0.006473 0.868000
-0.037779 0.001120 0.872000
0.040824 0.000761 0.872000
-0.006888 -0.032147 0.869000
-0.004068 0.014137 0.878000
0.029609 0.006053 0.859000
0.005285 -0.003542 0.871000
-0.014432 -0.038315 0.871000
-0.017440 -0.006461 0.878000
-0.012741 0.014137 0.878000
-0.016641 -0.028735 0.874000
0.004904 -0.027791 0.867000
0.016661 0.016082 0.866000
-0.038212 -0.028272 0.882000
0.019892 0.032515 0.867000
0.023653 -0.005982 0.861000
0.018108 0.019312 0.867000
-0.017440 -0.023446 0.878000
0.010257 -0.025293 0.867000
0.038400 -0.001396 0.874000
-0.033205 -0.012327 0.884000
0.018486 0.033982 0.868000
0.026528 -0.015785 0.874000
0.006009 0.020141 0.872000
-0.033932 -0.011235 0.884000
-0.034582 -0.028998 0.882000
-0.000449 -0.024579 0.867000
-0.036479 -0.013055 0.884000
-0.020981 -0.033089 0.875000
-0.005489 -0.044922 0.874000
-0.021029 -0.026307 0.877000
0.003116 -0.022769 0.866000
0.001732 -0.047051 0.887000
0.006735 0.010463 0.873000
-0.039483 0.000759 0.870000
0.037300 0.014504 0.857000
0.007741 -0.019894 0.865000
-0.037165 -0.008679 0.883000
0.028681 0.030234 0.863000
-0.036760 -0.006128 0.882000
0.039018 0.015544 0.856000
0.007045 -0.026720 0.867000
0.004933 0.021218 0.872000
0.015236 0.008597 0.866000
0.006673 -0.017046 0.865000
-0.026232 -0.017018 0.882000
-0.000805 -0.027434 0.867000
