0.006383 -0.026217 0.874000
-0.000814 -0.018345 0.876000
-0.017380 0.034616 0.875000
-0.013192 -0.038523 0.884000
0.030884 0.032796 0.865000
0.028753 -0.000317 0.876000
0.024860 0.006815 0.866000
0.004229 -0.023005 0.875000
0.020606 -0.004953 0.867000
-0.006590 0.011955 0.877000
0.012356 0.031692 0.864000
-0.018142 0.018452 0.877000
0.021108 -0.029061 0.873000
-0.022756 0.024145 0.874000
0.015341 -0.030463 0.872000
0.001710 -0.024834 0.876000
0.008541 -0.003914 0.874000
0.032321 0.017330 0.875000
0.016546 0.043934 0.860000
-0.014565 0.008364 0.879000
-0.014042 -0.049315 0.869000
-0.002953 0.039386 0.869000
-0.009180 -0.026123 0.883000
0.024010 -0.019742 0.874000
0.035041 0.020326 0.880000
-0.005170 -0.038392 0.881000
0.010352 -0.039572 0.875000
-0.014664 -0.043666 0.885000
0.032358 0.016268 0.876000
-0.003357 -0.047820 0.881000
-0.014532 0.015204 0.877000
-0.015167 -0.048408 0.872000
0.015201 0.024935 0.864000
0.028619 -0.016674 0.883000
0.000625 0.033024 0.871000
0.028326 0.028103 0.863000
0.021517 -0.033449 0.875000
0.017374 0.006102 0.866000
-0.014842 -0.048160 0.874000
-0.002967 0.030585 0.873000
0.023504 -0.039162 0.882000
0.007377 0.044138 0.864000
-0.001887 0.033421 0.872000
0.010222 0.038804 0.864000
-0.000092 0.029832 0.872000
-0.006201 0.021602 0.873000
-0.009862 0.010535 0.879000
0.023024 0.010711 0.864000
-0.009532 -0.025004 0.882000
0.015700 -0.030463 0.872000
0.010996 0.008269 0.869000
0.014623 -0.034052 0.872000
0.002696 0.044959 0.846000
0.007377 0.043427 0.864000
-0.002608 0.018009 0.873000
-0.020015 -0.002492 0.880000
-0.010247 -0.011922 0.881000
0.006850 0.044800 0.843000
0.021527 0.026266 0.861000
-0.002991 -0.037987 0.880000
0.009632 -0.036330 0.875000
-0.025033 -0.039562 0.891000
-0.008357 0.023758 0.873000
-0.019878 0.032418 0.874000
-0.005781 0.044138 0.864000
-0.029659 -0.023032 0.876000
-0.001176 -0.015839 0.877000
0.011685 0.012532 0.867000
0.007394 0.034616 0.866000
-0.023407 -0.021447 0.885000
0.009855 0.043021 0.863000
0.019671 -0.032654 0.873000
-0.005888 -0.010098 0.880000
0.032815 0.034736 0.869000
-0.010959 0.001854 0.880000
-0.002253 -0.051456 0.875000
0.018087 0.001112 0.866000
0.002426 0.013713 0.874000
0.000628 -0.019787 0.876000
-0.031318 -0.014313 0.872000
0.011752 -0.023644 0.872000
0.000994 -0.044144 0.880000
0.013778 0.024935 0.864000
0.003843 0.024006 0.869000
-0.019049 -0.048599 0.869000
-0.026291 -0.027972 0.884000
0.026468 -0.003546 0.872000
0.017710 0.008943 0.865000
0.020987 -0.010317 0.868000
0.022752 -0.042018 0.881000
-0.005482 0.019446 0.873000
-0.022087 0.007254 0.876000
0.010958 0.020716 0.866000
-0.008726 0.019468 0.874000
0.025809 0.023103 0.862000
0.005304 -0.021180 0.874000
-0.002617 0.013744 0.876000
0.021780 0.046249 0.857000
0.021011 -0.012118 0.869000
-0.005514 -0.020916 0.878000
0.030904 -0.013813 0.886000
-0.002998 -0.029361 0.882000
-0.015306 0.000768 0.880000
0.023790 0.006102 0.866000
-0.022756 0.021267 0.874000
0.000985 0.031626 0.872000
-0.007665 0.016989 0.876000
-0.000818 -0.031467 0.880000
0.020296 -0.014264 0.869000
0.005644 0.014741 0.871000
-0.005842 0.033459 0.873000
0.030367 -0.005396 0.881000
-0.007638 0.022680 0.873000
-0.022964 -0.038799 0.882000
0.005676 0.001125 0.876000
-0.011710 -0.007580 0.882000
-0.005875 -0.018025 0.878000
0.034239 0.021003 0.878000
-0.019334 -0.009758 0.882000
0.016623 0.022446 0.864000
-0.023222 0.001127 0.878000
0.030486 0.012633 0.874000
0.020297 0.046439 0.854000
-0.010959 0.002579 0.880000
-0.016337 0.016647 0.877000
0.010602 0.028557 0.866000
0.013516 -0.017145 0.870000
-0.025535 -0.033392 0.883000
0.022261 0.022749 0.862000
-0.013873 -0.001770 0.881000
-0.030671 -0.026576 0.874000
-0.005895 -0.033316 0.881000
0.004579 0.011182 0.873000
-0.017400 0.027084 0.876000
0.004186 0.041032 0.866000
-0.011617 0.021291 0.875000
0.028522 -0.010822 0.880000
0.005316 -0.002120 0.876000
-0.019586 0.019535 0.877000
0.010971 0.016814 0.867000
-0.028806 -0.029757 0.883000
0.020319 -0.019651 0.870000
0.025543 0.013215 0.865000
-0.012998 0.042703 0.871000
-0.000454 -0.024502 0.877000
-0.015393 -0.041117 0.885000
0.016456 -0.041325 0.874000
-0.008826 -0.026880 0.884000
-0.005868 0.013760 0.877000
0.014590 -0.018935 0.870000
0.008575 0.044054 0.842000
0.020794 0.038978 0.860000
0.004563 0.016514 0.870000
-0.009096 0.018770 0.875000
-0.033318 -0.021392 0.868000
-0.020598 0.029181 0.874000
0.028947 0.011873 0.871000
0.001698 0.020453 0.870000
0.020866 0.016382 0.863000
-0.003669 0.037598 0.869000
-0.010200 0.015564 0.877000
0.019984 -0.021825 0.871000
0.009544 0.026806 0.867000
0.005774 -0.041762 0.891000
0.011367 -0.008193 0.870000
-0.018328 -0.041528 0.886000
0.005316 -0.007889 0.876000
0.008172 0.001480 0.873000
-0.016012 0.004747 0.879000
0.018004 0.028070 0.862000
0.020487 0.027006 0.862000
-0.009190 -0.027972 0.884000
0.026195 0.022775 0.863000
-0.006545 0.036250 0.871000
-0.019675 -0.044557 0.881000
0.014150 0.019980 0.865000
0.015253 0.001827 0.867000
0.015183 0.028458 0.863000
-0.009169 -0.032265 0.882000
0.028415 -0.028464 0.888000
0.019090 0.019223 0.863000
0.012711 0.029202 0.864000
-0.013556 -0.030155 0.884000
0.030416 0.015476 0.872000
0.007759 0.025022 0.867000
0.011685 0.014316 0.867000
0.027551 0.030873 0.861000
-0.010282 -0.027972 0.884000
0.004234 -0.029882 0.876000
-0.009169 -0.039888 0.882000
0.029080 0.001844 0.875000
0.021394 -0.018219 0.870000
-0.011335 -0.004308 0.881000
0.023291 -0.021900 0.874000
0.027042 -0.015513 0.879000
-0.006201 0.022680 0.873000
0.029070 0.027780 0.864000
-0.002596 0.036525 0.869000
0.011631 0.043021 0.863000
0.017314 0.023485 0.863000
-0.008443 -0.032628 0.882000
-0.012046 0.010547 0.880000
-0.034072 -0.026067 0.869000
0.022468 -0.013206 0.870000
-0.009159 -0.023888 0.881000
0.029357 0.033747 0.862000
0.010305 0.001835 0.871000
-0.021053 0.000043 0.878000
0.015985 -0.004601 0.868000
0.012028 0.015369 0.866000
-0.010154 0.030225 0.873000
-0.029985 -0.019764 0.875000
0.010222 0.034892 0.864000
0.021627 0.006807 0.865000
0.007102 -0.000317 0.874000
-0.019268 0.004023 0.879000
0.017495 -0.032617 0.872000
0.022642 0.013895 0.863000
0.010340 -0.034490 0.874000
0.022642 0.014250 0.863000
0.030311 0.024006 0.869000
-0.032641 -0.016410 0.869000
0.015930 0.018200 0.865000
-0.006180 0.039789 0.870000
-0.012394 -0.047350 0.879000
-0.014252 -0.019922 0.882000
-0.004026 0.041532 0.869000
0.001347 0.013713 0.874000
-0.012101 -0.029427 0.884000
0.036407 0.032205 0.878000
-0.015012 -0.027244 0.884000
-0.010501 0.037369 0.872000
0.007759 0.025379 0.867000
-0.031999 -0.020032 0.871000
0.018254 -0.040246 0.874000
0.010971 0.014673 0.867000
-0.025957 -0.034196 0.885000
-0.010235 0.004752 0.880000
-0.025171 -0.013767 0.883000
0.024390 0.022039 0.862000
0.013516 -0.017503 0.870000
-0.010972 -0.022800 0.881000
0.014523 0.010379 0.866000
-0.023301 -0.009384 0.881000
-0.025810 -0.009011 0.880000
0.008646 0.046167 0.849000
0.011009 0.006846 0.870000
-0.022396 0.019108 0.874000
0.001356 -0.030018 0.880000
-0.023691 -0.038436 0.882000
0.005637 0.028331 0.870000
-0.009532 -0.031902 0.882000
-0.019697 -0.044244 0.882000
-0.006598 -0.016580 0.878000
0.017792 -0.013906 0.869000
0.027971 0.025261 0.863000
-0.024752 -0.010835 0.881000
-0.010947 0.009450 0.879000
-0.014155 0.021315 0.876000
-0.021005 0.011581 0.876000
0.016399 -0.028994 0.871000
0.026488 0.029810 0.861000
0.031526 -0.003227 0.883000
0.006750 -0.010761 0.875000
0.010305 -0.000674 0.871000
0.013874 -0.012490 0.870000
-0.003681 0.027678 0.872000
0.003509 -0.020124 0.875000
0.014101 0.039069 0.862000
-0.005520 -0.023472 0.879000
0.024035 0.021330 0.862000
-0.022371 0.024836 0.873000
0.022494 -0.017164 0.871000
-0.013961 -0.050809 0.864000
-0.007682 0.012330 0.878000
-0.017781 0.019535 0.877000
-0.030276 -0.015407 0.873000
-0.002960 0.024779 0.871000
-0.011684 -0.016980 0.880000
-0.020786 -0.010121 0.882000
0.005676 -0.008970 0.876000
0.008116 0.024665 0.867000
0.004916 0.020072 0.869000
-0.000818 -0.029327 0.881000
0.009144 0.044087 0.863000
0.020062 0.043529 0.859000
-0.015358 -0.025033 0.883000
-0.015668 0.003303 0.880000
-0.013403 -0.048519 0.874000
-0.017000 0.038893 0.874000
0.018359 0.026651 0.862000
-0.013192 -0.039251 0.884000
0.015324 -0.028277 0.871000
0.008891 -0.001035 0.873000
-0.001870 0.042360 0.864000
-0.022371 0.024476 0.873000
0.006346 0.017568 0.869000
-0.008696 0.038043 0.871000
-0.004031 0.037641 0.870000
0.011685 0.013246 0.867000
0.005304 -0.019742 0.874000
-0.012800 -0.008669 0.882000
-0.018545 0.007641 0.879000
-0.009738 0.042913 0.868000
-0.018460 0.032095 0.875000
-0.027983 -0.023499 0.880000
0.008532 -0.023671 0.873000
-0.011471 -0.052587 0.864000
-0.011322 0.005114 0.880000
0.005670 -0.027687 0.875000
0.003834 0.036441 0.867000
0.018066 0.007875 0.865000
-0.007717 -0.042066 0.882000
0.002434 -0.010785 0.877000
-0.005170 -0.043831 0.881000
-0.008071 -0.010472 0.881000
0.019778 0.028425 0.862000
0.012356 0.030269 0.864000
0.020440 0.041810 0.860000
-0.028603 -0.031022 0.888000
0.016661 0.004320 0.866000
-0.020857 -0.025454 0.885000
0.009389 0.046736 0.853000
0.022971 0.019556 0.862000
-0.009906 -0.030848 0.883000
-0.020516 -0.034234 0.886000
-0.002266 -0.039073 0.880000
-0.032999 -0.016052 0.869000
-0.026958 -0.030813 0.882000
-0.013747 0.038130 0.873000
0.007102 -0.003194 0.874000
-0.032999 -0.022848 0.869000
0.018692 0.034771 0.861000
0.005612 0.038537 0.866000
-0.017459 0.004023 0.879000
0.012916 0.046790 0.854000
0.026642 0.011092 0.866000
0.016305 0.003963 0.866000
0.006743 -0.012907 0.874000
-0.004077 -0.039798 0.880000
0.013067 0.027780 0.864000
0.023488 -0.005316 0.868000
-0.001178 -0.036135 0.879000
-0.019586 0.016647 0.877000
0.028748 -0.026607 0.887000
0.022695 0.007519 0.865000
0.029179 -0.028130 0.889000
0.000994 -0.046317 0.880000
-0.007647 0.031339 0.874000
0.027892 -0.019945 0.883000
-0.008016 0.018050 0.875000
0.007045 0.023594 0.867000
0.007741 0.036001 0.865000
0.025750 0.031545 0.860000
-0.011710 -0.003950 0.882000
-0.011335 0.000044 0.881000
0.030730 -0.002495 0.881000
0.014896 0.006466 0.867000
0.018757 0.014623 0.864000
0.011367 -0.001031 0.870000
-0.001169 0.018347 0.872000
0.018380 0.020644 0.863000
0.018844 -0.013175 0.868000
-0.010959 -0.016980 0.880000
0.013188 -0.024362 0.872000
-0.016698 0.021340 0.877000
0.009969 -0.027983 0.873000
-0.002994 -0.031140 0.881000
0.004563 0.028331 0.870000
0.000624 0.033344 0.870000
-0.018204 0.002941 0.880000
0.002075 -0.027782 0.878000
0.015736 -0.042404 0.874000
-0.029625 -0.016523 0.875000
-0.013556 -0.041070 0.884000
-0.009446 0.020907 0.874000
0.022931 -0.024778 0.874000
-0.011617 0.018410 0.875000
0.012028 0.017151 0.866000
0.006354 0.030479 0.870000
-0.013418 0.028134 0.875000
-0.022601 -0.010484 0.882000
-0.028249 -0.013673 0.877000
-0.009065 0.035933 0.872000
0.004595 -0.007889 0.876000
0.018486 -0.007817 0.868000
-0.011360 -0.024669 0.883000
-0.006258 -0.036942 0.881000
-0.022396 0.020188 0.874000
0.031163 -0.005408 0.883000
0.032580 0.004763 0.882000
-0.022289 -0.038159 0.884000
-0.000093 -0.049159 0.879000
-0.012422 -0.022075 0.881000
0.014150 0.018200 0.865000
0.018996 -0.041012 0.875000
0.008492 0.028656 0.869000
-0.002253 0.015529 0.875000
-0.010910 0.016628 0.876000
0.003843 0.019357 0.869000
-0.006896 0.041938 0.870000
-0.026232 -0.015929 0.882000
0.008125 0.031481 0.868000
0.019558 -0.010675 0.868000
-0.005895 -0.047820 0.881000
0.017057 -0.010317 0.868000
0.017710 0.009655 0.865000
0.004195 0.033267 0.868000
0.000630 -0.011520 0.878000
-0.017261 0.041890 0.869000
-0.013510 -0.010472 0.881000
-0.012019 0.014137 0.878000
0.029279 -0.008659 0.881000
0.000631 -0.029656 0.880000
-0.021652 0.025913 0.873000
-0.015323 -0.015186 0.881000
-0.022756 0.023425 0.874000
0.016380 -0.022158 0.870000
0.031169 0.016931 0.873000
0.010068 0.043824 0.851000
0.017962 0.042518 0.860000
-0.019653 0.000043 0.880000
-0.020446 -0.013403 0.883000
0.019179 -0.002455 0.867000
0.026874 0.027006 0.862000
-0.006613 -0.048490 0.880000
-0.008716 0.031662 0.873000
0.029885 0.024665 0.867000
0.004234 -0.027719 0.876000
-0.006983 -0.035129 0.881000
0.027871 0.005062 0.871000
-0.006620 -0.011197 0.881000
0.028720 0.001484 0.875000
-0.000449 0.039341 0.868000
0.003134 0.016175 0.871000
-0.018587 -0.005758 0.881000
0.023299 0.026620 0.861000
0.009961 0.044400 0.842000
-0.016616 -0.053557 0.892000
0.017895 -0.041685 0.874000
-0.001521 0.041484 0.868000
0.009566 0.011488 0.869000
0.002776 0.029439 0.871000
-0.007638 0.029147 0.873000
0.025362 -0.005334 0.871000
0.017354 0.013927 0.865000
0.004234 -0.032766 0.876000
0.015875 0.038004 0.862000
-0.018842 0.024560 0.876000
-0.003323 0.028755 0.872000
-0.017781 0.017730 0.877000
-0.001904 -0.046679 0.880000
0.012741 0.015726 0.866000
0.001714 -0.041514 0.878000
-0.020692 0.002934 0.878000
-0.005888 -0.048490 0.880000
0.024119 0.008943 0.865000
0.034032 0.011297 0.882000
-0.000092 0.019043 0.871000
-0.017882 -0.045333 0.882000
0.020487 0.021330 0.862000
0.020440 0.040748 0.860000
-0.016448 -0.021035 0.883000
-0.011950 0.034178 0.873000
-0.014893 0.017369 0.877000
0.008444 0.041293 0.864000
-0.007647 0.019468 0.874000
-0.009446 0.019828 0.874000
0.018422 0.006807 0.865000
-0.011009 -0.025425 0.884000
-0.013148 -0.011560 0.881000
-0.021561 -0.020695 0.884000
0.002057 0.032986 0.870000
-0.026595 -0.021737 0.882000
0.013142 -0.003176 0.869000
0.021983 0.005027 0.865000
-0.010525 0.023425 0.874000
-0.021975 -0.029858 0.886000
-0.019400 -0.041845 0.885000
-0.028313 -0.025281 0.879000
-0.011591 0.035615 0.873000
-0.025564 -0.017784 0.884000
0.014472 0.033786 0.863000
-0.009065 0.034497 0.872000
-0.026565 -0.014098 0.881000
0.003453 0.043276 0.861000
-0.017740 0.032815 0.875000
0.006376 0.009385 0.873000
-0.027290 -0.019900 0.881000
0.005631 0.032233 0.869000
0.011001 0.044054 0.842000
-0.020128 -0.026547 0.885000
0.001353 -0.032841 0.878000
0.014297 -0.042044 0.874000
-0.012465 -0.043253 0.884000
0.005663 -0.020821 0.874000
0.012125 -0.031217 0.873000
0.014862 0.018200 0.865000
-0.009895 -0.033717 0.882000
-0.013731 0.042034 0.872000
0.022365 0.000043 0.866000
-0.004419 0.015186 0.876000
0.030137 0.031692 0.864000
0.011671 0.022141 0.866000
-0.008716 0.030944 0.873000
0.021320 -0.002455 0.867000
0.008541 -0.029814 0.874000
-0.004802 -0.010822 0.880000
0.020939 -0.000314 0.866000
0.021517 -0.034170 0.875000
0.021517 -0.032009 0.875000
0.004205 0.017231 0.870000
-0.005533 -0.040205 0.881000
-0.006983 -0.038030 0.881000
-0.012698 0.020931 0.875000
-0.020621 0.022372 0.875000
0.026498 -0.026911 0.885000
0.022391 -0.003526 0.867000
0.021856 0.032607 0.860000
-0.027321 -0.030450 0.882000
0.018865 -0.017483 0.869000
-0.002953 0.040101 0.869000
0.006044 0.004736 0.877000
-0.015490 -0.049013 0.870000
-0.014155 0.022758 0.876000
-0.028610 -0.019087 0.877000
0.011671 0.018221 0.866000
-0.019764 -0.031646 0.885000
-0.022808 0.036098 0.876000
-0.014978 -0.021374 0.882000
-0.020910 0.033062 0.872000
0.013810 0.016082 0.866000
0.021602 0.012845 0.864000
0.009610 -0.027624 0.873000
0.033325 0.028069 0.873000
-0.014842 0.037095 0.874000
-0.014466 0.040286 0.873000
-0.018481 0.026724 0.876000
-0.016641 0.037095 0.874000
0.006023 -0.013986 0.874000
0.023264 -0.020797 0.873000
0.026498 -0.005347 0.873000
-0.025535 -0.014857 0.883000
0.023424 -0.033602 0.879000
-0.014219 0.005476 0.880000
-0.000093 -0.034648 0.878000
-0.015219 0.031375 0.875000
-0.018481 0.025642 0.876000
-0.006635 -0.027577 0.883000
0.015288 -0.014621 0.869000
0.008200 -0.039977 0.876000
-0.020354 0.001491 0.879000
-0.000453 0.014449 0.875000
0.006383 -0.023339 0.874000
-0.017214 -0.036381 0.885000
0.000626 0.031985 0.872000
0.013874 -0.011774 0.870000
0.026139 -0.006065 0.873000
0.011289 0.037737 0.864000
0.032137 0.027615 0.870000
-0.021586 -0.021083 0.885000
0.013037 0.041552 0.862000
-0.000817 -0.037582 0.879000
-0.006598 -0.016218 0.878000
0.031057 0.000406 0.880000
0.006016 0.011182 0.873000
-0.006912 -0.050203 0.872000
-0.001537 -0.017283 0.877000
-0.025898 -0.016311 0.883000
0.015218 0.013927 0.865000
0.019400 0.034417 0.861000
-0.021561 -0.017421 0.884000
0.027653 -0.031352 0.887000
-0.009055 -0.050145 0.871000
-0.021149 -0.010121 0.882000
0.020770 0.043175 0.859000
0.009599 -0.019337 0.872000
0.023461 -0.001741 0.867000
0.016959 0.030234 0.863000
0.016399 -0.023976 0.871000
0.020053 -0.036649 0.874000
-0.010223 0.008364 0.879000
-0.001906 -0.031140 0.881000
0.000979 0.040009 0.867000
-0.021950 -0.023997 0.885000
0.026611 0.016420 0.865000
0.005316 -0.032766 0.876000
0.021427 0.044486 0.857000
0.021577 0.014961 0.863000
0.014965 -0.024334 0.871000
-0.001533 0.013728 0.875000
-0.033318 -0.017820 0.868000
-0.029004 -0.027059 0.878000
0.006743 -0.002475 0.874000
0.001342 0.032307 0.871000
0.032253 -0.000683 0.883000
0.028424 0.019290 0.866000
-0.003698 0.013744 0.876000
0.023299 0.028392 0.861000
-0.004769 0.031339 0.874000
0.004200 0.021145 0.869000
0.027671 -0.007168 0.876000
0.009533 0.031765 0.866000
0.013906 -0.029028 0.872000
-0.021173 -0.012676 0.883000
-0.025927 -0.020695 0.884000
0.008200 -0.038896 0.876000
0.025632 0.001472 0.868000
0.015341 -0.033335 0.872000
0.032071 0.010162 0.878000
0.024257 -0.038843 0.883000
0.010614 0.013603 0.867000
-0.008434 -0.047820 0.881000
-0.001902 -0.008639 0.879000
-0.017420 0.022423 0.877000
0.008891 -0.003909 0.873000
-0.004445 -0.044194 0.881000
-0.016850 -0.035653 0.885000
0.017374 0.006815 0.866000
-0.031318 -0.022568 0.872000
-0.004399 0.027678 0.872000
0.021652 0.003251 0.866000
-0.018650 -0.023606 0.884000
-0.016679 0.024921 0.876000
-0.013388 0.039927 0.873000
0.019157 0.003251 0.866000
0.009588 0.009722 0.871000
-0.012436 -0.007580 0.882000
-0.013148 -0.015186 0.881000
-0.011244 0.023785 0.874000
-0.014598 -0.007934 0.881000
0.008453 0.037069 0.865000
-0.010465 0.042963 0.869000
0.017455 -0.023948 0.870000
0.011712 0.000401 0.869000
0.004469 0.046681 0.852000
0.027310 -0.008610 0.876000
-0.016812 -0.045385 0.883000
-0.021627 0.033421 0.872000
0.007102 -0.025857 0.874000
0.002071 -0.016181 0.876000
0.021777 -0.018957 0.871000
-0.014598 -0.006121 0.881000
-0.022037 0.015511 0.874000
-0.018245 -0.009032 0.882000
-0.009086 0.019828 0.874000
-0.004082 -0.026789 0.881000
0.009197 0.027194 0.868000
0.003509 -0.021925 0.875000
0.000987 0.011914 0.874000
-0.011978 0.019490 0.875000
-0.008357 0.029866 0.873000
0.017792 -0.016052 0.869000
-0.021707 -0.045378 0.890000
-0.018864 0.015925 0.877000
0.008891 -0.025468 0.873000
0.020915 0.007519 0.865000
-0.006590 0.015564 0.877000
0.032144 0.005476 0.880000
-0.021293 0.024117 0.873000
-0.022448 0.007975 0.876000
0.028159 -0.011909 0.880000
-0.010154 0.028429 0.873000
-0.009884 -0.005033 0.881000
0.010675 -0.019337 0.872000
-0.012060 -0.047095 0.881000
-0.016067 -0.017381 0.882000
0.019824 0.013556 0.864000
0.012083 -0.011774 0.870000
-0.014978 -0.046059 0.882000
0.007462 -0.011828 0.874000
0.006972 0.047363 0.858000
-0.002253 0.013728 0.875000
0.016078 -0.035529 0.873000
-0.012683 0.029900 0.874000
-0.012669 0.034537 0.873000
0.017057 -0.010675 0.868000
-0.004087 -0.028272 0.882000
0.015574 0.014639 0.865000
-0.020857 -0.036381 0.885000
-0.028610 -0.018726 0.877000
0.001336 0.037868 0.867000
0.019201 -0.012104 0.868000
-0.021221 -0.036017 0.885000
0.026680 -0.018407 0.879000
-0.014515 0.020955 0.876000
0.021517 -0.032729 0.875000
-0.021342 0.012648 0.875000
0.023845 -0.003887 0.868000
0.029013 0.006511 0.873000
0.016211 0.043276 0.861000
-0.005426 0.043782 0.864000
0.030229 0.004375 0.877000
-0.016660 0.033176 0.875000
0.011354 0.007912 0.869000
0.007111 -0.007159 0.875000
-0.019356 -0.015220 0.883000
-0.007691 -0.018769 0.879000
0.010316 -0.017184 0.872000
0.008830 0.024665 0.867000
0.021702 -0.009960 0.868000
0.011739 -0.012863 0.871000
0.014248 -0.020032 0.871000
-0.007337 -0.024223 0.880000
0.003513 -0.008970 0.876000
0.031565 0.017670 0.874000
0.004595 -0.030964 0.876000
0.018150 -0.017483 0.869000
-0.001176 -0.021614 0.877000
0.020086 0.037916 0.860000
0.023264 -0.021156 0.873000
0.019824 0.009644 0.864000
-0.015323 -0.008296 0.881000
-0.013810 0.015204 0.877000
-0.005526 -0.012271 0.880000
-0.010984 -0.009032 0.882000
-0.018885 0.013053 0.878000
-0.016113 -0.050512 0.865000
0.002429 -0.017243 0.875000
0.018231 0.044434 0.856000
-0.016486 -0.037474 0.885000
0.021477 0.041761 0.859000
-0.009906 -0.030484 0.883000
0.006361 0.014024 0.871000
0.000989 -0.019787 0.876000
0.005676 -0.037814 0.876000
-0.010959 0.006563 0.880000
0.032107 0.009088 0.879000
0.022236 0.024494 0.861000
0.001337 0.035411 0.868000
-0.016660 0.031735 0.875000
-0.006251 -0.048128 0.880000
-0.012183 -0.051876 0.864000
-0.001904 -0.046317 0.880000
0.006743 -0.000676 0.874000
-0.020423 -0.043518 0.882000
0.024745 0.021684 0.862000
-0.002994 -0.030053 0.881000
0.031348 0.007271 0.878000
0.018213 -0.030104 0.872000
0.011406 -0.026187 0.873000
0.019801 0.016382 0.863000
0.007102 -0.024418 0.874000
-0.009159 -0.047820 0.881000
0.021877 -0.030928 0.875000
0.008532 -0.001753 0.873000
0.007111 -0.011121 0.875000
-0.016793 -0.015566 0.882000
-0.021751 -0.004649 0.877000
0.020440 0.039332 0.860000
-0.024054 -0.036984 0.882000
-0.017579 -0.035289 0.885000
-0.019014 -0.022514 0.884000
0.015000 -0.035529 0.873000
0.011380 -0.014296 0.871000
-0.021005 0.007975 0.876000
0.002429 -0.017603 0.875000
-0.023222 -0.001763 0.878000
0.013203 -0.038044 0.873000
-0.016660 0.035696 0.875000
0.012499 -0.040605 0.874000
0.013407 0.035207 0.863000
0.008541 -0.027296 0.874000
-0.005875 -0.019471 0.878000
-0.009435 0.032022 0.873000
-0.020377 -0.005027 0.880000
0.024203 -0.033679 0.881000
0.023272 0.031899 0.860000
0.026967 0.017488 0.865000
-0.019312 -0.045645 0.881000
-0.028079 -0.030848 0.883000
-0.018648 -0.049558 0.867000
0.023900 -0.008909 0.870000
0.017374 0.006459 0.866000
-0.004450 -0.030087 0.882000
-0.002960 0.021911 0.871000
-0.011657 0.014137 0.878000
-0.014859 0.027053 0.875000
0.002409 0.033982 0.868000
-0.022396 0.036735 0.874000
-0.009500 -0.018046 0.879000
-0.026232 -0.015203 0.882000
0.006023 0.003281 0.874000
-0.016121 -0.040752 0.885000
-0.000809 0.021552 0.871000
0.034356 0.014910 0.881000
-0.004050 0.030979 0.874000
0.013453 0.013944 0.866000
0.023461 -0.001028 0.867000
0.006390 -0.012561 0.875000
-0.003353 -0.033640 0.880000
-0.009511 -0.002130 0.880000
-0.014482 0.035656 0.874000
-0.016526 0.042199 0.868000
0.015520 0.039424 0.862000
-0.023328 -0.038073 0.882000
-0.000093 -0.009352 0.878000
0.030951 0.007984 0.877000
0.020030 -0.031217 0.873000
0.003847 0.032270 0.870000
-0.014284 -0.037068 0.884000
0.012356 0.035603 0.864000
0.000992 -0.042647 0.879000
0.027892 -0.021399 0.883000
-0.009521 -0.007209 0.881000
-0.014842 0.037814 0.874000
-0.010119 0.042654 0.870000
-0.000816 -0.010075 0.878000
-0.017579 -0.032375 0.885000
-0.001178 -0.033964 0.879000
0.013906 -0.030822 0.872000
-0.014499 0.024172 0.875000
-0.030449 -0.028143 0.878000
-0.009521 -0.023163 0.881000
-0.013192 -0.026880 0.884000
-0.001902 -0.038305 0.879000
-0.002602 0.022986 0.871000
0.012014 0.026744 0.865000
-0.015323 -0.009384 0.881000
-0.007577 -0.052709 0.866000
0.026457 0.034023 0.860000
0.022161 -0.020773 0.872000
0.006750 -0.031649 0.875000
0.024649 -0.031610 0.884000
-0.029298 -0.017623 0.876000
0.014896 0.001470 0.867000
-0.008290 -0.051640 0.866000
-0.008453 -0.044658 0.883000
0.024447 0.012133 0.864000
-0.021677 0.014072 0.874000
-0.011232 0.035256 0.873000
0.009165 0.034220 0.865000
0.020891 0.008577 0.864000
0.013826 0.007893 0.867000
0.020796 -0.035970 0.875000
0.003493 0.016533 0.871000
0.011685 0.014673 0.867000
-0.022808 0.006533 0.876000
-0.019014 -0.025425 0.884000
-0.023407 -0.019262 0.885000
-0.008424 0.006925 0.880000
0.018593 -0.034451 0.873000
-0.010633 -0.038116 0.883000
-0.016374 0.004023 0.879000
-0.009521 -0.010109 0.881000
-0.023744 -0.015965 0.884000
-0.014961 -0.003945 0.881000
-0.013889 -0.021374 0.882000
0.019068 0.029490 0.862000
0.018087 0.000043 0.866000
0.020987 -0.007817 0.868000
-0.009873 0.003665 0.880000
0.011986 0.037693 0.863000
0.019732 0.042518 0.860000
-0.005835 0.026602 0.872000
-0.007708 -0.011560 0.881000
0.024398 -0.020845 0.875000
0.025089 -0.013986 0.874000
0.015949 0.005389 0.866000
0.012829 -0.026157 0.872000
0.023681 0.021330 0.862000
0.007804 0.010451 0.872000
0.011367 0.001117 0.870000
0.019915 -0.011032 0.868000
0.024038 -0.020845 0.875000
0.010305 -0.008202 0.871000
-0.019787 0.040864 0.870000
0.013562 -0.035169 0.873000
0.017314 0.024551 0.863000
0.012696 0.036983 0.863000
0.018066 0.009299 0.865000
-0.015704 -0.017381 0.882000
0.021677 -0.005667 0.867000
-0.004758 0.020859 0.872000
-0.023583 -0.006461 0.878000
0.023051 0.008231 0.865000
0.030172 0.030660 0.865000
0.016380 -0.023232 0.870000
0.013778 0.025291 0.864000
0.009240 -0.019696 0.872000
-0.008806 -0.037347 0.882000
-0.022422 0.009047 0.875000
0.023264 -0.020078 0.873000
-0.018713 -0.048297 0.870000
0.034364 0.035933 0.872000
-0.028313 -0.023111 0.879000
0.025176 -0.020531 0.877000
-0.033714 -0.016410 0.869000
0.006390 -0.012201 0.875000
-0.019268 0.006555 0.879000
-0.011724 -0.036299 0.883000
-0.008646 -0.053065 0.866000
0.018614 -0.037728 0.874000
0.017038 -0.001028 0.867000
-0.018266 -0.020672 0.883000
-0.018142 0.017730 0.877000
0.021320 -0.003169 0.867000
0.033762 0.025253 0.875000
-0.014515 0.022758 0.876000
0.007741 0.041341 0.865000
0.017038 -0.004596 0.867000
0.012711 0.028136 0.864000
-0.009076 0.023758 0.873000
-0.000455 -0.036496 0.879000
0.017731 0.005389 0.866000
-0.012032 0.013068 0.879000
0.013438 0.024252 0.865000
-0.008319 0.042605 0.869000
-0.010235 -0.016255 0.880000
0.009621 -0.030533 0.874000
-0.010235 -0.047766 0.880000
-0.015376 -0.035976 0.884000
-0.008319 -0.050745 0.869000
0.018233 -0.033732 0.873000
0.003127 0.025079 0.869000
-0.015885 -0.048408 0.872000
0.014811 0.040133 0.862000
0.017854 -0.030822 0.872000
-0.020284 0.015547 0.876000
0.011022 -0.012146 0.871000
-0.004807 -0.032228 0.881000
0.006743 -0.023699 0.874000
0.011712 0.001116 0.869000
-0.013841 0.009811 0.879000
0.003120 0.038939 0.867000
-0.011937 0.040599 0.872000
0.013142 -0.003534 0.869000
-0.006560 0.029147 0.873000
0.006390 -0.010041 0.875000
-0.017801 0.015221 0.878000
0.028716 -0.024024 0.886000
-0.007708 -0.009022 0.881000
0.029406 0.005799 0.874000
-0.004068 -0.023084 0.878000
-0.013388 0.039208 0.873000
0.010663 -0.008919 0.871000
0.004921 0.030838 0.870000
0.008541 -0.025497 0.874000
0.022389 -0.042744 0.881000
-0.004430 -0.016580 0.878000
0.019334 -0.037008 0.874000
-0.004445 -0.044919 0.881000
-0.017700 -0.047745 0.873000
0.010305 -0.012863 0.871000
-0.020981 0.014809 0.875000
0.007054 0.017191 0.868000
-0.001526 0.022986 0.871000
-0.002596 0.036167 0.869000
-0.009128 0.015221 0.878000
-0.002994 -0.045645 0.881000
0.007111 -0.032729 0.875000
0.008444 0.043071 0.864000
-0.000446 0.042262 0.862000
0.027671 -0.005365 0.876000
-0.024864 -0.029461 0.885000
0.018087 0.003963 0.866000
-0.016736 0.008364 0.879000
0.005996 0.027973 0.870000
-0.034390 -0.022464 0.868000
0.003156 -0.037496 0.877000
-0.023583 -0.005739 0.878000
0.009240 0.003991 0.872000
0.016681 -0.001741 0.867000
0.015502 0.042922 0.861000
0.011276 0.039114 0.863000
-0.015012 -0.031610 0.884000
0.006681 0.034260 0.866000
0.032383 0.035727 0.867000
0.009980 -0.036289 0.874000
0.024447 0.014623 0.864000
-0.015976 0.017008 0.877000
0.025366 0.035397 0.859000
0.004955 -0.034209 0.876000
-0.016755 -0.002854 0.880000
0.009240 -0.018620 0.872000
-0.008696 -0.050145 0.871000
-0.013541 -0.033755 0.883000
0.008901 -0.026936 0.874000
0.001350 -0.020868 0.876000
-0.000449 0.039698 0.868000
0.018974 -0.038807 0.874000
0.023344 -0.027719 0.876000
-0.004753 0.035533 0.871000
0.012814 -0.016806 0.871000
0.000991 -0.010436 0.878000
0.015341 -0.033693 0.872000
0.011752 -0.026874 0.872000
0.008163 -0.016466 0.872000
-0.007346 -0.035492 0.881000
0.007094 -0.020797 0.873000
0.016437 -0.038044 0.873000
-0.007700 -0.024223 0.880000
0.016380 -0.023590 0.870000
-0.018650 -0.025425 0.884000
-0.009895 -0.035895 0.882000
-0.023222 0.005825 0.878000
0.013547 -0.028669 0.872000
-0.027290 -0.022075 0.881000
-0.017841 -0.045955 0.880000
0.018254 -0.037728 0.874000
0.016585 0.035521 0.862000
-0.026595 -0.019196 0.882000
-0.002994 -0.047095 0.881000
0.033800 0.022397 0.876000
0.003113 0.042053 0.865000
0.026857 -0.003191 0.873000
0.036005 0.031808 0.877000
-0.012829 -0.039251 0.884000
-0.002617 -0.050433 0.876000
0.017018 0.003607 0.866000
-0.020810 -0.010496 0.883000
0.008097 0.037425 0.865000
-0.008716 0.026632 0.873000
-0.002602 0.021911 0.871000
0.019603 -0.017861 0.870000
0.002420 0.016194 0.872000
0.032137 0.029047 0.870000
-0.018993 -0.018855 0.883000
-0.007717 -0.042792 0.882000
-0.014723 0.043934 0.867000
0.004921 0.031554 0.870000
0.030848 0.036315 0.864000
-0.009117 0.015564 0.877000
-0.008007 0.019468 0.874000
0.010663 -0.008561 0.871000
0.021148 0.034377 0.860000
0.006376 -0.015767 0.873000
-0.004087 -0.029361 0.882000
-0.010959 -0.019153 0.880000
-0.003342 -0.019087 0.877000
0.024305 0.035751 0.859000
-0.022704 -0.030588 0.886000
-0.010597 -0.014082 0.880000
0.004955 -0.030243 0.876000
-0.022037 0.018389 0.874000
0.023131 -0.005673 0.868000
-0.018100 -0.047494 0.875000
0.014101 0.042262 0.862000
0.014297 -0.040605 0.874000
0.034356 0.015273 0.881000
-0.017559 -0.025061 0.884000
-0.018629 -0.015947 0.883000
0.011752 -0.025798 0.872000
0.030574 -0.017115 0.887000
-0.017963 -0.038975 0.886000
-0.001537 -0.015117 0.877000
-0.000093 -0.025614 0.878000
-0.001904 -0.031467 0.880000
0.020436 -0.038491 0.875000
0.007822 -0.023339 0.874000
0.025750 0.031899 0.860000
0.033173 0.036167 0.869000
0.010663 -0.007485 0.871000
-0.004758 0.026602 0.872000
0.008172 0.000402 0.873000
-0.013043 0.034217 0.874000
0.014607 -0.024334 0.871000
-0.000092 0.031626 0.872000
-0.009435 0.024836 0.873000
0.022034 -0.002455 0.867000
0.011034 -0.019696 0.872000
-0.028442 -0.011223 0.883000
0.021246 0.011778 0.864000
0.029113 0.001485 0.876000
-0.003711 -0.009725 0.879000
0.025158 0.013911 0.864000
0.019112 0.013556 0.864000
-0.023328 -0.039162 0.882000
0.000983 0.028364 0.871000
-0.020015 -0.005027 0.880000
-0.018928 -0.003578 0.880000
-0.015976 0.015564 0.877000
0.012014 0.026032 0.865000
0.001714 -0.039707 0.878000
-0.012785 -0.016636 0.881000
-0.031318 -0.021850 0.872000
-0.013652 0.043577 0.867000
-0.012408 -0.013720 0.880000
-0.008080 -0.030450 0.882000
0.006398 -0.038535 0.876000
0.023786 -0.032155 0.879000
0.013858 -0.010329 0.869000
0.001698 0.026899 0.870000
-0.018587 -0.005396 0.881000
-0.009532 -0.033354 0.882000
-0.005164 -0.034365 0.880000
-0.013177 -0.024669 0.883000
-0.013028 0.039567 0.873000
-0.019541 0.031735 0.875000
-0.014961 -0.006121 0.881000
0.000980 0.037912 0.868000
0.010958 0.022854 0.866000
-0.018650 -0.027972 0.884000
-0.001904 -0.047766 0.880000
-0.017078 0.012691 0.878000
-0.017902 -0.017037 0.883000
0.016565 0.039023 0.861000
0.006346 0.031875 0.869000
0.006383 -0.025497 0.874000
0.001718 -0.028570 0.880000
-0.019225 0.017730 0.877000
0.014948 -0.018577 0.870000
-0.009489 0.012691 0.878000
0.013082 0.023184 0.865000
0.014472 0.030589 0.863000
0.001353 -0.041153 0.878000
0.014199 -0.000672 0.868000
-0.024135 -0.018897 0.885000
0.020654 -0.013548 0.869000
0.018909 -0.025410 0.871000
0.017334 0.017112 0.864000
-0.007717 -0.042429 0.882000
0.020319 -0.020725 0.870000
0.015610 0.004682 0.867000
-0.009511 0.004752 0.880000
0.011001 0.043707 0.842000
-0.008386 -0.048991 0.876000
0.026771 -0.023915 0.882000
0.019581 -0.013191 0.869000
-0.010525 0.024864 0.874000
0.007054 0.025408 0.868000
0.020436 -0.038131 0.875000
-0.009716 -0.053065 0.866000
-0.009828 -0.048630 0.876000
0.021467 -0.027264 0.873000
0.012441 -0.013206 0.870000
-0.018993 -0.017764 0.883000
-0.020598 0.024864 0.874000
0.002776 0.016533 0.871000
0.021271 0.003959 0.865000
0.006673 0.037781 0.865000
0.013778 0.031692 0.864000
0.014232 -0.017861 0.870000
-0.016355 0.014498 0.878000
0.022084 -0.012833 0.869000
-0.003681 0.027319 0.872000
0.008830 0.017528 0.867000
0.023678 -0.023726 0.875000
-0.018713 0.040147 0.870000
-0.007970 0.041580 0.870000
0.026650 -0.015495 0.878000
0.025898 -0.018005 0.877000
0.019693 -0.034850 0.874000
0.001696 0.034379 0.869000
-0.005117 0.023372 0.872000
0.032180 0.004032 0.881000
-0.010405 -0.051876 0.864000
0.031241 0.014088 0.875000
0.022389 -0.042018 0.881000
0.013500 -0.003176 0.869000
0.026019 0.001116 0.869000
0.020630 -0.007817 0.868000
0.009866 0.042004 0.864000
0.012873 -0.042813 0.875000
-0.001537 -0.016561 0.877000
-0.016030 0.004028 0.880000
-0.016774 -0.004670 0.881000
0.001351 -0.010063 0.877000
-0.005539 -0.026820 0.882000
0.010700 -0.034490 0.874000
-0.010561 0.015204 0.877000
-0.009554 -0.054532 0.884000
0.025013 -0.036704 0.884000
0.010688 -0.027983 0.873000
-0.018142 0.021701 0.877000
0.002064 0.015493 0.873000
-0.019519 0.036015 0.874000
0.007102 0.001122 0.874000
0.014166 0.014300 0.866000
-0.032641 -0.016767 0.869000
-0.022062 0.007606 0.875000
0.011022 -0.014655 0.871000
-0.001538 -0.050187 0.878000
-0.001174 -0.019426 0.876000
-0.006999 -0.026850 0.883000
-0.005533 -0.046732 0.881000
-0.012770 0.006925 0.880000
-0.019422 -0.037881 0.886000
0.023024 0.011066 0.864000
-0.024081 -0.033028 0.883000
0.024091 0.014978 0.864000
0.008809 0.034220 0.865000
0.012785 -0.000315 0.869000
-0.013526 -0.023189 0.882000
-0.013434 0.017349 0.876000
0.029048 -0.020719 0.885000
0.010257 0.017171 0.867000
0.020464 0.034062 0.861000
0.000263 0.043630 0.861000
-0.005539 -0.044607 0.882000
-0.014235 -0.001770 0.881000
0.003878 -0.035330 0.877000
-0.008716 0.029866 0.873000
-0.017440 0.011969 0.878000
-0.023771 -0.024361 0.885000
0.031491 -0.001045 0.882000
0.001336 0.040009 0.867000
0.017465 0.044278 0.853000
-0.014090 0.042034 0.872000
-0.019630 0.003661 0.879000
0.028031 -0.005004 0.876000
0.018254 -0.039167 0.874000
0.010257 0.018955 0.867000
0.026109 -0.004264 0.872000
-0.018864 0.016647 0.877000
-0.021652 0.026273 0.873000
0.034395 0.013838 0.882000
0.013485 0.000400 0.868000
-0.004031 0.035851 0.870000
-0.011724 -0.036662 0.883000
-0.014219 0.006925 0.880000
-0.016299 0.030655 0.875000
0.004234 -0.008249 0.876000
0.011712 0.004335 0.869000
-0.024780 -0.033717 0.882000
0.007741 0.034932 0.865000
0.015341 -0.029387 0.872000
-0.010633 -0.037389 0.883000
-0.013873 -0.016636 0.881000
0.019135 0.008231 0.865000
0.017234 0.044236 0.859000
0.023653 0.028747 0.861000
-0.009873 -0.047766 0.880000
0.030067 0.035876 0.862000
0.000631 -0.049939 0.880000
0.024889 0.002898 0.867000
-0.012727 0.016286 0.877000
-0.013028 0.036693 0.873000
-0.015219 0.029574 0.875000
-0.017499 -0.004670 0.881000
-0.005533 -0.047095 0.881000
-0.000810 0.030908 0.872000
-0.004077 -0.048490 0.880000
-0.006137 0.043427 0.864000
0.015967 -0.001741 0.867000
0.025434 -0.039704 0.886000
0.026862 -0.027275 0.885000
0.012499 -0.038447 0.874000
0.020296 -0.013548 0.869000
-0.015650 0.005832 0.879000
-0.003677 0.025137 0.871000
-0.005828 0.035533 0.871000
-0.031677 -0.025439 0.872000
0.006727 0.011169 0.872000
-0.022704 -0.026212 0.886000
0.024091 0.015334 0.864000
-0.010223 0.013068 0.879000
-0.006983 -0.036579 0.881000
-0.013510 -0.012285 0.881000
0.011022 -0.011070 0.871000
0.008191 -0.037771 0.875000
0.025779 -0.009299 0.873000
-0.004077 -0.011184 0.880000
0.007094 0.004355 0.873000
0.027608 -0.002475 0.874000
0.011419 -0.035210 0.874000
0.002415 0.032628 0.870000
0.012770 0.005402 0.868000
-0.009359 0.044596 0.866000
0.013453 0.017151 0.866000
-0.018928 -0.001043 0.880000
-0.016793 -0.013388 0.882000
0.031169 0.018009 0.873000
0.009599 -0.015748 0.872000
-0.005117 0.034856 0.872000
-0.013826 -0.047296 0.878000
-0.013177 -0.025033 0.883000
0.001714 -0.036816 0.878000
-0.008716 0.024117 0.873000
0.013842 0.001115 0.868000
0.000267 0.014432 0.874000
0.029339 0.011169 0.872000
0.004916 0.018641 0.869000
0.025147 -0.019426 0.876000
-0.000817 -0.039391 0.879000
0.016418 -0.032617 0.872000
0.011739 -0.017523 0.871000
0.011034 -0.024362 0.872000
0.011367 0.000759 0.870000
-0.007329 -0.021302 0.879000
-0.006244 -0.015513 0.879000
-0.013177 -0.033755 0.883000
-0.012814 -0.045385 0.883000
-0.001180 -0.046317 0.880000
-0.023043 -0.030189 0.885000
0.012726 0.021404 0.865000
0.000994 -0.029656 0.880000
-0.004758 0.026961 0.872000
-0.028971 -0.017644 0.877000
-0.015012 -0.033429 0.884000
0.013218 -0.040605 0.874000
0.030175 -0.017095 0.886000
0.005304 -0.019382 0.874000
-0.002964 0.020500 0.872000
0.029357 0.034102 0.862000
0.013500 -0.005322 0.869000
-0.002620 -0.022697 0.877000
0.032681 0.019851 0.875000
0.015271 -0.002101 0.868000
0.015253 -0.000314 0.867000
-0.011347 -0.033717 0.882000
-0.010959 -0.019877 0.880000
-0.025171 -0.031938 0.883000
-0.020692 0.002212 0.878000
-0.009413 0.039477 0.871000
-0.007998 0.025554 0.873000
0.029954 0.022576 0.869000
-0.021197 -0.017057 0.884000
-0.007979 0.037684 0.871000
-0.011322 -0.016617 0.880000
0.007402 0.032872 0.867000
-0.012087 -0.030484 0.883000
0.026581 0.017823 0.864000
-0.016850 -0.038567 0.885000
-0.011347 -0.009395 0.882000
0.026673 0.010034 0.867000
-0.022314 -0.021447 0.885000
0.017710 0.013215 0.865000
0.020179 0.013911 0.864000
0.028522 -0.011547 0.880000
-0.034747 -0.020678 0.868000
0.021060 -0.021825 0.871000
-0.012451 -0.034482 0.883000
0.022210 0.036854 0.860000
0.034239 0.021364 0.878000
0.006339 0.032553 0.868000
0.030695 -0.001405 0.880000
-0.022653 -0.016693 0.884000
0.013562 -0.035888 0.873000
0.024475 0.007875 0.865000
-0.019787 0.038715 0.870000
0.009969 -0.023671 0.873000
0.022313 -0.036816 0.878000
-0.018328 -0.040069 0.886000
-0.005117 0.021218 0.872000
-0.001523 0.037240 0.869000
-0.024081 -0.013040 0.883000
0.004547 0.035013 0.867000
-0.010621 -0.032628 0.882000
0.028031 -0.003923 0.876000
-0.002953 0.040817 0.869000
-0.009055 0.040911 0.871000
-0.010621 -0.032265 0.882000
0.015967 0.002898 0.867000
0.032756 0.015564 0.877000
0.020701 -0.023617 0.871000
0.007822 -0.006072 0.874000
0.003878 -0.035691 0.877000
-0.016337 0.018452 0.877000
-0.005123 0.019087 0.873000
0.007411 0.020049 0.868000
0.012785 -0.002818 0.869000
0.001350 -0.016181 0.876000
0.013422 0.027424 0.864000
-0.005463 -0.051162 0.870000
-0.013403 0.028821 0.874000
0.021983 0.005383 0.865000
-0.019312 -0.046370 0.881000
0.014914 -0.003530 0.868000
0.002057 0.017947 0.870000
-0.012582 0.043577 0.867000
0.018316 0.042164 0.860000
-0.020106 -0.022878 0.884000
-0.015341 -0.017744 0.882000
-0.014961 -0.004670 0.881000
0.016418 -0.034411 0.872000
0.023867 -0.038073 0.882000
0.011289 0.035248 0.864000
0.022695 0.008231 0.865000
0.007777 0.027941 0.869000
0.012726 0.023540 0.865000
0.001706 0.011554 0.874000
-0.014548 -0.047296 0.878000
0.023705 -0.024474 0.876000
0.016059 -0.033693 0.872000
-0.008453 -0.043931 0.883000
-0.023248 0.013429 0.879000
-0.010501 0.035933 0.872000
-0.005835 0.025884 0.872000
-0.010885 0.021627 0.874000
0.003869 -0.025166 0.875000
0.002757 0.041697 0.865000
0.012799 -0.014280 0.870000
0.000631 -0.032517 0.879000
-0.003724 -0.027909 0.882000
0.014540 0.001827 0.867000
0.020794 0.039686 0.860000
0.019356 -0.042092 0.875000
0.013067 0.028136 0.864000
0.030298 0.000405 0.879000
-0.005520 -0.014790 0.879000
0.030126 0.010115 0.874000
0.015324 -0.027919 0.871000
-0.014582 0.002579 0.880000
0.014914 -0.006745 0.868000
0.028522 -0.010098 0.880000
0.004220 0.011900 0.873000
-0.022062 0.014809 0.875000
0.023078 0.002538 0.866000
0.007094 0.008307 0.873000
-0.016793 -0.018107 0.882000
-0.004077 -0.036538 0.880000
0.010305 0.003628 0.871000
-0.012087 -0.024306 0.883000
-0.014995 -0.025760 0.883000
-0.012683 0.030620 0.874000
-0.015739 -0.033793 0.884000
0.006339 0.017906 0.868000
0.013762 0.033786 0.863000
-0.019378 -0.024333 0.884000
0.024758 -0.018324 0.875000
0.011367 -0.009625 0.870000
0.011631 0.041245 0.863000
0.026019 0.001474 0.869000
-0.015323 -0.009747 0.881000
-0.005164 -0.035089 0.880000
-0.020446 -0.016674 0.883000
0.026528 -0.028400 0.886000
0.015912 0.020668 0.864000
0.006030 -0.030208 0.875000
-0.012046 -0.015893 0.880000
0.009610 -0.024031 0.873000
-0.007708 -0.010472 0.881000
-0.017098 0.005470 0.879000
-0.015341 -0.022100 0.882000
0.000630 -0.009714 0.878000
0.006390 -0.010761 0.875000
0.009240 -0.011801 0.872000
-0.012669 0.034896 0.873000
-0.019541 0.030655 0.875000
0.008483 0.014690 0.868000
-0.008357 0.025554 0.873000
-0.025200 -0.019240 0.884000
0.024701 -0.013611 0.873000
0.007813 0.001121 0.873000
0.022971 0.022039 0.862000
0.012858 -0.037728 0.874000
0.032144 0.007287 0.880000
0.005310 -0.029128 0.875000
0.011328 0.012175 0.867000
0.029868 0.002209 0.877000
-0.030276 -0.015048 0.873000
0.001693 0.040009 0.867000
0.010958 0.020359 0.866000
0.007831 -0.033809 0.875000
0.003860 0.013697 0.873000
-0.008806 -0.036621 0.882000
0.002792 -0.025195 0.876000
0.005322 -0.039301 0.877000
0.007804 0.011887 0.872000
0.013218 -0.039886 0.874000
0.016399 -0.024334 0.871000
-0.014565 0.010535 0.879000
0.020273 -0.007817 0.868000
0.015838 0.043934 0.860000
-0.006173 -0.051103 0.869000
-0.004807 -0.044194 0.881000
0.002798 -0.039707 0.878000
0.026222 -0.039428 0.888000
-0.006590 0.014121 0.877000
-0.020083 -0.017401 0.883000
-0.007988 0.034856 0.872000
0.012042 0.012532 0.867000
0.006390 -0.007880 0.875000
0.029698 0.012605 0.872000
0.016362 -0.017125 0.869000
-0.018842 0.022397 0.876000
-0.010597 -0.019877 0.880000
-0.008696 0.039477 0.871000
-0.018950 -0.005396 0.881000
-0.005835 0.027319 0.872000
-0.002264 -0.010086 0.879000
0.009555 0.028623 0.868000
-0.025419 -0.009725 0.879000
0.030765 -0.003950 0.882000
0.024815 -0.021614 0.877000
0.016362 -0.013906 0.869000
0.026019 0.001831 0.869000
0.004234 -0.009331 0.876000
0.025187 0.010723 0.865000
0.008901 -0.029814 0.874000
0.000622 0.039652 0.867000
0.020535 0.010000 0.864000
0.006339 0.025051 0.868000
-0.016049 -0.006121 0.881000
0.009250 -0.002472 0.873000
-0.033675 -0.018177 0.868000
-0.006605 -0.015151 0.879000
0.015664 -0.019651 0.870000
0.028969 0.034771 0.861000
0.026134 0.031227 0.861000
0.014948 -0.021442 0.870000
-0.020238 0.032778 0.874000
0.008172 -0.018282 0.873000
0.035603 0.032492 0.876000
-0.025228 -0.026182 0.885000
0.005982 0.025765 0.868000
0.003865 -0.017943 0.874000
0.026589 -0.011494 0.876000
-0.010489 0.041269 0.871000
0.018550 -0.023976 0.871000
-0.001161 0.042101 0.866000
0.000631 -0.027845 0.880000
-0.013715 -0.049070 0.871000
0.000987 0.012633 0.874000
-0.001531 0.015871 0.874000
-0.034747 -0.021035 0.868000
-0.001540 -0.033964 0.879000
0.027165 0.034023 0.860000
0.035162 0.034577 0.874000
-0.018950 -0.045282 0.881000
0.014896 0.003611 0.867000
-0.020527 0.038760 0.871000
0.023623 -0.019360 0.873000
0.004589 -0.026247 0.875000
0.019671 -0.033373 0.873000
-0.016660 0.033896 0.875000
-0.001887 0.032703 0.872000
0.016022 -0.021442 0.870000
0.011671 0.022498 0.866000
0.031276 0.033904 0.866000
-0.018885 0.014859 0.878000
-0.009895 -0.035532 0.882000
-0.018307 -0.042938 0.885000
0.012825 0.043670 0.848000
-0.018587 -0.007571 0.881000
0.006383 -0.013626 0.874000
0.008154 0.011873 0.871000
-0.027259 -0.016617 0.880000
-0.018671 -0.033103 0.885000
0.019223 -0.016052 0.869000
-0.000810 0.029832 0.872000
-0.017923 -0.025789 0.884000
0.030451 0.013338 0.873000
-0.019246 0.013775 0.878000
-0.009076 0.026273 0.873000
0.028260 0.035480 0.861000
-0.020668 0.011233 0.877000
-0.020527 0.038401 0.871000
0.002059 0.028722 0.871000
0.012427 0.002189 0.869000
0.018082 0.045468 0.849000
-0.004440 -0.037624 0.880000
0.011047 -0.027624 0.873000
0.023488 -0.003530 0.868000
-0.004430 -0.021277 0.878000
0.022237 -0.029128 0.875000
-0.006258 -0.035129 0.881000
0.015165 0.041552 0.862000
-0.013556 -0.035976 0.884000
0.025187 0.011435 0.865000
-0.020470 -0.020695 0.884000
0.014540 0.002184 0.867000
-0.016717 -0.052355 0.878000
-0.030706 -0.028047 0.875000
0.012456 -0.018598 0.871000
0.026519 0.027006 0.862000
0.024063 0.018513 0.863000
0.006016 0.009026 0.873000
-0.012087 -0.033392 0.883000
0.006023 -0.015785 0.874000
-0.013873 0.002944 0.881000
0.016758 -0.029353 0.871000
-0.022314 -0.034924 0.885000
0.017334 0.020668 0.864000
0.021652 0.000399 0.866000
0.027197 0.032999 0.861000
-0.020516 -0.032776 0.886000
-0.011684 -0.017704 0.880000
-0.023798 -0.025118 0.886000
-0.009076 0.031662 0.873000
-0.022730 0.032740 0.873000
0.000992 -0.040476 0.879000
0.025071 0.028392 0.861000
0.011072 -0.041012 0.875000
-0.018183 0.008364 0.879000
-0.002584 0.042409 0.865000
0.014232 -0.018935 0.870000
-0.004399 0.025884 0.872000
-0.011578 0.037727 0.872000
-0.017618 0.042247 0.869000
0.026984 -0.037643 0.889000
0.026286 0.011092 0.866000
-0.006258 -0.032591 0.881000
-0.016049 -0.009747 0.881000
0.018004 0.033392 0.862000
-0.021561 -0.039979 0.884000
-0.011309 0.011259 0.879000
-0.019422 -0.034599 0.886000
0.014506 0.017132 0.865000
-0.014842 0.038533 0.874000
-0.004077 -0.036900 0.880000
0.015682 -0.023976 0.871000
0.010663 0.003628 0.871000
0.022752 -0.041293 0.881000
0.015875 0.036230 0.862000
-0.002266 -0.048852 0.880000
-0.010142 0.037010 0.872000
-0.001176 -0.022336 0.877000
-0.012060 -0.001044 0.881000
-0.005170 -0.031140 0.881000
-0.004445 -0.032228 0.881000
0.028947 0.010081 0.871000
0.020915 0.003247 0.865000
-0.018545 0.005832 0.879000
-0.020377 -0.005389 0.880000
-0.018629 -0.017037 0.883000
-0.022037 0.020188 0.874000
0.022774 -0.006388 0.868000
-0.025564 -0.020695 0.884000
0.022084 -0.011402 0.869000
0.025595 -0.023472 0.879000
-0.005117 0.025884 0.872000
-0.017117 0.000406 0.880000
0.019068 0.025942 0.862000
0.007111 -0.035610 0.875000
0.007428 0.014366 0.870000
-0.008796 -0.005396 0.881000
-0.027569 -0.032924 0.890000
0.005676 -0.034569 0.876000
-0.010270 -0.042841 0.883000
0.000982 0.021886 0.870000
0.016230 0.032683 0.862000
-0.017479 -0.001043 0.880000
-0.007638 0.033100 0.873000
-0.020307 0.009067 0.877000
-0.006201 0.019446 0.873000
0.006157 0.044453 0.843000
0.018359 0.027006 0.862000
-0.012843 -0.027275 0.885000
-0.018566 -0.000681 0.880000
0.016565 0.040795 0.861000
0.032100 0.030087 0.869000
0.017294 0.034102 0.862000
0.006743 -0.001036 0.874000
-0.023717 -0.004318 0.883000
-0.020493 -0.041481 0.885000
0.006317 0.040985 0.865000
-0.005117 0.023013 0.872000
-0.012087 -0.037753 0.883000
0.027310 -0.008249 0.876000
0.029339 0.009733 0.872000
-0.022653 -0.017057 0.884000
-0.013434 0.019152 0.876000
-0.003357 -0.043106 0.881000
0.026796 0.000402 0.871000
-0.025839 -0.011922 0.881000
-0.017420 0.023145 0.877000
0.003134 0.030873 0.871000
0.016004 -0.012833 0.869000
-0.003353 -0.034003 0.880000
0.016681 0.000043 0.867000
-0.012814 -0.031938 0.883000
0.009957 -0.009288 0.872000
0.027747 -0.037319 0.890000
0.033287 0.029832 0.872000
0.023299 0.029455 0.861000
-0.025477 -0.011197 0.881000
0.024063 0.019223 0.863000
-0.014235 -0.001044 0.881000
-0.006920 0.020165 0.873000
-0.008071 -0.033316 0.881000
-0.013510 -0.009384 0.881000
-0.022808 0.006173 0.876000
0.003513 -0.026998 0.876000
-0.020470 -0.020331 0.884000
0.017077 -0.014979 0.869000
0.005676 -0.008610 0.876000
-0.015597 0.026003 0.876000
0.019024 0.041456 0.860000
0.008163 0.007939 0.872000
-0.012785 0.001131 0.881000
0.007094 -0.020078 0.873000
0.015183 0.029169 0.863000
-0.017740 0.032095 0.875000
-0.017195 -0.031246 0.884000
0.004186 0.040676 0.866000
0.018635 -0.041732 0.875000
-0.000093 0.013368 0.875000
0.009165 0.037069 0.865000
-0.014978 -0.021737 0.882000
-0.011180 0.042963 0.869000
-0.015939 -0.047494 0.875000
-0.017459 0.006555 0.879000
-0.011697 0.001857 0.881000
-0.028971 -0.021253 0.877000
0.005650 0.013681 0.872000
-0.028281 -0.020555 0.878000
-0.001880 0.037598 0.869000
0.010565 0.040890 0.863000
-0.007346 -0.033679 0.881000
0.000626 0.031267 0.872000
-0.021390 0.002209 0.877000
0.011289 0.033825 0.864000
-0.005888 -0.035089 0.880000
0.003834 0.035727 0.867000
0.000267 0.032344 0.872000
-0.019742 -0.042525 0.884000
0.016625 -0.044294 0.883000
-0.016698 0.022423 0.877000
0.034278 0.019580 0.879000
0.011406 -0.030498 0.873000
0.000624 0.019737 0.870000
-0.010537 0.020211 0.875000
0.005267 0.025408 0.868000
-0.009180 -0.044658 0.883000
-0.021702 0.007606 0.875000
-0.011219 0.039881 0.872000
-0.018292 -0.049558 0.867000
-0.011578 0.040599 0.872000
0.018486 -0.009960 0.868000
-0.020331 0.008716 0.878000
0.015628 -0.003172 0.868000
-0.016103 -0.032702 0.884000
