0.007437 0.022986 0.871000
0.003134 0.033741 0.871000
-0.006650 -0.023268 0.885000
0.014265 0.005427 0.872000
0.013686 -0.035129 0.881000
0.019558 0.025051 0.868000
-0.013889 0.013112 0.882000
0.014896 0.032515 0.867000
0.008942 0.002212 0.878000
-0.021875 0.011297 0.882000
-0.020951 -0.024471 0.889000
0.022879 0.007580 0.872000
-0.003380 -0.039019 0.887000
0.029015 -0.011963 0.884000
0.020168 -0.038305 0.879000
0.022905 -0.000316 0.873000
0.024871 -0.033964 0.879000
0.005146 0.046811 0.848000
0.000271 -0.043765 0.887000
0.009544 0.038225 0.867000
-0.001172 0.027022 0.874000
-0.015811 -0.022982 0.888000
-0.021512 0.001133 0.882000
0.011806 -0.002841 0.876000
0.003489 0.035134 0.870000
0.019017 -0.017263 0.876000
0.003181 -0.049074 0.884000
0.000991 0.015221 0.878000
0.003170 -0.015911 0.881000
0.003553 -0.029858 0.886000
0.009731 -0.040342 0.884000
-0.013648 -0.042814 0.890000
0.027373 0.041601 0.878000
0.031776 -0.012044 0.890000
0.001367 -0.045955 0.887000
0.006712 0.029763 0.870000
0.027404 0.008003 0.879000
-0.009895 0.012023 0.882000
0.026980 0.035778 0.877000
-0.021512 0.002222 0.882000
0.014379 -0.028175 0.879000
0.005709 -0.002132 0.881000
-0.022550 0.004752 0.880000
0.012527 -0.008249 0.876000
-0.017440 0.028591 0.878000
0.006071 -0.013373 0.881000
0.014363 -0.020193 0.878000
-0.023972 0.009450 0.879000
0.016700 0.021835 0.868000
-0.008501 -0.032119 0.888000
0.023158 0.031517 0.869000
0.010663 0.017967 0.871000
-0.017098 0.024644 0.879000
-0.020810 0.006222 0.883000
0.005989 0.035094 0.869000
-0.012683 0.039253 0.874000
0.021902 -0.020508 0.876000
0.033428 -0.022058 0.895000
0.018066 0.038493 0.865000
0.013203 0.004714 0.873000
0.016096 -0.004633 0.874000
-0.003353 0.012720 0.880000
-0.016486 -0.007241 0.885000
-0.002253 0.022011 0.875000
-0.011034 -0.047727 0.886000
0.019738 -0.019066 0.876000
-0.009918 0.006229 0.884000
-0.007054 -0.044646 0.890000
-0.008916 -0.054720 0.893000
0.017475 0.006496 0.871000
0.015826 -0.027090 0.879000
-0.009211 -0.011625 0.886000
0.000630 0.014137 0.878000
-0.000823 -0.032411 0.886000
0.010541 0.047174 0.861000
0.007759 0.043221 0.867000
0.006828 -0.042574 0.885000
-0.024334 0.017771 0.879000
0.021677 0.035727 0.867000
-0.003018 -0.045642 0.888000
-0.007023 -0.025118 0.886000
0.013624 -0.014034 0.877000
0.011658 0.044189 0.865000
-0.009489 0.031844 0.878000
0.013278 -0.020193 0.878000
0.000271 -0.043035 0.887000
0.026620 0.013038 0.877000
0.012236 -0.035129 0.881000
0.018275 -0.013282 0.875000
0.004239 0.014121 0.877000
-0.017639 0.040506 0.870000
0.001704 0.020883 0.873000
0.023264 0.003277 0.873000
-0.015445 -0.020423 0.888000
0.025204 -0.027059 0.878000
-0.026414 -0.032406 0.876000
-0.020197 -0.017865 0.888000
0.028586 0.003311 0.882000
0.016286 0.039561 0.865000
0.009346 -0.031539 0.882000
0.010115 0.048605 0.855000
0.026229 0.021676 0.876000
0.015700 0.003273 0.872000
0.013624 -0.016922 0.877000
0.018844 0.020049 0.868000
-0.001556 -0.043449 0.888000
0.020145 -0.028866 0.878000
-0.029198 -0.022593 0.873000
0.030539 0.022288 0.886000
-0.017943 -0.008334 0.885000
0.018529 0.010069 0.870000
0.000271 -0.032411 0.886000
-0.010293 0.001501 0.885000
0.012556 -0.016941 0.878000
-0.025274 0.037095 0.874000
0.004984 0.007296 0.881000
-0.009850 0.032205 0.878000
-0.005470 0.040552 0.871000
-0.018756 -0.021910 0.889000
0.025118 -0.000317 0.875000
0.017615 -0.028505 0.878000
0.030574 0.004060 0.887000
-0.008806 0.013838 0.882000
-0.029591 -0.030893 0.874000
-0.000824 -0.041940 0.887000
-0.012592 -0.048839 0.893000
0.022034 0.036084 0.867000
0.009900 0.038939 0.867000
0.012785 0.023291 0.869000
-0.002638 -0.017401 0.883000
0.009197 0.033267 0.868000
-0.020423 -0.006854 0.882000
-0.002960 0.040911 0.871000
-0.010633 0.009129 0.883000
0.022957 -0.011121 0.875000
0.022059 0.027909 0.868000
-0.025171 -0.017401 0.883000
0.005644 0.030873 0.871000
-0.021776 0.036180 0.878000
0.024673 0.027319 0.872000
-0.007770 -0.037236 0.888000
0.014097 -0.039251 0.884000
0.010305 0.021552 0.871000
-0.017281 0.041938 0.870000
-0.017559 0.000771 0.884000
-0.005170 0.012372 0.881000
-0.007621 -0.052655 0.871000
-0.019810 0.040911 0.871000
0.008522 0.016911 0.872000
0.021060 0.006137 0.871000
0.025233 -0.031431 0.879000
0.019761 -0.026307 0.877000
0.004647 -0.029129 0.886000
0.032215 -0.019414 0.892000
-0.015463 -0.026301 0.889000
-0.011399 -0.020377 0.886000
0.008238 -0.010460 0.880000
0.011380 0.017967 0.871000
0.026104 -0.039979 0.884000
-0.013602 -0.022591 0.887000
-0.005922 -0.022540 0.885000
-0.004807 0.012009 0.881000
-0.018024 -0.021178 0.889000
-0.017618 -0.012734 0.887000
-0.028313 0.027177 0.879000
0.026229 0.018792 0.876000
0.024398 -0.004999 0.875000
-0.016926 -0.024837 0.889000
0.031375 0.000776 0.889000
0.016892 -0.023446 0.878000
-0.008376 0.033536 0.875000
-0.021627 0.040240 0.872000
-0.020810 -0.010859 0.883000
0.027404 0.014153 0.879000
-0.009252 -0.042448 0.890000
0.004282 -0.046633 0.886000
0.022442 0.027583 0.869000
0.022700 -0.037944 0.879000
-0.025390 0.024978 0.878000
-0.006293 -0.007979 0.886000
0.013294 -0.023111 0.879000
-0.010328 -0.027002 0.888000
-0.019356 0.009129 0.883000
-0.027496 -0.023392 0.876000
0.014215 0.020787 0.869000
0.028554 0.018174 0.881000
0.001363 -0.034924 0.885000
-0.012142 -0.008353 0.887000
-0.014757 0.041532 0.869000
0.028619 -0.016674 0.883000
0.005644 0.025496 0.871000
0.009028 0.046681 0.852000
0.010352 0.005805 0.875000
-0.004824 -0.020331 0.884000
0.006789 -0.005027 0.880000
-0.023275 0.025759 0.880000
0.022161 0.001479 0.872000
-0.016103 0.005501 0.884000
-0.015306 0.018515 0.880000
0.022237 -0.011841 0.875000
0.008952 -0.001042 0.879000
-0.009169 0.012749 0.882000
0.008238 -0.022412 0.880000
0.014982 0.007580 0.872000
-0.015289 0.022112 0.879000
0.014657 -0.003914 0.874000
-0.007015 -0.023268 0.885000
0.027373 0.041962 0.878000
-0.022912 0.005114 0.880000
0.003745 0.046058 0.847000
-0.030276 -0.027264 0.873000
-0.009974 -0.031423 0.889000
0.004916 0.036167 0.869000
0.007086 0.020500 0.872000
-0.018100 0.040018 0.875000
0.003188 -0.040434 0.886000
-0.010223 0.017047 0.879000
-0.017420 0.034334 0.877000
0.016931 -0.035089 0.880000
0.003178 -0.049382 0.883000
0.009935 0.022960 0.870000
0.010996 0.027583 0.869000
-0.012046 0.016342 0.880000
-0.026113 -0.028866 0.878000
0.015306 0.017589 0.870000
0.019201 0.020049 0.868000
0.020701 0.007930 0.871000
-0.013282 -0.042448 0.890000
-0.003749 -0.027002 0.888000
-0.004054 0.020571 0.875000
0.012125 0.007229 0.873000
-0.005842 0.035615 0.873000
-0.014631 0.011310 0.883000
-0.010293 -0.048766 0.885000
0.002814 -0.010859 0.883000
0.031009 -0.030691 0.889000
0.011367 0.022244 0.870000
0.009946 0.019043 0.871000
0.028586 0.013838 0.882000
0.027011 0.020280 0.878000
0.023010 -0.023780 0.877000
-0.015994 0.027869 0.878000
0.018338 -0.026698 0.878000
0.014724 -0.020193 0.878000
-0.000459 -0.047416 0.887000
-0.005146 0.028559 0.877000
-0.017638 -0.037236 0.888000
0.028554 0.020349 0.881000
0.022110 0.018305 0.870000
-0.013920 0.008048 0.884000
-0.012115 0.001136 0.885000
0.025838 0.020931 0.875000
0.013985 -0.013673 0.877000
0.000265 0.045005 0.867000
-0.001189 -0.047416 0.887000
-0.011399 -0.017825 0.886000
0.010072 -0.035532 0.882000
0.016380 0.016514 0.870000
-0.008756 0.019535 0.877000
0.012250 -0.037710 0.882000
-0.005551 -0.019604 0.884000
0.028586 0.005852 0.882000
-0.003015 -0.026972 0.887000
0.006071 -0.012648 0.881000
-0.019809 -0.014924 0.887000
0.022800 0.030802 0.869000
-0.006222 0.025281 0.876000
0.012069 0.027941 0.869000
-0.019510 -0.027429 0.890000
0.011072 0.002924 0.875000
0.025233 -0.033602 0.879000
-0.010340 -0.030691 0.889000
0.002785 0.018389 0.874000
-0.004475 -0.035733 0.887000
-0.023999 0.021051 0.880000
-0.008117 -0.024389 0.886000
0.012153 -0.001757 0.875000
0.003900 -0.049689 0.882000
-0.003749 -0.041256 0.888000
-0.018017 0.040552 0.871000
0.023596 0.013322 0.872000
-0.013103 0.021725 0.878000
0.025898 -0.015478 0.877000
-0.002641 -0.023606 0.884000
-0.017963 -0.011261 0.886000
0.003918 -0.028035 0.886000
0.013640 -0.018025 0.878000
0.029346 0.017488 0.883000
0.001730 -0.039340 0.886000
-0.018044 -0.029261 0.890000
0.029776 0.000408 0.885000
0.007192 -0.029096 0.885000
0.023371 -0.027028 0.877000
0.003856 0.024448 0.872000
-0.012521 -0.025906 0.888000
0.029015 -0.019240 0.884000
0.006339 0.038626 0.868000
-0.010922 0.023145 0.877000
0.004123 0.047438 0.853000
-0.020493 -0.012341 0.885000
0.017455 0.014366 0.870000
-0.003745 -0.035368 0.887000
-0.014747 -0.039884 0.890000
-0.004840 -0.034273 0.887000
0.011098 -0.012951 0.877000
-0.005146 0.029642 0.877000
-0.017479 0.017791 0.880000
0.008317 0.046276 0.851000
0.025176 -0.019087 0.877000
0.027829 -0.020987 0.881000
0.002451 -0.014130 0.883000
-0.017078 0.027869 0.878000
0.005982 0.038269 0.868000
0.019938 0.016495 0.869000
-0.022704 -0.015637 0.886000
0.017136 0.003991 0.872000
-0.004769 -0.051037 0.874000
-0.024389 -0.030778 0.881000
0.009324 -0.009011 0.880000
-0.015739 0.001863 0.884000
-0.005520 0.015962 0.879000
-0.021851 0.016723 0.881000
-0.010573 0.031844 0.878000
0.000985 0.033421 0.872000
0.016004 0.018999 0.869000
-0.002977 0.028887 0.876000
0.006434 -0.021350 0.881000
0.017175 -0.008950 0.874000
0.021702 0.029695 0.868000
0.007822 0.013353 0.874000
-0.001915 -0.012705 0.885000
0.021036 0.011859 0.870000
-0.019225 0.036139 0.877000
0.023569 0.021194 0.871000
0.008116 0.043577 0.867000
-0.009252 -0.042814 0.890000
-0.011425 -0.028829 0.888000
0.007070 0.029047 0.870000
0.031812 -0.032961 0.891000
0.013609 -0.011134 0.876000
0.011860 -0.028207 0.880000
-0.005211 -0.041256 0.888000
-0.002649 -0.032448 0.887000
0.013531 0.012949 0.871000
0.022800 0.024722 0.869000
0.027435 -0.002854 0.880000
0.011072 0.004005 0.875000
0.021467 -0.006424 0.873000
0.008219 0.005825 0.878000
-0.003745 -0.033178 0.887000
0.002415 0.036567 0.870000
0.028127 0.039477 0.879000
0.017475 0.008647 0.871000
0.033835 -0.027614 0.896000
0.013794 0.043833 0.865000
0.012711 0.046272 0.864000
0.011085 -0.002481 0.876000
0.004642 -0.048401 0.885000
-0.017479 0.021051 0.880000
-0.019787 -0.011625 0.886000
-0.014910 0.027146 0.878000
-0.027856 0.029969 0.876000
-0.021875 0.016016 0.882000
-0.017821 0.025368 0.879000
0.014033 -0.028570 0.880000
0.020606 0.032872 0.867000
-0.013282 -0.038418 0.890000
-0.020786 -0.003950 0.882000
0.019671 -0.004987 0.873000
-0.009940 -0.012355 0.886000
-0.007998 0.036693 0.873000
0.010072 -0.033717 0.882000
0.022186 -0.004269 0.873000
0.011393 0.013322 0.872000
0.024730 0.002921 0.874000
-0.012611 0.042605 0.869000
0.019444 -0.034687 0.879000
0.002817 -0.049074 0.884000
0.027797 0.014893 0.880000
0.008571 0.005819 0.877000
-0.001887 -0.051638 0.872000
0.012167 -0.005004 0.876000
-0.024361 0.025035 0.880000
0.006820 -0.031974 0.884000
-0.003681 0.038086 0.872000
0.028255 -0.038843 0.883000
0.019626 0.005062 0.871000
-0.003383 -0.047104 0.888000
-0.010922 0.032890 0.877000
0.004263 -0.010484 0.882000
0.001732 -0.044130 0.887000
0.009314 -0.003213 0.879000
0.013826 0.034656 0.867000
0.001728 -0.034924 0.885000
-0.019831 -0.017865 0.888000
-0.026836 -0.019471 0.878000
-0.005570 -0.035733 0.887000
0.008144 0.028689 0.870000
0.016078 0.001840 0.873000
-0.018777 -0.032557 0.890000
-0.010984 0.012749 0.882000
-0.022912 0.026121 0.880000
0.007876 -0.019515 0.880000
-0.021659 -0.017499 0.888000
0.008483 0.037554 0.868000
-0.028479 -0.027624 0.873000
0.026229 0.010499 0.876000
0.021205 -0.027028 0.877000
-0.025114 -0.022800 0.881000
0.009935 0.024392 0.870000
0.021802 0.001479 0.872000
0.017655 -0.034365 0.880000
-0.009252 -0.043180 0.890000
-0.021512 -0.007943 0.882000
-0.001885 0.037684 0.871000
0.007556 -0.048037 0.885000
0.011072 0.004365 0.875000
-0.009532 0.012749 0.882000
-0.006959 0.017389 0.878000
-0.011777 -0.048511 0.887000
-0.021101 0.025397 0.880000
-0.009489 0.028591 0.878000
-0.012479 0.004415 0.885000
-0.016393 0.020326 0.880000
0.032215 -0.021984 0.892000
0.001704 0.022680 0.873000
-0.008501 -0.032850 0.888000
0.002064 0.024476 0.873000
-0.001188 -0.036422 0.886000
-0.016467 0.005865 0.884000
-0.019246 0.034735 0.878000
0.021640 -0.040844 0.895000
-0.010200 0.024588 0.877000
0.020273 0.025408 0.868000
-0.023610 0.033327 0.879000
0.004637 -0.035249 0.884000
0.012398 0.036441 0.867000
0.023424 -0.037944 0.879000
-0.008395 0.019174 0.877000
-0.009242 -0.036180 0.889000
0.024454 -0.019448 0.877000
0.028949 0.018557 0.882000
-0.019378 -0.002139 0.884000
0.009013 -0.042938 0.885000
-0.005211 -0.040890 0.888000
0.012055 0.030767 0.868000
0.027341 0.042636 0.877000
-0.021053 0.033651 0.878000
0.028949 0.020009 0.882000
0.030243 -0.034677 0.888000
-0.009242 -0.038375 0.889000
0.002087 -0.011223 0.883000
-0.023637 0.017791 0.880000
0.005346 0.002944 0.881000
0.026980 0.023145 0.877000
-0.015445 -0.023347 0.888000
-0.021975 -0.034234 0.886000
0.009555 0.032910 0.868000
0.030379 -0.024554 0.892000
-0.021875 0.016379 0.882000
0.003048 0.045710 0.847000
0.006434 -0.012648 0.881000
-0.017678 -0.032557 0.890000
0.008275 -0.048347 0.884000
-0.022024 -0.021520 0.888000
0.017615 -0.026698 0.878000
-0.025448 -0.026034 0.880000
0.003149 0.015889 0.875000
0.025478 0.028494 0.875000
0.022416 0.030767 0.868000
-0.004105 -0.025118 0.886000
-0.006137 0.043071 0.864000
-0.005146 0.018452 0.877000
-0.005526 0.014893 0.880000
0.025118 -0.003918 0.875000
0.021036 0.013650 0.870000
-0.019290 0.021775 0.880000
0.027011 0.001850 0.878000
-0.016374 0.023921 0.879000
0.025838 0.017330 0.875000
-0.001895 0.029969 0.876000
0.002417 -0.052296 0.871000
-0.001188 -0.034964 0.886000
0.011860 -0.028570 0.880000
0.013188 0.010451 0.872000
-0.011737 0.004774 0.884000
-0.005117 0.038804 0.872000
-0.021053 0.036903 0.878000
0.014150 0.044189 0.865000
0.012917 -0.016941 0.878000
0.022494 0.010081 0.871000
0.011161 -0.034443 0.882000
-0.015480 -0.036587 0.890000
-0.001189 -0.031352 0.887000
0.022442 0.025437 0.869000
0.004574 0.022295 0.872000
0.013547 0.009733 0.872000
0.013842 0.025765 0.868000
-0.020400 0.021800 0.881000
-0.029917 -0.023312 0.873000
0.007652 0.048253 0.855000
0.023010 -0.022697 0.877000
-0.011764 -0.012719 0.886000
-0.010997 0.009493 0.883000
-0.000801 0.044745 0.862000
-0.000094 -0.027337 0.887000
0.025032 0.040599 0.872000
0.022084 0.022218 0.869000
-0.000807 0.044751 0.869000
-0.016176 -0.020789 0.888000
0.016873 -0.020170 0.877000
0.028554 0.029777 0.881000
-0.018885 0.030760 0.878000
0.024314 0.016194 0.872000
-0.011750 -0.000321 0.885000
0.003501 0.032022 0.873000
0.019157 0.034260 0.866000
0.021345 0.028980 0.868000
0.027042 -0.002127 0.879000
-0.015445 -0.041621 0.888000
0.000266 0.037999 0.870000
-0.021317 -0.028862 0.889000
0.015500 -0.037667 0.881000
-0.019876 -0.038052 0.890000
0.004642 -0.041117 0.885000
0.013263 -0.016561 0.877000
-0.027104 0.032815 0.875000
0.015628 0.025765 0.868000
-0.008089 0.010583 0.883000
-0.003736 -0.010520 0.885000
-0.001919 -0.047781 0.887000
0.023900 0.031912 0.870000
0.003156 0.014121 0.877000
-0.023999 0.004028 0.880000
-0.028479 -0.027983 0.873000
-0.007412 -0.047157 0.889000
-0.024472 -0.016329 0.884000
-0.025994 0.035656 0.874000
-0.019225 0.037222 0.877000
0.007445 0.020500 0.872000
-0.012128 -0.002509 0.886000
0.012042 0.036441 0.867000
-0.001188 -0.026212 0.886000
-0.009951 -0.025146 0.887000
0.030974 0.006257 0.888000
0.001365 -0.040434 0.886000
-0.021488 -0.003220 0.881000
0.002097 -0.046686 0.887000
-0.013983 -0.026271 0.888000
-0.021464 0.026483 0.880000
-0.006279 -0.017784 0.884000
0.006828 -0.044031 0.885000
0.021827 -0.000676 0.873000
0.017495 0.000761 0.872000
-0.000457 -0.009416 0.884000
0.006789 -0.019877 0.880000
0.026259 0.004014 0.877000
-0.005495 0.032815 0.875000
-0.008117 -0.005791 0.886000
0.004200 0.037240 0.869000
0.011806 -0.004283 0.876000
0.004273 -0.034521 0.884000
-0.000452 0.025583 0.874000
-0.019356 0.007312 0.883000
-0.007379 -0.018169 0.885000
-0.000093 -0.015584 0.883000
-0.011309 0.031518 0.879000
-0.014582 0.017066 0.880000
-0.024752 -0.028602 0.881000
-0.007665 0.022397 0.876000
-0.005558 -0.022904 0.885000
-0.026232 0.014564 0.882000
0.012139 0.004720 0.874000
0.016041 0.010439 0.871000
0.007911 -0.039251 0.884000
-0.024611 0.036819 0.876000
0.009218 0.023318 0.870000
-0.025419 0.030795 0.879000
0.014049 -0.036942 0.881000
-0.026444 0.028559 0.877000
-0.017175 0.009856 0.883000
0.021492 -0.010749 0.874000
-0.007665 0.025642 0.876000
-0.010633 0.010220 0.883000
-0.025564 -0.017057 0.884000
0.020654 0.016853 0.869000
-0.001919 -0.032083 0.887000
-0.009951 -0.025876 0.887000
-0.009242 -0.037643 0.889000
-0.012060 0.015273 0.881000
-0.002998 0.010934 0.882000
-0.018503 0.034334 0.877000
0.012584 -0.030018 0.880000
0.003851 0.033382 0.871000
-0.020951 -0.027032 0.889000
0.004626 -0.009032 0.882000
0.026199 0.034616 0.875000
-0.006943 0.023479 0.876000
0.016758 0.010439 0.871000
0.031375 -0.006908 0.889000
-0.019100 -0.035408 0.888000
0.002061 0.033421 0.872000
-0.004802 0.013807 0.880000
0.001728 -0.035653 0.885000
0.019693 -0.011108 0.874000
0.022826 0.021528 0.870000
-0.004105 -0.025847 0.886000
0.022852 0.012949 0.871000
-0.021293 -0.030291 0.888000
-0.008472 -0.017440 0.885000
0.001654 0.046058 0.847000
0.016892 -0.027421 0.878000
0.013233 -0.003558 0.875000
0.003860 0.018368 0.873000
0.022520 0.006862 0.872000
0.031339 0.013201 0.888000
0.009346 -0.035532 0.882000
-0.003319 0.039835 0.871000
-0.024695 0.020665 0.879000
-0.019422 -0.011261 0.886000
0.008600 -0.020239 0.880000
-0.002608 -0.054213 0.873000
0.020506 -0.028866 0.878000
0.032619 -0.028992 0.893000
-0.005205 -0.048146 0.887000
-0.001528 0.034497 0.872000
0.024286 0.034816 0.871000
0.026589 0.037540 0.876000
0.026229 0.011581 0.876000
-0.002602 0.040911 0.871000
0.021108 -0.003550 0.873000
0.025809 0.031699 0.874000
-0.017253 -0.017115 0.887000
0.027373 0.039794 0.878000
-0.009586 -0.025876 0.887000
0.017293 -0.037987 0.880000
0.020606 0.032515 0.867000
-0.023637 0.015980 0.880000
-0.002974 0.027413 0.875000
-0.020219 -0.018617 0.889000
-0.017098 0.023197 0.879000
0.009003 -0.039979 0.884000
0.025957 -0.027452 0.879000
-0.016888 -0.039749 0.887000
0.023264 0.000762 0.873000
-0.004096 -0.014874 0.884000
0.022262 -0.021950 0.876000
0.003489 0.036925 0.870000
0.020273 0.022550 0.868000
0.025838 0.011568 0.875000
0.026229 0.006173 0.876000
-0.005507 0.018452 0.877000
-0.023275 0.029019 0.880000
-0.025390 0.020280 0.878000
-0.014268 0.010583 0.883000
0.019648 0.002196 0.872000
-0.005470 0.040911 0.871000
-0.012535 -0.030691 0.889000
0.009632 0.007966 0.875000
0.024314 0.020859 0.872000
0.032619 -0.028257 0.893000
0.016835 -0.012922 0.875000
-0.005781 0.043427 0.864000
-0.002282 -0.034234 0.886000
0.009208 0.028656 0.869000
-0.009435 0.040286 0.873000
-0.008043 0.029314 0.878000
0.003553 -0.028764 0.886000
0.005029 0.003337 0.889000
-0.010305 -0.023295 0.886000
-0.001552 -0.032776 0.886000
0.010026 -0.011882 0.878000
-0.015114 -0.035854 0.890000
0.007513 -0.004303 0.880000
-0.023275 0.027932 0.880000
0.004989 -0.024278 0.882000
-0.003673 0.041938 0.870000
-0.013983 -0.044180 0.888000
-0.011790 -0.029195 0.888000
0.025118 -0.003558 0.875000
-0.011777 -0.009448 0.887000
-0.004780 0.032492 0.876000
0.030643 -0.027032 0.889000
-0.019764 -0.010155 0.885000
0.009742 -0.048037 0.885000
-0.011750 0.001501 0.885000
0.026980 0.038666 0.877000
0.002448 -0.022826 0.882000
0.006781 -0.050968 0.879000
-0.001185 -0.023242 0.884000
-0.028839 -0.022953 0.873000
-0.000450 0.041222 0.870000
0.022110 0.017231 0.870000
-0.001911 -0.021035 0.883000
0.018508 0.018641 0.869000
0.019422 -0.028505 0.878000
0.001001 -0.047781 0.887000
-0.008756 0.027115 0.877000
0.023036 -0.028866 0.878000
-0.012858 -0.009437 0.886000
0.005996 0.030838 0.870000
0.002426 0.018389 0.874000
-0.015846 -0.036953 0.890000
0.002824 -0.048092 0.886000
-0.012640 0.040911 0.871000
0.016362 0.020072 0.869000
-0.011009 0.005865 0.884000
-0.014284 0.009503 0.884000
0.020030 -0.007143 0.873000
0.002417 -0.053013 0.871000
0.019581 0.018999 0.869000
-0.013952 -0.014907 0.886000
0.001730 -0.040798 0.886000
-0.019181 0.040018 0.875000
-0.000092 0.024117 0.873000
-0.026143 0.015962 0.879000
-0.009252 -0.045744 0.890000
0.005292 0.021936 0.872000
-0.005922 -0.009427 0.885000
0.009314 -0.004298 0.879000
-0.002602 0.040552 0.871000
-0.014171 0.033251 0.877000
-0.027496 0.032492 0.876000
0.005709 -0.022075 0.881000
-0.018044 -0.030360 0.890000
0.000614 0.047252 0.856000
-0.011034 -0.011261 0.886000
0.009324 -0.024948 0.880000
0.005006 0.005507 0.885000
-0.005482 0.035256 0.873000
0.020053 -0.009669 0.874000
-0.012128 -0.009802 0.886000
0.003170 -0.018449 0.881000
0.003131 0.036925 0.870000
-0.021293 -0.029195 0.888000
0.015664 0.016156 0.870000
0.019245 0.009711 0.870000
0.007445 0.018347 0.872000
-0.017781 0.032890 0.877000
0.019603 0.014008 0.870000
-0.003334 -0.051096 0.875000
-0.012901 -0.031789 0.889000
0.024286 0.023345 0.871000
0.006398 0.013383 0.876000
-0.001189 -0.042670 0.887000
0.004282 -0.044080 0.886000
-0.011803 -0.030325 0.889000
0.026199 0.034976 0.875000
0.021517 -0.014722 0.875000
-0.000456 -0.019196 0.882000
-0.017117 0.020326 0.880000
0.027373 0.034373 0.878000
0.009314 -0.015875 0.879000
0.023062 -0.039391 0.879000
-0.010657 -0.014891 0.885000
0.008561 0.010139 0.876000
0.029743 0.028787 0.884000
0.027497 0.027633 0.882000
-0.013043 0.039972 0.874000
0.012785 0.025079 0.869000
-0.008386 0.022397 0.876000
0.030209 -0.017480 0.887000
0.010257 0.041080 0.867000
0.012456 0.016533 0.871000
-0.020786 -0.006854 0.882000
-0.017312 -0.029627 0.890000
-0.013480 0.017409 0.879000
-0.019143 -0.029261 0.890000
0.007184 -0.041070 0.884000
0.021902 -0.020147 0.876000
-0.016523 -0.015289 0.887000
-0.013252 -0.025906 0.888000
-0.015080 -0.025175 0.888000
0.010387 -0.011882 0.878000
-0.023798 -0.001050 0.886000
-0.005862 0.032492 0.876000
0.001724 -0.009769 0.883000
-0.010258 0.012386 0.882000
-0.017214 -0.006149 0.885000
-0.011724 0.009856 0.883000
-0.000793 0.046790 0.854000
0.008238 -0.005027 0.880000
-0.008043 0.017028 0.878000
0.011302 0.045613 0.865000
0.000267 0.019468 0.874000
0.006092 -0.038523 0.884000
0.010639 0.026868 0.869000
-0.008367 0.036735 0.874000
0.000998 -0.013055 0.884000
-0.000094 -0.038610 0.886000
-0.001891 0.022346 0.874000
0.010293 0.024750 0.870000
-0.007312 0.018452 0.877000
-0.002617 0.018792 0.876000
0.004916 0.036882 0.869000
-0.021875 0.005852 0.882000
0.020701 0.006496 0.871000
-0.003380 -0.036463 0.887000
-0.026113 0.018473 0.878000
0.006735 0.016931 0.873000
0.018572 0.000402 0.872000
-0.010561 0.024227 0.877000
0.016719 0.017568 0.869000
0.020122 -0.024502 0.877000
0.014573 0.020072 0.869000
-0.010212 0.028230 0.878000
0.013516 0.017947 0.870000
-0.021053 0.036180 0.878000
0.007159 -0.012285 0.881000
0.009753 -0.046633 0.886000
0.022110 0.014366 0.870000
-0.021751 0.038305 0.877000
0.016512 -0.020170 0.877000
-0.008510 -0.031423 0.889000
-0.018162 0.032567 0.878000
-0.006658 -0.024024 0.886000
-0.010340 -0.034350 0.889000
0.021852 -0.006432 0.874000
-0.013222 -0.005791 0.886000
-0.016393 0.015980 0.880000
-0.003018 -0.029560 0.888000
0.024370 -0.000676 0.874000
0.024701 0.016212 0.873000
-0.009929 -0.001049 0.885000
0.027435 -0.010460 0.880000
0.022879 0.002914 0.872000
0.019536 0.026806 0.867000
0.011846 -0.024558 0.879000
0.006419 -0.052053 0.879000
0.018887 0.014008 0.870000
-0.005949 -0.029594 0.889000
0.000628 0.016989 0.876000
0.002459 -0.043716 0.886000
0.007454 0.015853 0.873000
0.011793 -0.002118 0.875000
0.027373 0.022448 0.878000
0.002448 -0.022100 0.882000
-0.018971 0.013838 0.882000
-0.013464 0.023532 0.878000
-0.002287 -0.047469 0.888000
0.011658 0.045257 0.865000
-0.009200 -0.001778 0.885000
-0.014747 -0.032557 0.890000
-0.015490 0.042296 0.870000
0.001362 -0.012327 0.884000
0.018572 0.002196 0.872000
-0.005205 -0.033178 0.887000
-0.008806 -0.049326 0.882000
0.000636 -0.031682 0.886000
0.015772 -0.012576 0.876000
0.025927 -0.016580 0.878000
0.018317 -0.025224 0.877000
0.016437 0.000043 0.873000
0.012028 0.042101 0.866000
-0.004851 -0.046791 0.889000
0.015464 -0.029261 0.879000
0.021253 -0.039391 0.879000
-0.009929 -0.000321 0.885000
-0.002251 0.025583 0.874000
0.012726 0.042765 0.865000
0.024509 -0.035049 0.879000
-0.014714 -0.025906 0.888000
-0.005463 -0.052236 0.870000
0.008135 0.033306 0.869000
0.027497 -0.036258 0.882000
0.001700 0.034458 0.871000
0.027373 0.033651 0.878000
0.003142 0.019446 0.873000
-0.010316 -0.024051 0.887000
-0.013282 -0.043180 0.890000
0.017772 0.024336 0.868000
-0.002261 0.015944 0.878000
0.021492 -0.009669 0.874000
0.005340 -0.015893 0.880000
-0.000459 -0.044545 0.888000
0.006051 0.005103 0.878000
-0.009963 -0.026637 0.888000
0.029313 0.040701 0.882000
-0.003338 0.018071 0.876000
0.003882 0.012691 0.878000
0.008881 0.015117 0.872000
0.025986 -0.035451 0.880000
0.008285 -0.045123 0.885000
0.013339 -0.037710 0.882000
0.025420 0.037771 0.873000
-0.005432 0.042409 0.865000
0.023705 -0.015821 0.876000
0.003533 -0.020987 0.881000
0.017874 -0.000676 0.873000
0.028554 0.035216 0.881000
-0.004764 0.034537 0.873000
0.010749 -0.013327 0.878000
0.003537 -0.009395 0.882000
0.028522 0.040247 0.880000
-0.027104 -0.032369 0.875000
-0.013952 -0.016366 0.886000
0.002075 0.013414 0.878000
-0.016869 -0.010896 0.886000
-0.022886 0.031880 0.879000
0.015985 0.023979 0.868000
-0.003703 -0.050491 0.877000
-0.002641 -0.022514 0.884000
-0.013904 0.010946 0.883000
-0.012169 -0.035082 0.889000
-0.026444 -0.027389 0.877000
-0.014681 -0.012719 0.886000
0.024342 0.005433 0.873000
0.022597 -0.015803 0.875000
0.015017 -0.005353 0.874000
0.006828 -0.028732 0.885000
-0.017760 0.038622 0.876000
-0.007023 -0.007614 0.886000
-0.002207 0.046955 0.857000
0.008492 0.030802 0.869000
-0.014381 -0.034755 0.890000
-0.004840 -0.036098 0.887000
0.006419 0.000405 0.879000
0.025176 -0.018726 0.877000
0.012613 -0.038073 0.882000
0.000636 -0.045225 0.887000
0.015068 -0.016200 0.877000
0.019400 -0.022697 0.877000
0.002811 -0.022100 0.882000
-0.015828 -0.028496 0.889000
0.000266 0.035175 0.871000
0.024286 0.033382 0.871000
-0.011617 0.036417 0.875000
-0.018671 -0.007606 0.885000
-0.022024 -0.018596 0.888000
0.001363 -0.037110 0.885000
0.023397 -0.029589 0.878000
-0.003001 -0.016311 0.883000
-0.010340 -0.038009 0.889000
0.008275 -0.040342 0.884000
0.001339 0.042963 0.869000
-0.012115 0.000044 0.885000
0.025986 -0.037987 0.880000
0.030311 -0.025964 0.890000
-0.016140 -0.010896 0.886000
0.030608 -0.013845 0.888000
-0.013983 -0.027002 0.888000
0.011671 0.039250 0.866000
-0.015757 0.000408 0.885000
0.010749 -0.006461 0.878000
-0.007054 -0.045744 0.890000
-0.027496 -0.024834 0.876000
0.008952 -0.016960 0.879000
-0.002256 0.030690 0.876000
0.024786 -0.012576 0.876000
0.002423 0.023398 0.873000
-0.001526 0.038043 0.871000
-0.003349 0.014876 0.879000
-0.011631 0.033935 0.876000
-0.009211 -0.008343 0.886000
0.005376 -0.029129 0.886000
-0.014944 0.016342 0.880000
0.026620 0.015564 0.877000
-0.017579 -0.007970 0.885000
-0.008510 -0.037643 0.889000
-0.004994 0.044525 0.851000
0.033023 -0.035647 0.894000
-0.010270 0.009493 0.883000
0.031009 -0.018251 0.889000
-0.009951 -0.053622 0.887000
-0.009478 0.024227 0.877000
0.015324 0.010081 0.871000
0.021752 0.017231 0.870000
-0.004114 -0.027733 0.888000
0.000997 -0.023943 0.883000
-0.002253 0.027413 0.875000
-0.020951 -0.028862 0.889000
0.003549 -0.037838 0.885000
0.000987 0.026663 0.874000
0.008266 -0.027940 0.883000
-0.002641 -0.015238 0.884000
0.010293 0.026183 0.870000
0.023873 0.037598 0.869000
-0.015029 0.002229 0.885000
-0.012436 0.013838 0.882000
-0.001493 0.046330 0.852000
0.015844 -0.031467 0.880000
0.017915 -0.014002 0.875000
-0.002277 -0.014510 0.884000
0.011148 -0.030415 0.881000
0.002085 -0.019559 0.882000
0.025478 0.000403 0.875000
-0.019992 0.029348 0.879000
0.027860 0.028359 0.882000
-0.016888 -0.017480 0.887000
-0.002967 0.034178 0.873000
0.021132 -0.010389 0.874000
0.025898 -0.008981 0.877000
-0.007304 0.022397 0.876000
0.021902 -0.021950 0.876000
-0.006286 -0.015619 0.885000
-0.024695 0.032604 0.879000
-0.023610 0.009088 0.879000
-0.009252 -0.044646 0.890000
0.012755 0.033229 0.867000
0.025986 -0.036538 0.880000
0.002821 -0.034924 0.885000
-0.021586 -0.013069 0.885000
-0.023248 0.034051 0.879000
-0.011764 -0.047362 0.886000
0.033023 -0.033072 0.894000
-0.023771 -0.017076 0.885000
-0.007595 0.043270 0.868000
0.025118 -0.003198 0.875000
-0.005507 0.028198 0.877000
0.018635 -0.012922 0.875000
0.029412 -0.017805 0.885000
0.002451 -0.013767 0.883000
0.013173 0.012590 0.871000
0.012917 -0.020555 0.878000
0.025061 0.017649 0.873000
0.022391 0.036084 0.867000
-0.007412 -0.031057 0.889000
-0.019488 -0.021178 0.889000
0.008483 0.038626 0.868000
0.015017 -0.001396 0.874000
0.013858 0.022576 0.869000
0.003521 0.010162 0.878000
0.004626 -0.011936 0.882000
0.014265 0.005785 0.872000
0.012755 0.034300 0.867000
0.020007 -0.001393 0.872000
-0.010694 -0.046738 0.888000
-0.013418 0.038217 0.875000
0.011685 0.038225 0.867000
0.025089 0.006518 0.874000
-0.013618 -0.024444 0.888000
0.026620 0.020979 0.877000
0.010602 0.043527 0.866000
-0.011047 -0.007258 0.887000
-0.022704 0.039163 0.872000
0.007759 0.043577 0.867000
0.007548 -0.041798 0.884000
0.006065 -0.017342 0.880000
-0.016560 -0.025569 0.889000
0.009522 0.046681 0.865000
-0.023999 0.018153 0.880000
0.010675 0.012963 0.872000
0.022339 -0.038667 0.879000
0.022391 0.036797 0.867000
0.000268 0.031375 0.875000
-0.003707 -0.050187 0.878000
-0.017175 0.006949 0.883000
-0.023069 -0.021107 0.886000
0.017833 0.009005 0.871000
-0.023275 0.027208 0.880000
0.010026 -0.014773 0.878000
-0.000439 0.045415 0.848000
0.012370 0.043121 0.865000
0.009720 -0.036299 0.883000
-0.016012 0.020303 0.879000
0.025262 -0.038349 0.880000
0.014523 0.036042 0.866000
0.005292 0.023372 0.872000
0.006750 0.013368 0.875000
-0.025927 -0.017057 0.884000
0.024342 0.003636 0.873000
-0.009086 0.035656 0.874000
-0.016430 0.013112 0.882000
0.027073 -0.023137 0.880000
0.016854 -0.015821 0.876000
0.022852 0.015816 0.871000
-0.013572 0.003322 0.885000
0.021902 -0.018705 0.876000
-0.007304 0.025642 0.876000
-0.020400 0.019987 0.881000
-0.017598 -0.009802 0.886000
-0.002638 -0.018128 0.883000
-0.001189 -0.047051 0.887000
-0.005463 0.041580 0.870000
-0.000811 0.033818 0.873000
0.022545 -0.002472 0.873000
0.004282 -0.028764 0.886000
0.006071 -0.013735 0.881000
0.018486 0.023264 0.868000
0.012527 -0.007528 0.876000
0.018721 -0.035773 0.879000
-0.008144 -0.038009 0.889000
-0.017440 0.029314 0.878000
0.012499 0.001842 0.874000
0.025147 -0.013657 0.876000
0.002448 -0.020648 0.882000
-0.013556 0.007684 0.884000
0.026229 0.009778 0.876000
0.029844 -0.034638 0.887000
0.032986 -0.013923 0.893000
0.021902 -0.019426 0.876000
-0.019014 -0.002139 0.884000
-0.013778 0.038217 0.875000
0.007496 0.006187 0.878000
0.017077 0.019357 0.869000
0.020868 -0.032841 0.878000
0.028191 0.026514 0.881000
-0.028152 -0.023699 0.874000
-0.002638 -0.016311 0.883000
-0.000824 -0.026972 0.887000
-0.011425 -0.029195 0.888000
-0.021975 -0.033870 0.886000
0.019311 -0.003550 0.873000
-0.000094 -0.043765 0.887000
0.011524 -0.036621 0.882000
0.020460 -0.021950 0.876000
-0.025057 0.026453 0.879000
-0.005942 -0.035408 0.888000
-0.019653 0.022499 0.880000
0.006071 -0.008296 0.881000
-0.017420 0.036500 0.877000
0.006789 -0.019515 0.880000
0.013188 0.011887 0.872000
0.026589 0.033574 0.876000
-0.028512 -0.022260 0.874000
-0.018348 -0.013829 0.887000
-0.013587 -0.007979 0.886000
-0.023637 0.019964 0.880000
0.024673 0.031626 0.872000
-0.027824 0.033896 0.875000
-0.003018 -0.043083 0.888000
-0.024361 0.022862 0.880000
-0.021781 -0.036710 0.893000
0.009969 0.012260 0.873000
-0.015739 0.004410 0.884000
0.027860 -0.034443 0.882000
0.000267 0.024117 0.873000
-0.008135 -0.026637 0.888000
-0.001169 0.034497 0.872000
-0.001180 -0.049939 0.880000
-0.027496 0.032132 0.876000
0.019179 0.028590 0.867000
0.026589 0.037179 0.876000
0.021927 -0.024502 0.877000
-0.013618 -0.025906 0.888000
0.006456 -0.048711 0.884000
-0.016486 -0.006513 0.885000
0.027042 -0.010810 0.879000
0.007111 0.013368 0.875000
-0.022364 -0.026607 0.887000
-0.022678 -0.014526 0.885000
0.005310 0.014809 0.875000
-0.025086 -0.029656 0.880000
-0.006681 -0.042400 0.889000
0.031812 -0.029660 0.891000
-0.002974 0.025973 0.875000
0.007454 0.015134 0.873000
0.011685 0.034656 0.867000
0.022084 0.020430 0.869000
-0.021801 0.033689 0.879000
-0.009940 -0.013084 0.886000
-0.020083 -0.003954 0.883000
-0.009554 0.003682 0.884000
-0.016679 0.036458 0.876000
0.024730 0.004720 0.874000
0.002097 -0.047416 0.887000
0.025061 0.014416 0.873000
0.011472 -0.016580 0.878000
-0.015341 0.012749 0.882000
0.021492 -0.007151 0.874000
0.012947 -0.031105 0.880000
0.008512 0.020835 0.871000
0.021295 0.037824 0.866000
0.005644 0.026571 0.871000
0.002766 0.044699 0.868000
0.002824 -0.031317 0.886000
-0.024081 -0.026487 0.883000
0.027011 0.009078 0.878000
0.030141 0.013157 0.885000
0.016912 -0.028537 0.879000
-0.030311 -0.022260 0.874000
-0.008876 -0.039839 0.889000
0.025957 -0.027090 0.879000
-0.013103 0.024616 0.878000
0.013294 -0.024919 0.879000
-0.016869 -0.011625 0.886000
-0.023248 0.030795 0.879000
0.025032 0.036651 0.872000
0.004933 0.029114 0.872000
0.005352 -0.010121 0.882000
-0.021269 -0.016019 0.887000
0.019870 0.034616 0.866000
0.013562 0.003277 0.873000
-0.019143 -0.025231 0.890000
-0.003728 -0.018855 0.883000
0.008571 0.008345 0.877000
-0.017781 0.037222 0.877000
-0.015271 0.029676 0.878000
0.016225 -0.038755 0.881000
-0.021999 -0.035368 0.887000
-0.008756 0.019896 0.877000
0.002415 0.035492 0.870000
0.031375 0.000410 0.889000
0.014183 0.033943 0.867000
-0.017020 0.040018 0.875000
0.000266 0.044751 0.869000
0.010626 0.031838 0.868000
0.004244 0.009800 0.878000
-0.016850 -0.005784 0.885000
-0.016158 -0.018210 0.887000
0.006002 0.025137 0.871000
0.031410 -0.021202 0.890000
0.012470 0.009733 0.872000
-0.001913 -0.010508 0.884000
0.029379 0.005501 0.884000
0.023759 -0.029950 0.878000
-0.028839 -0.022234 0.873000
0.006085 -0.049382 0.883000
-0.004110 -0.048146 0.887000
-0.009200 0.001501 0.885000
0.016133 -0.014379 0.876000
0.022826 0.017231 0.870000
-0.022213 0.006208 0.881000
0.030974 0.004430 0.888000
-0.003015 -0.032083 0.887000
-0.010305 -0.004697 0.886000
-0.001188 -0.048456 0.886000
0.012755 0.035727 0.867000
0.008522 0.019424 0.872000
-0.001535 0.017349 0.876000
-0.010984 0.013112 0.882000
-0.001893 0.020931 0.875000
-0.009929 -0.049494 0.885000
-0.020810 -0.001774 0.883000
-0.010997 0.010946 0.883000
-0.028217 0.031050 0.876000
-0.025751 -0.030312 0.878000
0.031812 -0.027093 0.891000
-0.005476 -0.051638 0.872000
-0.013648 -0.035488 0.890000
-0.011360 0.010946 0.883000
-0.011059 -0.027733 0.888000
0.010423 -0.029327 0.881000
0.010984 0.031481 0.868000
-0.019488 -0.024471 0.889000
-0.024135 -0.018169 0.885000
-0.004091 -0.049019 0.883000
0.003188 -0.048092 0.886000
0.023515 0.033663 0.869000
-0.015864 -0.045429 0.891000
0.016188 -0.031431 0.879000
-0.016467 0.002954 0.884000
-0.018286 -0.001412 0.884000
-0.017821 0.025006 0.879000
-0.007387 -0.024389 0.886000
0.026288 -0.018386 0.878000
-0.025564 -0.016693 0.884000
-0.011817 -0.039151 0.890000
-0.019225 0.036861 0.877000
0.012799 0.019379 0.870000
0.003549 -0.036381 0.885000
-0.008520 -0.045378 0.890000
-0.027824 -0.025886 0.875000
0.008952 -0.003213 0.879000
0.015137 -0.037305 0.881000
0.022442 0.026868 0.869000
-0.014365 -0.029960 0.889000
0.006071 -0.005758 0.881000
0.030539 0.012807 0.886000
-0.018524 0.032928 0.878000
-0.010718 -0.038785 0.890000
-0.014316 -0.009802 0.886000
-0.021488 -0.001770 0.881000
-0.003383 -0.040525 0.888000
0.025061 0.029147 0.873000
-0.014681 -0.016366 0.886000
0.029844 -0.030622 0.887000
0.003525 -0.050244 0.879000
0.028223 -0.012662 0.882000
0.022520 0.006503 0.872000
-0.011386 0.002593 0.885000
0.024900 -0.039798 0.880000
-0.016411 0.014548 0.881000
-0.022289 -0.009052 0.884000
0.030712 -0.024893 0.891000
-0.001921 -0.028098 0.888000
-0.013222 -0.009802 0.886000
-0.010212 0.019557 0.878000
-0.021659 -0.025906 0.888000
-0.016923 0.041222 0.870000
0.012902 -0.012590 0.877000
-0.019014 -0.003595 0.884000
0.006735 0.017649 0.873000
0.006065 -0.004303 0.880000
0.017136 0.002914 0.872000
0.015949 0.033904 0.866000
0.031812 -0.023793 0.891000
-0.014015 -0.038785 0.890000
-0.010657 0.002229 0.885000
0.013082 0.044901 0.865000
-0.011450 -0.037319 0.890000
0.007192 -0.046216 0.885000
0.004516 0.048591 0.861000
-0.022730 -0.021130 0.887000
-0.008414 0.017047 0.879000
0.032619 -0.023846 0.893000
-0.007304 0.024560 0.876000
-0.020219 -0.025203 0.889000
-0.012549 -0.041349 0.890000
0.001730 -0.030952 0.886000
0.019558 0.023264 0.868000
-0.016012 0.021388 0.879000
0.017997 -0.032879 0.879000
0.002420 0.033421 0.872000
-0.009565 -0.048401 0.885000
-0.013282 -0.042814 0.890000
0.013422 0.045916 0.864000
-0.012887 -0.045276 0.888000
0.026199 0.036057 0.875000
-0.005882 0.015600 0.879000
0.031009 -0.019714 0.889000
0.014741 -0.025281 0.879000
-0.025869 0.012386 0.882000
-0.025029 0.018473 0.878000
-0.025000 0.035056 0.877000
-0.010212 0.031121 0.878000
-0.019444 -0.037194 0.887000
0.008522 0.019065 0.872000
-0.026444 0.032529 0.877000
0.029709 0.034569 0.883000
-0.021077 0.031157 0.879000
0.028619 -0.020308 0.883000
-0.018328 -0.011261 0.886000
-0.006308 -0.047835 0.888000
0.010737 -0.002122 0.877000
0.000634 -0.025425 0.884000
-0.006286 -0.023268 0.885000
-0.020786 -0.008669 0.882000
-0.018204 0.021775 0.880000
-0.007752 -0.008343 0.886000
0.018254 -0.007151 0.874000
0.029445 -0.034964 0.886000
-0.025419 0.031157 0.879000
-0.000094 -0.039340 0.886000
0.012696 0.047639 0.863000
0.026589 0.022397 0.876000
0.015718 0.000762 0.873000
-0.025419 -0.029623 0.879000
-0.021269 -0.014559 0.887000
0.014199 0.026837 0.868000
0.013112 0.032515 0.867000
-0.004101 -0.023633 0.885000
0.027829 -0.018087 0.881000
-0.005576 -0.026637 0.888000
0.024065 -0.014018 0.876000
-0.020083 0.002951 0.883000
0.004282 -0.028400 0.886000
-0.027166 -0.020892 0.877000
0.003869 0.015889 0.875000
0.014248 0.010798 0.871000
0.013922 0.005073 0.873000
-0.010984 0.013475 0.882000
0.019179 0.027163 0.867000
0.007192 -0.048401 0.885000
-0.022912 0.003665 0.880000
-0.016926 -0.025935 0.889000
0.024286 0.025137 0.871000
0.003152 0.015186 0.876000
0.020844 -0.027389 0.877000
0.019648 -0.001393 0.872000
0.007885 -0.025339 0.881000
0.026318 -0.027814 0.879000
-0.007262 0.041269 0.871000
0.025061 0.019446 0.873000
-0.012858 -0.009802 0.886000
-0.006293 -0.025118 0.886000
-0.013556 0.008048 0.884000
0.021492 -0.007511 0.874000
0.030175 -0.007614 0.886000
0.001730 -0.038610 0.886000
0.014758 -0.030743 0.880000
0.019536 0.030374 0.867000
-0.008856 -0.024781 0.887000
-0.012019 0.027869 0.878000
-0.029524 -0.025798 0.872000
-0.011950 0.040286 0.873000
0.007343 0.048889 0.860000
-0.013192 0.008048 0.884000
-0.007321 -0.050187 0.878000
-0.019079 -0.012734 0.887000
-0.001887 0.036292 0.872000
-0.013282 -0.033656 0.890000
0.026288 -0.019471 0.878000
-0.001552 -0.036058 0.886000
-0.000457 -0.015947 0.883000
0.014914 0.024336 0.868000
0.033023 -0.031232 0.894000
-0.001917 -0.035328 0.886000
-0.002184 0.045415 0.848000
0.003918 -0.047362 0.886000
0.026229 0.016628 0.876000
-0.022576 0.020349 0.881000
-0.011059 -0.046373 0.888000
0.018742 -0.037987 0.880000
0.011819 -0.011507 0.877000
0.028982 0.004768 0.883000
0.030539 0.021559 0.886000
-0.010200 0.025671 0.877000
-0.018286 -0.001048 0.884000
0.001659 0.046571 0.850000
-0.019969 0.034735 0.878000
0.026620 0.009067 0.877000
0.009665 -0.000679 0.878000
0.007876 -0.012271 0.880000
0.012236 -0.030778 0.881000
0.012139 0.001482 0.874000
-0.000458 -0.034964 0.886000
-0.013826 0.031121 0.878000
-0.011360 0.011310 0.883000
0.022186 -0.002113 0.873000
-0.015236 0.035377 0.876000
0.001001 -0.046320 0.887000
0.018974 -0.010029 0.874000
0.029015 -0.012691 0.884000
0.028586 0.005126 0.882000
-0.012549 -0.037319 0.890000
0.013324 -0.032228 0.881000
0.011315 0.039606 0.866000
0.027466 -0.031866 0.881000
-0.019356 0.004041 0.883000
-0.005526 0.015256 0.880000
0.012755 0.036084 0.867000
-0.002646 -0.048456 0.886000
0.013309 -0.031105 0.880000
0.008840 0.036483 0.868000
-0.027135 0.029247 0.876000
0.024673 0.032703 0.872000
-0.004753 0.040911 0.871000
-0.001547 -0.022125 0.883000
-0.011373 0.005865 0.884000
-0.004807 0.011647 0.881000
0.010773 -0.023861 0.880000
0.011367 0.023318 0.870000
-0.004747 0.041938 0.870000
0.028982 -0.002137 0.883000
0.013578 -0.000676 0.874000
-0.015012 0.009503 0.884000
-0.012422 0.014185 0.881000
0.002075 0.014137 0.878000
0.018635 -0.013282 0.875000
-0.003361 -0.049326 0.882000
0.018699 -0.027421 0.878000
0.013127 0.028623 0.868000
0.006434 -0.011922 0.881000
-0.025086 -0.026397 0.880000
0.012499 0.001122 0.874000
0.017535 -0.009310 0.874000
-0.018950 0.019624 0.881000
-0.007577 0.042101 0.866000
0.029015 -0.010144 0.884000
0.021952 -0.033925 0.878000
0.008502 0.026899 0.870000
0.012167 -0.003923 0.876000
0.015682 0.010439 0.871000
-0.004802 0.014169 0.880000
-0.000459 -0.047781 0.887000
-0.010282 0.002227 0.884000
-0.011084 -0.041715 0.890000
0.018865 0.017926 0.869000
0.028619 -0.018855 0.883000
0.014640 0.003277 0.873000
0.015120 -0.034003 0.880000
0.013188 0.011528 0.872000
0.003869 0.015529 0.875000
0.017772 0.023264 0.868000
-0.029882 -0.024721 0.872000
-0.012465 0.008412 0.884000
0.027466 -0.026789 0.881000
0.021345 0.029695 0.868000
0.004273 -0.049074 0.884000
0.019179 0.025735 0.867000
0.007548 -0.027972 0.884000
0.021827 -0.004987 0.873000
0.005709 -0.014823 0.881000
0.022905 0.001121 0.873000
-0.019268 0.026453 0.879000
-0.006180 -0.052952 0.870000
-0.006293 -0.048456 0.886000
-0.004840 -0.033178 0.887000
-0.023222 0.036542 0.878000
0.014001 -0.022000 0.878000
-0.009940 -0.005426 0.886000
0.007176 -0.026487 0.883000
-0.021659 -0.021520 0.888000
-0.026444 -0.027750 0.877000
0.019915 0.023264 0.868000
0.008840 0.036125 0.868000
-0.019809 -0.014559 0.887000
-0.026384 0.035336 0.875000
0.017195 -0.010041 0.875000
0.028255 -0.026850 0.883000
-0.011022 -0.014526 0.885000
-0.005583 -0.027398 0.889000
-0.024054 -0.027546 0.882000
-0.003364 -0.018855 0.883000
-0.025957 -0.016712 0.885000
0.021702 0.027909 0.868000
0.032215 -0.035935 0.892000
-0.016176 -0.022251 0.888000
0.007902 -0.035209 0.883000
0.006065 -0.002854 0.880000
0.000983 0.036250 0.871000
-0.000821 -0.024333 0.884000
0.018422 0.039561 0.865000
-0.018971 0.010934 0.882000
-0.016850 -0.002506 0.885000
0.011498 -0.026397 0.880000
-0.024695 0.031518 0.879000
0.019039 -0.026668 0.877000
-0.010537 0.034976 0.875000
0.014982 0.009016 0.872000
0.002071 0.016268 0.876000
0.020868 -0.029950 0.878000
0.021652 0.039963 0.866000
-0.012872 -0.046686 0.887000
0.012370 0.043833 0.865000
0.012069 0.024364 0.869000
0.004631 -0.025033 0.883000
0.006065 -0.003941 0.880000
0.024701 0.015493 0.873000
0.014506 0.043121 0.865000
0.029743 0.023329 0.884000
0.018296 -0.017623 0.876000
0.010785 -0.029327 0.881000
-0.001526 0.039835 0.871000
-0.022576 0.009471 0.881000
-0.012549 -0.036953 0.890000
0.012902 -0.014034 0.877000
0.005702 -0.015169 0.880000
0.019806 -0.034326 0.879000
-0.004110 -0.036098 0.887000
0.005644 0.031231 0.871000
0.019444 -0.035049 0.879000
0.026650 -0.010798 0.878000
-0.016579 -0.032191 0.890000
0.005722 -0.003954 0.883000
0.002459 -0.031317 0.886000
-0.021173 0.005132 0.883000
-0.023999 0.026483 0.880000
-0.025751 0.017389 0.878000
0.026199 0.038578 0.875000
0.031776 0.004073 0.890000
-0.004399 0.036651 0.872000
0.013173 0.014024 0.871000
-0.008386 0.023118 0.876000
-0.022238 0.008030 0.882000
0.006071 -0.049996 0.881000
0.008942 0.003296 0.878000
-0.003004 -0.015238 0.884000
-0.005064 0.044087 0.863000
0.027797 0.000043 0.880000
0.018017 -0.037624 0.880000
0.015646 0.020430 0.869000
-0.020585 -0.029594 0.889000
0.027042 0.000767 0.879000
-0.003690 0.033138 0.874000
-0.002964 0.035574 0.872000
0.030277 -0.026667 0.889000
0.002773 0.037283 0.870000
-0.010305 -0.021836 0.886000
0.011833 -0.016218 0.878000
0.020389 -0.003191 0.873000
0.008871 0.023703 0.871000
0.011406 0.008667 0.873000
-0.003334 0.032455 0.875000
0.012250 -0.035895 0.882000
0.014363 -0.021277 0.878000
0.009377 -0.049130 0.885000
0.024673 0.018347 0.872000
0.027829 -0.016999 0.881000
0.002356 0.044769 0.849000
-0.017882 0.012023 0.882000
-0.012741 0.031844 0.878000
-0.009128 0.018473 0.878000
-0.017923 0.001863 0.884000
0.004995 -0.049382 0.883000
0.009752 0.047845 0.854000
0.011380 0.017609 0.871000
0.017615 -0.024530 0.878000
-0.017882 0.010208 0.882000
0.024815 -0.022336 0.877000
0.013082 0.041697 0.865000
0.006099 -0.029825 0.885000
0.001343 0.033421 0.872000
-0.002617 0.028166 0.876000
0.026650 0.002573 0.878000
0.015700 0.005785 0.872000
-0.009211 -0.013813 0.886000
-0.006991 0.011297 0.882000
0.006789 -0.016980 0.880000
-0.012887 -0.028464 0.888000
0.021084 -0.000316 0.872000
-0.020083 0.007676 0.883000
0.008512 0.021194 0.871000
-0.018993 0.005858 0.883000
0.004215 0.022295 0.872000
0.026199 0.035336 0.875000
-0.015994 0.030398 0.878000
-0.005583 -0.046425 0.889000
0.000997 -0.010496 0.883000
0.007192 -0.048037 0.885000
-0.021077 0.028262 0.879000
0.023705 -0.017263 0.876000
0.029346 0.022939 0.883000
-0.013103 0.027146 0.878000
0.016854 -0.014379 0.876000
-0.015722 0.008766 0.883000
-0.022938 0.020712 0.881000
0.001001 -0.029527 0.887000
0.010946 0.045969 0.865000
-0.017638 -0.018596 0.888000
-0.016523 -0.017480 0.887000
0.025809 0.039972 0.874000
0.019847 0.038849 0.865000
0.029346 0.028754 0.883000
-0.003368 -0.022878 0.884000
0.030175 0.002961 0.886000
-0.014300 -0.002506 0.885000
-0.022213 0.005845 0.881000
0.027435 -0.007563 0.880000
-0.024081 -0.025033 0.883000
0.029743 0.016416 0.884000
-0.000094 -0.025818 0.885000
0.017293 -0.034365 0.880000
-0.022163 0.031157 0.879000
-0.007665 -0.050433 0.876000
0.027134 0.025818 0.882000
-0.022024 -0.020789 0.888000
-0.004785 0.017008 0.877000
-0.007221 0.041745 0.866000
0.033428 -0.027952 0.895000
0.020053 -0.010749 0.874000
-0.010340 -0.046059 0.889000
0.011498 -0.026759 0.880000
-0.005193 -0.010884 0.885000
-0.013222 -0.009437 0.886000
0.015068 -0.018365 0.877000
0.010688 0.010463 0.873000
0.027860 -0.023552 0.882000
-0.002638 -0.017764 0.883000
0.009544 0.041436 0.867000
-0.000820 -0.014857 0.883000
0.027860 -0.034806 0.882000
-0.024886 0.038849 0.873000
-0.018950 0.017448 0.881000
-0.023275 0.022499 0.880000
-0.007039 -0.035408 0.888000
0.026980 0.034334 0.877000
-0.007778 -0.027398 0.889000
-0.013017 -0.049058 0.897000
-0.001178 0.014876 0.879000
0.011498 -0.024948 0.880000
-0.016923 0.040864 0.870000
-0.012338 0.036777 0.875000
-0.018286 0.003682 0.884000
-0.025086 0.009460 0.880000
0.002824 -0.028764 0.886000
-0.019924 0.038982 0.876000
0.015051 -0.011494 0.876000
-0.023610 0.030795 0.879000
-0.005949 -0.044595 0.889000
-0.025722 0.020257 0.877000
-0.026774 0.029608 0.876000
0.022059 0.026480 0.868000
-0.012380 0.025701 0.878000
-0.012324 0.038893 0.874000
0.019892 0.026449 0.867000
0.006009 0.019424 0.872000
-0.020928 -0.032119 0.888000
0.001353 0.013775 0.878000
0.027766 0.039116 0.879000
-0.025592 0.009514 0.885000
0.010737 -0.005010 0.877000
-0.008886 -0.045012 0.890000
0.013531 0.014024 0.871000
0.019223 0.018284 0.869000
0.031009 -0.032521 0.889000
-0.022912 0.003303 0.880000
0.017655 -0.038711 0.880000
-0.009565 -0.019626 0.885000
0.027797 0.017791 0.880000
-0.015828 -0.026301 0.889000
0.008154 0.024779 0.871000
0.002097 -0.029892 0.887000
-0.007296 -0.050736 0.875000
-0.015793 -0.015654 0.887000
0.028191 0.009834 0.881000
0.003909 -0.033793 0.884000
-0.025114 -0.024976 0.881000
-0.002638 -0.018855 0.883000
0.006758 0.012662 0.876000
-0.018348 -0.014924 0.887000
0.014657 -0.004274 0.874000
0.012667 0.048946 0.861000
0.024342 0.010463 0.873000
-0.018608 0.010934 0.882000
0.003505 0.029540 0.874000
-0.022062 0.038938 0.875000
0.021777 0.010439 0.871000
-0.007379 -0.017440 0.885000
-0.013648 -0.034755 0.890000
-0.003004 -0.014874 0.884000
0.026741 -0.036579 0.881000
-0.007743 -0.022176 0.885000
-0.030241 -0.026515 0.872000
-0.000808 0.040147 0.870000
-0.018714 -0.037559 0.887000
0.000999 -0.048766 0.885000
-0.008726 0.035656 0.874000
0.007054 0.037554 0.868000
-0.006538 0.041580 0.870000
0.011034 0.013681 0.872000
0.010651 0.022602 0.870000
0.012902 -0.012951 0.877000
0.000633 -0.018833 0.882000
0.004933 0.024089 0.872000
