-0.010235 -0.030743 0.880000
0.045125 -0.002093 0.865000
0.019643 -0.022982 0.888000
0.014808 -0.011223 0.883000
0.015154 -0.034443 0.882000
-0.027321 -0.014840 0.882000
-0.017700 -0.002472 0.873000
-0.008507 0.009510 0.852000
0.007902 -0.010132 0.883000
0.021729 0.006025 0.855000
0.030316 0.023023 0.859000
0.049341 0.002888 0.864000
0.023824 -0.037119 0.894000
-0.013936 -0.010884 0.885000
-0.033265 -0.024113 0.876000
-0.015241 0.007793 0.856000
0.026281 -0.022667 0.890000
-0.046644 0.002191 0.870000
0.016280 -0.011963 0.884000
-0.020079 0.011614 0.852000
-0.019071 -0.000673 0.870000
0.020600 0.009861 0.852000
-0.008098 -0.019604 0.884000
-0.028047 -0.007580 0.882000
0.042599 -0.010810 0.879000
0.049835 0.010173 0.879000
-0.040324 0.005027 0.865000
0.037741 0.002871 0.859000
0.016969 -0.034806 0.882000
-0.026206 0.015711 0.846000
0.029440 -0.010041 0.875000
-0.025131 0.016735 0.845000
0.027359 0.017989 0.855000
-0.030776 -0.003566 0.877000
0.033537 0.024112 0.860000
-0.034588 -0.001035 0.873000
0.004814 0.011951 0.851000
0.009741 0.014085 0.853000
-0.051176 0.001482 0.874000
0.032867 0.025557 0.861000
-0.008868 0.007766 0.853000
0.019175 0.012651 0.851000
-0.016831 -0.014146 0.884000
0.018934 -0.021178 0.889000
-0.022938 -0.019174 0.881000
-0.040351 0.018759 0.858000
0.028457 -0.005310 0.867000
0.027327 0.016562 0.854000
0.042570 -0.005693 0.871000
-0.020610 0.017431 0.845000
0.047665 -0.009363 0.879000
0.018670 0.002874 0.860000
-0.007354 -0.022463 0.882000
-0.011684 -0.025672 0.880000
0.036750 -0.003891 0.869000
0.000269 -0.031467 0.880000
-0.000458 -0.019990 0.885000
0.015552 -0.028700 0.884000
-0.004105 -0.011625 0.886000
-0.028079 -0.013040 0.883000
-0.016456 0.019541 0.846000
-0.026504 -0.021663 0.879000
-0.040492 0.007484 0.861000
0.027892 -0.011949 0.883000
0.024831 -0.000669 0.865000
0.043896 -0.008970 0.876000
0.012711 -0.002091 0.864000
-0.017059 -0.028111 0.877000
0.046797 -0.000313 0.863000
-0.016355 -0.029589 0.878000
0.041685 -0.007880 0.875000
0.002728 0.003565 0.856000
-0.028806 -0.010496 0.883000
0.036200 0.013078 0.856000
-0.015393 -0.011248 0.885000
-0.026113 -0.022000 0.878000
-0.033227 -0.002118 0.875000
0.034559 0.002517 0.859000
-0.036510 -0.022311 0.876000
0.049455 -0.000670 0.866000
-0.019014 -0.014146 0.884000
0.010115 0.004969 0.855000
0.002085 -0.027183 0.882000
0.031163 -0.012313 0.883000
0.007885 -0.032228 0.881000
-0.027157 0.007423 0.854000
-0.032934 0.007105 0.858000
0.040122 0.007097 0.857000
-0.034271 0.002179 0.865000
-0.005828 -0.004259 0.871000
0.001720 -0.028965 0.881000
0.000271 -0.011625 0.886000
0.019548 0.008809 0.852000
-0.040976 -0.015151 0.879000
0.026999 -0.003165 0.866000
0.004626 -0.029361 0.882000
0.031445 -0.023793 0.891000
0.021702 -0.002101 0.868000
0.019444 -0.009001 0.879000
0.026242 0.015490 0.853000
0.005527 0.009170 0.853000
-0.015704 -0.020648 0.882000
0.037077 0.001812 0.860000
-0.019983 0.004305 0.863000
0.006627 0.001457 0.859000
-0.010987 0.006721 0.854000
0.020600 0.015822 0.852000
-0.034902 0.004660 0.863000
0.000996 -0.027183 0.882000
0.047917 -0.008259 0.877000
-0.006620 -0.008296 0.881000
-0.041209 -0.026153 0.884000
0.030608 -0.028464 0.888000
0.013399 -0.034964 0.886000
-0.005526 -0.027845 0.880000
-0.044138 0.008212 0.863000
0.042357 -0.007511 0.874000
-0.045730 -0.009083 0.887000
-0.043981 -0.023699 0.874000
-0.012393 0.007775 0.854000
0.006120 0.001140 0.888000
-0.002207 0.003570 0.857000
0.032868 -0.010460 0.880000
0.046781 -0.008610 0.876000
0.010092 0.011628 0.853000
0.004273 -0.010871 0.884000
-0.007842 0.004622 0.856000
-0.015757 -0.012705 0.885000
-0.006387 0.018584 0.850000
-0.033433 -0.000315 0.871000
-0.009873 -0.007200 0.880000
0.019300 -0.021544 0.889000
-0.025191 0.015032 0.847000
0.043954 -0.004970 0.870000
0.038666 0.011316 0.856000
-0.018266 -0.015947 0.883000
-0.027197 -0.004293 0.878000
-0.019992 -0.024196 0.879000
-0.029070 -0.005389 0.880000
0.014305 0.013383 0.853000
-0.024088 0.021604 0.845000
0.011887 -0.032991 0.882000
0.003541 -0.009769 0.883000
-0.032135 0.000399 0.865000
-0.005332 0.015417 0.849000
-0.021107 0.011951 0.851000
0.018847 0.014419 0.852000
-0.032432 -0.001035 0.873000
-0.028830 0.002526 0.862000
-0.043509 -0.003936 0.879000
-0.027443 0.002529 0.863000
-0.026444 -0.025224 0.877000
-0.011322 -0.006838 0.880000
-0.036433 0.022406 0.849000
-0.019318 0.002891 0.865000
-0.019241 0.017800 0.846000
-0.050874 0.012648 0.875000
0.031269 -0.033140 0.886000
-0.016831 -0.015238 0.884000
0.029712 -0.002086 0.862000
0.009422 0.002861 0.856000
0.011927 -0.011977 0.885000
-0.032543 0.007802 0.857000
0.024107 0.013367 0.852000
-0.003011 -0.013084 0.886000
0.024925 0.021181 0.856000
0.025886 -0.024837 0.889000
-0.033054 -0.005027 0.880000
0.014909 -0.016421 0.889000
-0.002635 -0.024641 0.882000
-0.005929 -0.013084 0.886000
-0.030345 -0.026967 0.875000
-0.025535 -0.009769 0.883000
-0.021578 0.000043 0.870000
0.035718 -0.004612 0.870000
0.018017 -0.009374 0.880000
-0.037334 0.001475 0.870000
-0.007079 0.017514 0.849000
-0.028262 0.016735 0.845000
-0.027881 0.019495 0.844000
-0.009536 0.012287 0.850000
-0.002197 0.006362 0.853000
0.015189 -0.030519 0.884000
0.035102 0.006376 0.855000
0.000960 0.014036 0.850000
0.013619 0.013750 0.854000
-0.000793 0.005666 0.854000
-0.008537 0.005321 0.855000
0.021010 -0.011963 0.884000
-0.014995 -0.017037 0.883000
0.008610 -0.032228 0.881000
0.031450 0.001460 0.861000
-0.000824 -0.016019 0.887000
-0.013118 -0.026367 0.879000
-0.009176 0.018911 0.849000
-0.005199 -0.011625 0.886000
0.006478 -0.013464 0.887000
0.008697 0.008478 0.854000
-0.005888 -0.031467 0.880000
-0.039886 0.000760 0.871000
-0.007752 -0.013084 0.886000
-0.036347 0.019913 0.847000
-0.023368 0.000043 0.870000
-0.015080 -0.002098 0.867000
0.027987 -0.013813 0.886000
0.009033 -0.021130 0.887000
-0.023664 -0.017724 0.881000
0.000613 0.005315 0.854000
0.009731 -0.026880 0.884000
0.027778 -0.021959 0.891000
0.036552 0.013078 0.856000
-0.010636 0.007072 0.854000
-0.030356 0.007432 0.855000
-0.011684 -0.006838 0.880000
-0.009211 -0.014178 0.886000
-0.033954 0.008860 0.857000
0.026134 -0.013069 0.885000
-0.019312 -0.020987 0.881000
-0.030995 -0.001035 0.873000
0.028145 -0.019392 0.891000
-0.014035 0.017472 0.847000
0.034245 0.001812 0.860000
-0.029653 0.022648 0.845000
0.014811 -0.001022 0.862000
-0.014570 0.005339 0.858000
-0.027856 -0.025555 0.876000
0.016362 -0.003176 0.869000
-0.006201 -0.006424 0.873000
0.009444 0.001455 0.858000
0.007813 -0.007862 0.873000
-0.051000 0.005062 0.871000
-0.029403 0.004633 0.858000
-0.009559 0.009861 0.852000
-0.020610 0.017083 0.845000
-0.028362 0.014352 0.848000
-0.039529 -0.014428 0.879000
0.028315 0.011965 0.852000
0.025154 -0.023373 0.889000
0.021398 -0.031282 0.885000
0.021277 0.011600 0.851000
-0.036696 0.019215 0.847000
0.017470 -0.016787 0.889000
-0.045256 0.011422 0.864000
-0.038360 0.012681 0.853000
0.023557 -0.032702 0.884000
-0.007726 -0.009405 0.883000
-0.021900 -0.014857 0.883000
-0.021457 0.012301 0.851000
0.034750 0.005673 0.855000
-0.022666 0.008508 0.857000
0.000636 -0.017115 0.887000
0.047285 -0.005699 0.872000
0.028315 0.010913 0.852000
-0.008098 -0.009780 0.884000
-0.038488 -0.013358 0.880000
0.009388 0.000044 0.886000
-0.003934 0.015417 0.849000
0.046743 0.001107 0.862000
0.002814 -0.025760 0.883000
0.041727 0.001460 0.861000
-0.041870 -0.022645 0.875000
-0.014400 0.014003 0.848000
-0.039749 0.002544 0.868000
-0.019219 0.018127 0.845000
0.015970 -0.013829 0.887000
0.025740 -0.034521 0.884000
0.010482 -0.012719 0.886000
-0.022601 -0.016292 0.882000
0.025711 -0.011949 0.883000
0.004464 0.013001 0.851000
0.013251 0.013032 0.853000
0.042551 -0.009714 0.878000
0.023272 -0.013829 0.887000
-0.038444 -0.014428 0.879000
-0.028957 0.022996 0.845000
0.038666 0.008850 0.856000
-0.005332 0.013320 0.849000
0.043904 0.000043 0.862000
0.018273 0.004633 0.858000
0.016006 -0.020446 0.889000
0.027455 0.024409 0.858000
0.011496 0.011277 0.853000
0.010127 0.004270 0.856000
-0.031986 0.003941 0.861000
-0.050727 -0.002142 0.885000
0.034246 -0.004249 0.869000
0.021402 0.005327 0.856000
0.019688 -0.020469 0.890000
0.019265 0.006376 0.855000
-0.053096 0.009119 0.882000
0.016969 -0.034443 0.882000
-0.015429 0.019564 0.847000
0.040522 0.004986 0.858000
-0.009895 -0.021374 0.882000
-0.011339 0.008478 0.854000
-0.028508 0.002174 0.863000
-0.026053 -0.003202 0.876000
-0.022320 -0.000674 0.871000
0.020226 0.013001 0.851000
0.040558 -0.007151 0.874000
0.032543 -0.010835 0.881000
-0.009884 -0.023888 0.881000
0.010095 -0.026880 0.884000
0.011509 0.008126 0.854000
0.032753 0.019112 0.858000
0.014494 -0.024753 0.886000
0.024458 0.008809 0.852000
0.011900 -0.034482 0.883000
-0.007726 -0.021399 0.883000
0.025391 -0.007135 0.872000
0.018146 0.010562 0.852000
0.044969 0.000397 0.862000
-0.022038 0.006768 0.860000
-0.046805 0.019446 0.873000
-0.043377 0.010686 0.862000
0.002782 -0.007502 0.873000
0.030140 0.014453 0.854000
-0.008165 0.008117 0.853000
0.033608 -0.024865 0.890000
0.049335 0.007312 0.883000
-0.043311 -0.021925 0.875000
-0.015994 -0.028143 0.878000
0.022542 -0.013829 0.887000
-0.024472 -0.010871 0.884000
0.048553 -0.009758 0.882000
-0.003361 0.003311 0.882000
-0.018545 0.015711 0.846000
-0.041463 -0.000676 0.874000
-0.030623 -0.009405 0.883000
-0.003584 0.013320 0.849000
-0.000090 0.009861 0.852000
-0.035943 0.000760 0.871000
0.017608 0.003228 0.860000
0.014065 -0.034443 0.882000
-0.020739 -0.020601 0.880000
-0.040060 0.003611 0.867000
0.011589 -0.013464 0.887000
0.034709 0.010587 0.854000
-0.009554 -0.017421 0.884000
0.049835 0.009811 0.879000
0.027260 -0.001023 0.863000
0.039064 0.004980 0.857000
0.025507 -0.009691 0.876000
0.023784 0.016543 0.853000
0.035102 0.012711 0.855000
-0.030986 -0.011223 0.883000
0.017435 -0.002818 0.869000
0.017104 -0.017153 0.889000
0.029153 0.005327 0.856000
-0.028262 0.022996 0.845000
-0.018224 -0.019537 0.881000
0.033260 -0.000667 0.862000
-0.017497 0.003239 0.863000
0.020487 0.002171 0.862000
-0.014732 0.018867 0.847000
-0.025535 -0.009042 0.883000
-0.015348 0.002171 0.862000
-0.013118 -0.006107 0.879000
0.023351 -0.028528 0.890000
0.010494 -0.022226 0.887000
0.017008 -0.030883 0.884000
0.027186 -0.008571 0.872000
-0.042014 -0.015495 0.878000
-0.044493 0.008212 0.863000
0.017836 -0.021544 0.889000
-0.039459 0.012696 0.854000
0.028293 0.000043 0.862000
-0.003357 -0.027514 0.881000
0.014177 -0.016787 0.889000
-0.001915 -0.020354 0.885000
-0.019014 -0.013782 0.884000
0.025869 0.000043 0.864000
-0.022697 0.021604 0.845000
-0.017500 0.020237 0.846000
0.007308 0.003213 0.856000
0.032906 -0.011197 0.881000
0.024083 -0.021568 0.890000
0.048629 0.005021 0.864000
0.026704 -0.004601 0.868000
0.022984 -0.016806 0.890000
0.034519 0.003574 0.858000
-0.012814 -0.019945 0.883000
0.009411 0.004969 0.855000
0.017795 0.009861 0.852000
-0.011750 -0.011612 0.885000
0.020366 -0.004623 0.872000
-0.030776 -0.022697 0.877000
0.028162 0.022643 0.858000
0.029512 -0.028829 0.888000
-0.029270 0.017758 0.844000
-0.040514 0.015859 0.854000
-0.019225 -0.028833 0.877000
0.031619 0.015896 0.856000
0.013064 -0.021520 0.888000
-0.019586 -0.027389 0.877000
-0.019241 0.016407 0.846000
-0.034905 -0.005758 0.881000
-0.027135 -0.026998 0.876000
-0.000092 -0.007143 0.873000
0.008697 0.007072 0.854000
-0.025786 0.001827 0.867000
-0.045967 0.012133 0.864000
-0.024472 -0.010144 0.884000
-0.026805 -0.024863 0.877000
0.016317 -0.012719 0.886000
-0.027684 -0.013388 0.882000
0.027971 -0.002089 0.863000
-0.034346 -0.002481 0.876000
-0.052793 0.012037 0.883000
0.002451 -0.026123 0.883000
0.025003 -0.005693 0.871000
-0.010636 0.006721 0.854000
-0.040115 -0.021589 0.876000
-0.046286 0.002191 0.870000
0.037130 -0.009714 0.878000
0.018678 -0.007176 0.877000
-0.027166 -0.025224 0.877000
0.014322 0.008126 0.854000
-0.024407 0.018453 0.844000
-0.028971 -0.022697 0.877000
0.032400 0.019465 0.858000
-0.011373 -0.010144 0.884000
-0.002638 -0.023579 0.883000
0.007679 0.002161 0.858000
-0.043427 0.013540 0.863000
-0.000090 0.014386 0.850000
-0.036083 0.014718 0.849000
-0.026711 0.012651 0.851000
-0.026491 0.022274 0.844000
0.003425 0.006369 0.854000
-0.006030 0.015417 0.849000
0.019198 0.010562 0.852000
0.016354 -0.014941 0.888000
0.009763 0.005673 0.855000
-0.031677 -0.013388 0.882000
-0.001919 -0.015654 0.887000
0.004500 0.002161 0.858000
-0.032514 -0.015619 0.885000
0.050991 0.005799 0.874000
0.041304 -0.002812 0.867000
0.025809 -0.009310 0.874000
0.006924 0.011965 0.852000
0.019555 -0.031974 0.884000
0.011900 -0.029031 0.883000
0.031669 -0.031718 0.887000
0.050168 0.003607 0.866000
-0.007420 0.016446 0.848000
-0.040384 -0.000676 0.874000
-0.015419 -0.001383 0.866000
0.002365 0.016874 0.852000
-0.027793 -0.002115 0.874000
0.028581 0.002874 0.860000
-0.052675 0.002924 0.875000
-0.035448 0.007820 0.859000
-0.021306 0.017083 0.845000
0.042387 0.003228 0.860000
0.009038 0.014436 0.853000
0.040263 0.001458 0.860000
0.011900 -0.029394 0.883000
0.033974 -0.025964 0.890000
0.027615 -0.001378 0.863000
0.006835 -0.021471 0.886000
-0.034152 0.005010 0.862000
0.031619 0.016953 0.856000
-0.046376 0.012503 0.865000
-0.032581 -0.003566 0.877000
-0.013326 -0.003534 0.869000
-0.037401 -0.012995 0.880000
0.019046 0.002877 0.861000
-0.019246 -0.026337 0.878000
0.011887 -0.010121 0.882000
0.009752 0.015156 0.854000
-0.033303 -0.003205 0.877000
-0.021488 -0.019900 0.881000
-0.000821 -0.023242 0.884000
0.031445 -0.023426 0.891000
-0.018197 0.018496 0.846000
0.034395 -0.011573 0.882000
0.003553 -0.021107 0.886000
-0.034945 -0.011210 0.882000
-0.011737 -0.009780 0.884000
0.031598 -0.035653 0.885000
0.002448 -0.027183 0.882000
-0.005882 -0.029261 0.879000
0.004282 -0.020377 0.886000
0.026832 -0.034885 0.884000
0.018338 -0.007907 0.878000
-0.019378 -0.013055 0.884000
0.038314 0.006384 0.856000
-0.006395 0.011250 0.851000
0.016354 -0.014210 0.888000
-0.005688 0.011587 0.850000
0.004287 -0.013464 0.887000
0.022186 -0.004987 0.873000
0.014355 0.005679 0.856000
0.042766 -0.008240 0.875000
-0.021173 -0.008315 0.883000
0.014113 -0.012341 0.885000
0.030555 -0.009691 0.876000
0.047863 0.001463 0.863000
-0.001551 -0.010884 0.885000
-0.021206 0.009895 0.855000
-0.046020 0.013571 0.865000
-0.020716 -0.022387 0.879000
-0.009761 -0.004254 0.870000
-0.041795 -0.009747 0.881000
0.013324 -0.034041 0.881000
0.013339 -0.010121 0.882000
-0.027653 -0.017724 0.881000
-0.011649 0.020357 0.851000
-0.035870 -0.018025 0.878000
-0.017801 -0.026337 0.878000
0.031526 -0.012313 0.883000
-0.024162 0.006414 0.860000
0.026905 0.000398 0.863000
0.024573 0.021886 0.856000
-0.018240 0.013654 0.848000
0.015820 0.003224 0.859000
0.024809 0.013718 0.852000
-0.029793 0.014019 0.849000
-0.037605 0.002901 0.868000
0.044362 -0.001024 0.864000
-0.045914 0.008567 0.863000
-0.043981 -0.000676 0.874000
0.032829 0.002520 0.860000
-0.031485 0.006744 0.857000
0.040758 0.000043 0.863000
0.022804 -0.034845 0.883000
-0.036828 -0.024446 0.875000
0.011249 -0.017153 0.889000
-0.041150 -0.001397 0.875000
0.009764 -0.020765 0.887000
0.025182 -0.022667 0.890000
0.002445 -0.028965 0.881000
-0.025535 -0.008315 0.883000
0.013780 -0.022956 0.887000
-0.034141 -0.015169 0.880000
0.024230 -0.010847 0.882000
-0.008089 -0.020672 0.883000
-0.010910 0.017493 0.848000
0.012549 0.011979 0.853000
-0.044333 -0.004670 0.881000
0.015691 0.011263 0.852000
-0.011943 0.017124 0.847000
0.008336 0.008819 0.853000
-0.003361 -0.024278 0.882000
-0.023697 0.008498 0.856000
0.003513 -0.008610 0.876000
0.023220 -0.032010 0.885000
-0.034311 0.001468 0.866000
0.011589 -0.021130 0.887000
-0.039846 -0.017302 0.878000
-0.027881 0.021926 0.844000
0.016719 -0.022616 0.888000
-0.046931 -0.016787 0.889000
0.043802 0.002520 0.860000
0.029017 0.010562 0.852000
-0.042472 -0.005027 0.880000
0.034478 0.015915 0.857000
0.030345 -0.022693 0.891000
-0.048925 0.008597 0.866000
-0.004835 -0.016366 0.886000
0.023948 -0.030553 0.885000
-0.038454 0.005726 0.863000
-0.052735 0.002207 0.876000
0.010908 -0.000667 0.862000
-0.025114 -0.006483 0.881000
0.011550 -0.011599 0.884000
-0.020480 0.000758 0.869000
0.022567 -0.014941 0.888000
-0.001184 -0.024669 0.883000
-0.027881 0.020884 0.844000
0.024079 0.012301 0.851000
-0.013207 -0.013434 0.885000
0.003781 0.004617 0.855000
0.011537 -0.010859 0.883000
0.026139 -0.008580 0.873000
0.003776 0.005666 0.854000
0.009378 0.011263 0.852000
0.037917 0.008136 0.855000
0.025377 -0.034157 0.884000
0.029412 -0.034924 0.885000
0.002367 0.007766 0.853000
0.030939 -0.031352 0.887000
-0.007254 -0.004612 0.870000
-0.009863 0.018540 0.848000
0.045625 0.004649 0.861000
0.031860 0.009872 0.853000
-0.010935 -0.029950 0.878000
-0.042639 -0.019066 0.876000
0.021471 -0.014941 0.888000
0.034750 0.011655 0.855000
0.034418 -0.019047 0.892000
0.022811 0.020124 0.856000
-0.018778 -0.002113 0.873000
0.015916 -0.029791 0.884000
-0.043732 0.009977 0.862000
0.025682 -0.011210 0.882000
-0.026010 0.012651 0.851000
0.032210 -0.007135 0.872000
0.044721 -0.005693 0.871000
-0.000457 -0.010508 0.884000
0.018181 -0.014576 0.888000
0.013050 -0.035003 0.887000
-0.006983 -0.026064 0.881000
0.031445 -0.017925 0.891000
0.023407 0.000043 0.865000
-0.034862 0.005719 0.862000
0.027647 -0.002802 0.864000
-0.017882 -0.018107 0.882000
-0.008816 -0.009405 0.883000
-0.024026 -0.018087 0.881000
0.027279 -0.010041 0.875000
-0.003380 -0.014559 0.887000
0.011224 -0.013464 0.887000
0.026075 -0.035936 0.883000
0.001730 -0.019648 0.886000
0.029612 -0.020492 0.891000
-0.006628 -0.024641 0.882000
-0.015271 -0.005377 0.878000
0.010553 -0.001022 0.862000
-0.034952 0.022004 0.847000
0.009081 0.002159 0.857000
-0.019251 0.005010 0.862000
-0.043833 0.014267 0.864000
-0.023637 -0.020601 0.880000
-0.017933 0.012287 0.850000
0.028868 0.022290 0.858000
-0.036870 -0.021950 0.876000
-0.024695 -0.022387 0.879000
-0.035549 -0.016598 0.879000
0.029978 -0.020492 0.891000
0.029436 0.014102 0.854000
0.024164 0.017617 0.854000
-0.007735 -0.019240 0.884000
-0.009850 -0.030312 0.878000
-0.042569 0.011723 0.860000
0.028878 -0.019392 0.891000
0.009466 0.000750 0.860000
0.029085 0.014453 0.854000
0.009409 -0.015672 0.888000
-0.004101 -0.018897 0.885000
0.024645 -0.004976 0.871000
-0.000458 -0.017825 0.886000
0.027679 -0.003517 0.865000
0.019663 0.004980 0.857000
-0.046376 0.005739 0.865000
-0.033492 -0.011936 0.882000
-0.024088 0.018127 0.845000
-0.018060 0.008850 0.856000
-0.006395 0.010900 0.851000
0.049098 -0.001383 0.866000
-0.028013 0.014701 0.848000
-0.038320 0.002901 0.868000
-0.004087 -0.023915 0.882000
-0.005338 0.018584 0.850000
0.002722 0.005666 0.854000
-0.008776 -0.028537 0.879000
-0.019005 0.001113 0.867000
0.000269 -0.030018 0.880000
0.044510 0.003228 0.860000
-0.037909 -0.023365 0.875000
-0.033492 -0.007943 0.882000
-0.033827 0.020561 0.845000
-0.018197 0.016755 0.846000
-0.004455 -0.022489 0.883000
0.026498 -0.031646 0.885000
0.017352 -0.032301 0.883000
-0.037591 -0.021229 0.876000
0.032395 -0.008981 0.877000
0.045271 0.007130 0.861000
0.002462 -0.013099 0.887000
-0.004633 0.012971 0.849000
-0.024527 -0.001394 0.873000
-0.038531 -0.007209 0.881000
0.044769 -0.001737 0.865000
0.037107 -0.003891 0.869000
0.029114 -0.029527 0.887000
-0.006628 -0.022826 0.882000
0.007893 -0.030450 0.882000
-0.043196 -0.005389 0.880000
-0.026262 -0.009042 0.883000
-0.003957 0.005666 0.854000
0.029442 -0.037982 0.897000
-0.014906 0.006744 0.857000
0.023378 0.010900 0.851000
0.025750 0.002874 0.860000
-0.028839 -0.001394 0.873000
-0.016298 0.008498 0.856000
0.013097 -0.003522 0.866000
-0.041432 -0.010472 0.881000
-0.017201 0.000399 0.866000
-0.051644 0.016379 0.882000
0.012305 -0.025118 0.886000
0.023461 0.006721 0.854000
0.033042 -0.007880 0.875000
-0.020262 0.018822 0.845000
0.010798 -0.032265 0.882000
-0.010810 -0.003172 0.868000
-0.018355 -0.000673 0.870000
-0.029270 0.021926 0.844000
-0.035301 0.022353 0.847000
-0.040633 0.005377 0.864000
-0.029653 0.022996 0.845000
0.003170 -0.030778 0.881000
-0.033417 -0.015169 0.880000
0.021836 -0.023713 0.888000
0.015517 -0.010121 0.882000
-0.034582 -0.007217 0.882000
0.006812 -0.010496 0.883000
0.050386 0.009057 0.876000
0.026365 0.004628 0.857000
0.024285 -0.033066 0.884000
-0.037146 -0.025137 0.874000
-0.043971 -0.007571 0.881000
-0.031779 0.000755 0.865000
-0.025605 -0.001753 0.873000
-0.020377 -0.006114 0.880000
-0.033093 0.011628 0.853000
-0.039811 0.013399 0.854000
-0.022087 -0.003562 0.876000
0.032290 -0.012691 0.884000
0.033537 0.023050 0.860000
0.026273 0.017265 0.854000
0.027104 -0.010835 0.881000
-0.050700 0.010092 0.872000
0.025069 -0.030952 0.886000
-0.021173 -0.008679 0.883000
0.033970 -0.000312 0.862000
-0.038269 -0.024086 0.875000
0.015844 -0.009374 0.880000
-0.018584 0.003243 0.864000
-0.043729 0.002189 0.869000
-0.005701 0.007406 0.852000
-0.012640 0.018518 0.847000
-0.014958 0.003582 0.860000
-0.028145 0.009510 0.852000
0.008365 0.003565 0.856000
-0.008806 -0.031176 0.882000
0.006485 -0.016768 0.888000
0.019333 0.004280 0.858000
-0.036347 0.018867 0.847000
0.019603 -0.002822 0.870000
0.020926 0.012651 0.851000
0.051049 0.006526 0.875000
-0.039259 -0.000316 0.873000
0.019046 0.002523 0.861000
0.018651 -0.024214 0.893000
0.046049 -0.004607 0.869000
0.015042 0.006728 0.855000
-0.034187 0.011290 0.854000
-0.024088 0.017083 0.845000
-0.029432 -0.005389 0.880000
-0.028447 -0.000675 0.872000
0.039164 -0.007880 0.875000
-0.010258 -0.022100 0.882000
-0.037634 -0.002844 0.877000
0.014081 -0.031211 0.883000
0.018678 -0.007537 0.877000
-0.032004 -0.013373 0.881000
-0.003001 -0.009769 0.883000
0.022998 0.022065 0.863000
0.020366 -0.004264 0.872000
-0.031786 -0.002118 0.875000
-0.047444 0.011435 0.865000
-0.041362 0.014151 0.857000
-0.026262 -0.007952 0.883000
-0.042591 -0.022285 0.875000
-0.013495 0.004628 0.857000
-0.033443 0.004655 0.862000
-0.039428 0.007130 0.861000
0.002715 0.009510 0.852000
0.031776 -0.024499 0.890000
-0.004470 -0.012355 0.886000
0.026519 0.001462 0.862000
-0.007717 -0.023189 0.882000
-0.004460 -0.019967 0.884000
-0.026839 0.019495 0.844000
-0.035108 -0.020170 0.877000
-0.036718 -0.011922 0.881000
-0.031740 0.017779 0.845000
-0.006286 -0.017805 0.885000
0.044459 -0.011547 0.880000
-0.039783 0.007130 0.861000
-0.016393 -0.023137 0.880000
0.002080 -0.031105 0.880000
-0.007387 -0.012719 0.886000
0.019533 -0.033755 0.883000
0.024340 -0.028764 0.886000
0.013079 -0.017885 0.889000
-0.045308 0.013927 0.865000
0.032143 -0.024865 0.890000
-0.038675 0.007476 0.860000
0.028391 -0.003873 0.865000
0.003070 0.007415 0.853000
0.021652 0.015471 0.852000
-0.038039 -0.016941 0.878000
-0.020716 -0.024196 0.879000
0.038620 -0.010448 0.879000
0.027359 0.016934 0.855000
0.034051 -0.020515 0.892000
0.014896 -0.003526 0.867000
-0.002269 -0.008659 0.881000
0.027423 0.022617 0.857000
0.015288 -0.004249 0.869000
-0.041812 0.011356 0.859000
-0.038541 -0.000316 0.873000
0.030104 0.011979 0.853000
-0.041338 -0.013342 0.879000
-0.004293 0.010550 0.851000
0.009112 0.000750 0.860000
-0.034386 -0.020892 0.877000
-0.020983 0.021978 0.846000
0.016644 -0.030155 0.884000
0.042424 -0.003530 0.868000
0.023611 -0.028764 0.886000
0.002448 -0.026820 0.882000
-0.023317 0.009192 0.855000
-0.012073 -0.007943 0.882000
0.017372 -0.031246 0.884000
-0.041463 -0.024418 0.874000
0.024422 -0.015324 0.889000
0.047452 0.005364 0.862000
0.005000 -0.010508 0.884000
-0.005193 -0.018897 0.885000
-0.041463 -0.001036 0.874000
0.027841 0.026205 0.859000
-0.041966 -0.018005 0.877000
-0.013904 -0.018491 0.883000
-0.031101 -0.024834 0.876000
-0.033641 0.007811 0.858000
-0.018587 -0.020262 0.881000
-0.003239 0.012986 0.850000
0.050991 0.005439 0.874000
0.007920 -0.023997 0.885000
-0.018983 0.002181 0.866000
0.005006 -0.022176 0.885000
-0.017666 0.009884 0.854000
-0.022534 0.011263 0.852000
0.033852 0.021962 0.859000
0.025510 0.009159 0.852000
-0.022885 0.011263 0.852000
0.028813 -0.025569 0.889000
-0.032581 -0.003205 0.877000
0.031348 -0.005673 0.868000
-0.036696 0.018170 0.847000
-0.023835 -0.002115 0.874000
-0.024499 -0.001034 0.872000
0.029391 -0.002799 0.863000
-0.020716 -0.023472 0.879000
-0.014252 -0.020648 0.882000
0.007548 -0.026880 0.884000
0.007795 -0.004976 0.871000
0.018316 0.003228 0.860000
-0.046484 0.015744 0.867000
-0.000440 0.011600 0.851000
-0.024459 0.006752 0.858000
0.026656 0.018341 0.855000
0.029928 0.022643 0.858000
-0.043833 0.013200 0.864000
-0.035324 0.010259 0.856000
0.026346 -0.004959 0.868000
-0.046786 0.015369 0.866000
0.011847 0.010575 0.853000
0.012333 -0.020058 0.888000
0.039705 -0.010448 0.879000
-0.049321 0.000762 0.873000
-0.043410 -0.002844 0.877000
0.008993 -0.029031 0.883000
0.003425 0.005315 0.854000
-0.036116 -0.027522 0.893000
-0.019014 -0.014874 0.884000
0.031598 -0.036017 0.885000
-0.027496 -0.027719 0.876000
0.015376 0.014453 0.854000
-0.005895 -0.026064 0.881000
-0.026625 -0.013767 0.883000
0.006743 -0.008230 0.874000
-0.017562 0.021707 0.849000
-0.042472 -0.005389 0.880000
0.005748 -0.018940 0.887000
-0.008472 -0.016348 0.885000
-0.000443 0.003217 0.857000
-0.038575 -0.009758 0.882000
0.020915 0.000043 0.865000
-0.036338 0.010599 0.855000
0.011496 0.013032 0.853000
-0.039256 -0.006483 0.881000
0.029445 -0.031317 0.886000
0.021738 -0.011963 0.884000
0.014081 -0.030484 0.883000
-0.047499 0.014300 0.866000
-0.027888 -0.023780 0.877000
0.019915 -0.002101 0.868000
-0.009159 -0.007571 0.881000
-0.042165 0.011710 0.859000
0.010083 -0.030121 0.883000
0.004282 -0.012355 0.886000
-0.031355 0.020537 0.844000
-0.032403 -0.011573 0.882000
-0.040976 -0.013342 0.879000
-0.002987 -0.031431 0.879000
-0.019720 -0.015584 0.883000
-0.029618 0.019147 0.844000
-0.020983 0.020934 0.846000
-0.018207 0.003950 0.863000
0.018742 -0.009374 0.880000
0.005872 0.014419 0.852000
-0.007387 -0.016366 0.886000
0.005521 0.015471 0.852000
-0.042153 0.003963 0.866000
-0.010561 0.016446 0.848000
0.011173 -0.010496 0.883000
0.023653 0.002169 0.861000
-0.000821 -0.021787 0.884000
0.015103 -0.008278 0.879000
-0.000806 0.002901 0.868000
-0.023891 0.004660 0.863000
0.031693 0.021584 0.858000
-0.042299 0.002189 0.869000
-0.041200 0.008193 0.861000
0.014129 -0.025483 0.886000
0.024203 -0.010109 0.881000
-0.012879 0.000043 0.863000
0.037561 0.000043 0.863000
0.037257 0.011669 0.856000
-0.021751 -0.028472 0.877000
-0.012451 -0.019218 0.883000
-0.034227 0.010247 0.855000
0.011537 -0.029394 0.883000
-0.022991 -0.014493 0.883000
-0.035885 0.007130 0.861000
0.026468 -0.012691 0.884000
0.028382 0.015859 0.854000
-0.041432 -0.007209 0.881000
0.045376 -0.000668 0.863000
0.032286 0.014822 0.855000
0.019321 -0.019737 0.890000
-0.051889 0.013445 0.880000
0.023115 -0.010472 0.881000
-0.002892 0.018255 0.851000
0.023114 -0.027215 0.895000
-0.037437 0.018540 0.848000
0.009044 -0.014941 0.888000
-0.043245 -0.008659 0.881000
-0.027186 0.018800 0.844000
0.033279 -0.017559 0.891000
0.022328 0.014052 0.851000
-0.000093 -0.029656 0.880000
-0.037831 0.016815 0.849000
-0.042215 0.010307 0.860000
0.034086 0.015192 0.856000
-0.023248 -0.021663 0.879000
0.034750 0.012359 0.855000
0.043175 -0.008610 0.876000
0.033303 0.011993 0.854000
0.024164 0.018320 0.854000
0.014489 -0.002091 0.864000
-0.005357 0.006362 0.853000
0.030505 -0.034560 0.885000
0.010060 -0.032228 0.881000
-0.050583 0.007921 0.870000
0.012213 0.008478 0.854000
-0.048982 0.011462 0.867000
0.015430 0.004628 0.857000
-0.015722 -0.008315 0.883000
-0.039212 -0.013720 0.880000
0.036128 -0.010822 0.880000
0.020796 -0.006079 0.875000
-0.016067 -0.018833 0.882000
0.024732 -0.027702 0.887000
0.022227 -0.024837 0.889000
0.003537 -0.028272 0.882000
-0.008527 0.006018 0.854000
0.010518 -0.016787 0.889000
-0.008796 -0.024251 0.881000
-0.035819 0.002186 0.868000
-0.021439 -0.023834 0.879000
0.025491 -0.026271 0.888000
-0.046096 -0.011639 0.887000
-0.022188 -0.006114 0.880000
0.001363 -0.020354 0.885000
-0.012350 0.011250 0.851000
0.014166 -0.003522 0.866000
0.000260 0.015435 0.850000
-0.011671 -0.028175 0.879000
-0.034377 0.013686 0.850000
-0.034849 0.011628 0.853000
-0.011325 0.009872 0.853000
0.009070 0.003565 0.856000
0.047863 0.005371 0.863000
-0.050341 0.011528 0.872000
-0.038720 0.007130 0.861000
0.012696 -0.001378 0.863000
-0.045612 0.005732 0.864000
-0.019246 -0.027059 0.878000
0.014543 -0.017885 0.889000
-0.045780 -0.000676 0.874000
0.027350 -0.024837 0.889000
0.019321 -0.018638 0.890000
0.027423 0.021911 0.857000
0.045334 -0.004249 0.869000
0.032905 -0.001022 0.862000
0.036200 0.004975 0.856000
0.040871 -0.006784 0.873000
0.013810 -0.003522 0.866000
-0.036678 0.005726 0.863000
0.029245 -0.021959 0.891000
0.005383 -0.020035 0.887000
-0.021776 -0.028866 0.878000
-0.041823 -0.024778 0.874000
-0.009918 -0.019240 0.884000
0.030677 -0.016806 0.890000
-0.053641 0.007693 0.885000
-0.015757 -0.014162 0.885000
0.020305 -0.012341 0.885000
0.041630 0.007467 0.859000
0.027841 0.024791 0.859000
0.032838 -0.027032 0.889000
0.024038 -0.008240 0.875000
0.022678 0.011250 0.851000
0.036496 0.000043 0.863000
0.025632 -0.003172 0.868000
0.040875 0.006752 0.858000
-0.036991 0.006429 0.862000
-0.007769 0.015748 0.848000
0.017008 -0.031246 0.884000
-0.022860 -0.025252 0.878000
-0.037443 -0.012285 0.881000
-0.001545 -0.025730 0.882000
-0.031485 0.006039 0.857000
0.026211 0.012315 0.852000
0.020392 0.004280 0.858000
-0.006244 -0.031070 0.879000
-0.012408 0.007432 0.855000
0.010072 -0.030450 0.882000
0.019201 -0.002101 0.868000
0.039155 0.002164 0.859000
-0.027433 -0.001755 0.874000
0.045076 -0.011977 0.885000
0.023955 -0.005340 0.872000
0.026073 0.003224 0.859000
0.034599 0.021988 0.860000
-0.048793 0.016514 0.870000
0.030843 0.007072 0.854000
-0.018916 0.014683 0.847000
-0.009211 -0.012355 0.886000
0.031456 -0.007127 0.871000
0.005657 -0.007502 0.873000
0.009422 0.003918 0.856000
0.030539 -0.032046 0.886000
0.044510 0.002520 0.860000
0.001728 -0.021447 0.885000
0.023508 -0.037202 0.896000
0.028319 -0.033832 0.885000
-0.019856 -0.001753 0.873000
0.016006 -0.017153 0.889000
-0.047381 -0.002122 0.877000
0.040664 0.001106 0.861000
-0.014268 -0.018855 0.883000
-0.002189 0.012636 0.850000
0.028162 0.022996 0.858000
-0.005551 -0.019240 0.884000
-0.013103 -0.005739 0.878000
0.022597 -0.006439 0.875000
-0.023972 -0.022025 0.879000
0.000636 -0.019648 0.886000
0.017836 -0.020446 0.889000
0.007582 -0.017865 0.888000
-0.028079 -0.012313 0.883000
0.015898 -0.031938 0.883000
-0.025086 -0.006114 0.880000
-0.025448 -0.019153 0.880000
-0.040930 -0.017302 0.878000
-0.014283 0.001462 0.862000
-0.011322 -0.025672 0.880000
0.030843 0.013399 0.854000
-0.023881 0.012636 0.850000
0.024601 0.022969 0.857000
-0.017862 -0.021350 0.881000
-0.002277 -0.021787 0.884000
0.026498 -0.033103 0.885000
-0.042110 -0.005389 0.880000
0.023584 -0.032010 0.885000
-0.044442 -0.018705 0.876000
-0.026774 0.008819 0.853000
-0.008098 -0.018148 0.884000
0.033058 -0.003878 0.866000
0.024732 -0.026972 0.887000
-0.031007 0.018453 0.844000
-0.007371 -0.019604 0.884000
-0.025048 0.008829 0.854000
-0.010935 -0.029227 0.878000
-0.025994 -0.001755 0.874000
-0.029253 0.001109 0.864000
0.012638 0.000750 0.859000
-0.045370 -0.011184 0.880000
0.029245 -0.019759 0.891000
0.014145 -0.013464 0.887000
-0.041338 -0.014066 0.879000
-0.025018 0.010575 0.853000
0.035400 -0.004976 0.871000
0.032383 -0.004596 0.867000
-0.027104 -0.002838 0.875000
-0.019268 -0.024196 0.879000
0.031158 0.011277 0.853000
-0.016374 -0.024558 0.879000
-0.032040 -0.006854 0.882000
0.018181 -0.022982 0.888000
0.020260 -0.033392 0.883000
-0.019590 0.016755 0.846000
-0.015341 -0.019922 0.882000
-0.021851 -0.019174 0.881000
0.004118 0.010562 0.852000
0.033852 0.020902 0.859000
0.032399 -0.032083 0.887000
-0.036997 -0.004298 0.879000
-0.006272 -0.021035 0.883000
-0.006038 0.011937 0.850000
0.008294 -0.021471 0.886000
-0.039921 0.005377 0.864000
0.022959 -0.023373 0.889000
0.014543 -0.015324 0.889000
-0.022392 0.006768 0.860000
0.006434 -0.031503 0.881000
0.033537 0.002166 0.860000
-0.005193 -0.010520 0.885000
-0.009159 -0.024614 0.881000
-0.004040 -0.003905 0.872000
0.001724 -0.025033 0.883000
-0.025448 -0.006114 0.880000
-0.051836 0.005073 0.873000
-0.044239 0.000761 0.872000
-0.032512 0.015381 0.847000
-0.036211 0.013017 0.852000
0.031582 0.005673 0.855000
-0.011386 -0.011977 0.885000
0.000260 0.012287 0.850000
0.010443 0.014085 0.853000
0.025491 -0.025175 0.888000
-0.021488 -0.006846 0.881000
0.030455 0.009170 0.853000
0.028714 -0.003513 0.864000
0.005201 0.002511 0.857000
-0.012655 0.014352 0.848000
-0.029219 0.001819 0.863000
0.014346 -0.007176 0.877000
-0.018808 0.007458 0.858000
-0.030660 0.020537 0.844000
-0.004829 -0.018169 0.885000
0.033684 -0.020148 0.892000
0.007445 -0.006776 0.872000
-0.052184 0.016799 0.885000
0.010832 0.003918 0.856000
0.010819 0.007080 0.855000
-0.008053 -0.029984 0.879000
-0.049753 0.007545 0.868000
-0.041700 -0.013342 0.879000
0.020763 -0.021910 0.889000
-0.035671 -0.010847 0.882000
0.033783 -0.013434 0.885000
-0.039982 -0.009022 0.881000
-0.002644 -0.019626 0.885000
-0.035301 0.022701 0.847000
-0.031243 -0.005752 0.880000
-0.019049 0.000043 0.869000
-0.021608 0.008155 0.857000
0.025828 -0.029162 0.887000
0.025660 0.024028 0.857000
-0.000094 -0.021787 0.884000
0.029051 0.013032 0.853000
0.016821 0.005679 0.856000
0.027487 0.003224 0.859000
-0.003011 -0.017825 0.886000
-0.039982 -0.008659 0.881000
-0.026504 -0.020940 0.879000
0.011186 -0.011235 0.884000
0.035931 0.003221 0.858000
-0.001184 -0.023943 0.883000
-0.025871 0.005693 0.858000
-0.012989 0.017472 0.847000
0.007216 -0.016037 0.888000
-0.009044 -0.003538 0.870000
0.028327 -0.010029 0.874000
0.034418 -0.021984 0.892000
0.024983 0.026175 0.858000
-0.039619 -0.011922 0.881000
0.010688 -0.007502 0.873000
0.002747 0.002171 0.862000
-0.043671 -0.001037 0.875000
0.024956 -0.011210 0.882000
0.005170 0.014419 0.852000
-0.010645 -0.018148 0.884000
-0.013385 0.012287 0.850000
-0.017500 0.019889 0.846000
-0.053156 0.002209 0.877000
0.033279 -0.017925 0.891000
-0.027411 0.012301 0.851000
0.043646 -0.005334 0.871000
-0.001861 0.003228 0.860000
0.012564 0.008126 0.854000
-0.034931 0.010599 0.855000
0.013702 -0.031902 0.882000
0.005370 -0.022540 0.885000
-0.041558 -0.002120 0.876000
0.039110 0.004280 0.858000
-0.035654 0.005021 0.864000
-0.016411 -0.007571 0.881000
-0.049680 0.000762 0.873000
-0.017479 -0.029656 0.880000
-0.004105 -0.015637 0.886000
-0.035671 -0.010121 0.882000
0.045481 -0.002093 0.865000
-0.031241 0.004290 0.860000
0.001718 -0.031105 0.880000
0.049341 0.003243 0.864000
-0.014383 0.018518 0.847000
-0.010332 0.003221 0.858000
0.029893 0.004275 0.857000
-0.002902 0.005315 0.854000
-0.017122 0.004300 0.862000
0.028349 0.007415 0.853000
0.026678 -0.020859 0.891000
-0.016146 0.014003 0.848000
0.022029 0.016894 0.853000
0.000961 0.011951 0.851000
-0.020307 -0.004649 0.877000
0.045080 -0.005693 0.871000
-0.043360 -0.019066 0.876000
0.000963 0.008117 0.853000
0.028733 0.014453 0.854000
-0.031677 -0.013025 0.882000
-0.042014 -0.016218 0.878000
-0.001919 -0.013099 0.887000
0.026624 0.016914 0.854000
-0.046591 0.002547 0.869000
0.010467 0.006025 0.855000
-0.047444 0.012147 0.865000
0.040234 -0.002812 0.867000
0.011173 -0.029031 0.883000
0.016743 0.010211 0.852000
-0.016736 -0.026005 0.879000
-0.002279 -0.010884 0.885000
0.043802 0.004998 0.860000
0.008972 0.000406 0.881000
-0.050990 0.014121 0.877000
-0.025869 -0.007580 0.882000
-0.014910 -0.027421 0.878000
-0.018266 -0.008315 0.883000
-0.011697 -0.022800 0.881000
0.021519 -0.016806 0.890000
0.024954 0.004980 0.857000
-0.003948 0.008809 0.852000
-0.015466 0.012622 0.849000
-0.028957 0.017431 0.845000
-0.025630 0.012986 0.850000
0.005754 -0.014941 0.888000
0.010210 -0.001023 0.863000
-0.019340 0.002538 0.866000
-0.007428 0.018212 0.849000
0.006948 0.004617 0.855000
0.026378 -0.010835 0.881000
0.009378 0.011965 0.852000
0.022623 -0.007168 0.876000
0.009935 -0.006044 0.870000
-0.011335 -0.007934 0.881000
-0.007121 0.005666 0.854000
0.012652 0.000396 0.860000
-0.018874 0.005358 0.861000
0.001667 0.004963 0.854000
0.014776 0.000396 0.860000
-0.042520 -0.009384 0.881000
-0.038125 -0.014082 0.880000
0.010115 0.005321 0.855000
0.022830 -0.033793 0.884000
0.010794 0.010575 0.853000
0.007929 -0.022201 0.886000
-0.041510 -0.021565 0.875000
-0.014944 -0.023499 0.880000
-0.045163 -0.018705 0.876000
0.014145 -0.023686 0.887000
-0.032125 0.016755 0.846000
-0.033907 0.016078 0.847000
0.018496 0.008809 0.852000
0.022380 0.016543 0.853000
-0.005721 0.004617 0.855000
-0.024021 0.008840 0.855000
0.037565 0.007080 0.855000
-0.033954 0.001468 0.866000
-0.023475 0.023077 0.848000
0.026104 -0.034157 0.884000
0.019922 0.008117 0.853000
0.031410 -0.025231 0.890000
-0.008836 -0.016348 0.885000
0.011173 -0.029394 0.883000
-0.006991 -0.022826 0.882000
0.046834 -0.008981 0.877000
-0.034180 -0.012648 0.881000
0.021886 -0.018638 0.890000
0.034599 0.001812 0.860000
0.013762 -0.001378 0.863000
-0.031713 -0.009042 0.883000
-0.041009 0.012035 0.857000
0.018079 -0.011223 0.883000
-0.043921 -0.011547 0.880000
-0.005915 -0.019967 0.884000
-0.014553 0.006391 0.857000
-0.030380 -0.025916 0.876000
-0.041558 -0.020147 0.876000
-0.034187 0.010938 0.854000
0.031998 -0.033140 0.886000
0.021527 0.002523 0.861000
0.007911 -0.010871 0.884000
-0.010974 0.008819 0.853000
-0.039664 -0.024418 0.874000
0.014081 -0.031574 0.883000
-0.036912 -0.019448 0.877000
-0.015648 0.004992 0.859000
0.004574 -0.005340 0.872000
-0.009991 0.002517 0.859000
-0.012379 0.010223 0.853000
0.036005 -0.008620 0.877000
-0.028971 -0.023058 0.877000
-0.003711 -0.030708 0.879000
-0.009895 -0.022100 0.882000
-0.012989 0.015032 0.847000
-0.013495 -0.024223 0.880000
-0.022289 -0.010144 0.884000
0.025857 -0.026271 0.888000
-0.011957 0.020285 0.848000
-0.018893 0.016755 0.846000
-0.002277 -0.022150 0.884000
-0.010465 -0.000315 0.869000
-0.031740 0.018127 0.845000
-0.026143 -0.005383 0.879000
0.033381 -0.012691 0.884000
-0.025722 -0.003927 0.877000
-0.006073 0.004617 0.855000
-0.016430 -0.020285 0.882000
0.025248 0.005673 0.855000
-0.024695 -0.020578 0.879000
0.023184 -0.003538 0.870000
-0.039573 0.000043 0.872000
0.010140 -0.020058 0.888000
0.023557 -0.012327 0.884000
0.014590 -0.004970 0.870000
0.026468 -0.012327 0.884000
0.002021 0.004265 0.855000
0.013764 -0.012719 0.886000
0.041059 -0.008981 0.877000
-0.006729 0.012622 0.849000
0.029540 0.019442 0.857000
-0.020106 -0.011963 0.884000
0.022731 0.016543 0.853000
0.045731 0.000043 0.863000
0.029114 -0.030257 0.887000
-0.035428 -0.022671 0.876000
-0.027352 -0.012313 0.883000
0.028145 -0.021226 0.891000
0.015718 -0.005347 0.873000
0.034994 0.001460 0.861000
0.030712 -0.021226 0.891000
-0.024723 -0.019515 0.880000
-0.018971 -0.017744 0.882000
-0.031498 -0.023419 0.877000
-0.013004 0.019238 0.848000
0.015588 -0.027670 0.886000
-0.031968 -0.005389 0.880000
-0.010258 -0.008306 0.882000
0.021627 0.011250 0.851000
-0.012563 -0.031127 0.891000
0.016392 0.010913 0.852000
0.013780 -0.013829 0.887000
-0.013841 -0.027452 0.879000
0.014774 -0.009747 0.881000
0.024370 -0.007511 0.874000
-0.001526 -0.004976 0.871000
0.003181 -0.024333 0.884000
-0.049695 0.008250 0.867000
-0.022834 -0.027389 0.877000
-0.002605 -0.006058 0.872000
-0.020310 0.014335 0.847000
-0.045989 -0.016580 0.878000
0.010470 -0.025818 0.885000
0.034955 -0.014924 0.887000
-0.020433 0.002184 0.867000
0.016006 -0.018617 0.889000
-0.024088 0.020909 0.845000
0.026104 0.002520 0.860000
-0.010561 0.017144 0.848000
0.019300 -0.016421 0.889000
-0.018918 0.003950 0.863000
-0.038232 0.009224 0.858000
-0.051117 0.009026 0.873000
-0.051410 0.013053 0.878000
-0.039709 -0.023365 0.875000
0.003501 -0.007502 0.873000
-0.034067 0.013352 0.851000
0.023975 -0.013449 0.886000
0.046334 0.005004 0.861000
-0.033779 -0.005027 0.880000
0.021881 0.002169 0.861000
-0.042865 0.003963 0.866000
0.032905 -0.001377 0.862000
-0.009862 -0.028175 0.879000
-0.029693 -0.003566 0.877000
0.008993 -0.028667 0.883000
0.029323 0.001106 0.861000
0.029119 0.005673 0.855000
-0.014267 0.001814 0.861000
-0.018307 -0.011977 0.885000
-0.051477 0.006870 0.873000
0.006797 -0.031503 0.881000
-0.031301 0.011614 0.852000
0.035766 -0.010822 0.880000
-0.035671 -0.009758 0.882000
0.020891 -0.009001 0.879000
-0.012140 0.001460 0.861000
0.001665 0.008117 0.853000
0.044917 0.006776 0.861000
0.036680 0.002517 0.859000
-0.044031 -0.001037 0.875000
-0.007778 0.012971 0.849000
-0.013219 0.000752 0.862000
0.027519 0.002874 0.860000
0.049080 -0.004623 0.872000
0.023952 0.003224 0.859000
0.039064 0.005333 0.857000
0.005023 -0.017499 0.888000
-0.010609 -0.030778 0.881000
0.026905 0.000043 0.863000
-0.023195 -0.003927 0.877000
-0.032729 -0.013010 0.881000
0.027295 0.014436 0.853000
-0.005922 -0.018533 0.885000
0.014965 -0.005334 0.871000
-0.023317 0.009544 0.855000
0.016606 -0.033717 0.882000
0.026704 -0.004959 0.868000
-0.026927 -0.015911 0.881000
0.013354 -0.030121 0.883000
0.001726 -0.024333 0.884000
-0.022349 0.018474 0.845000
-0.010910 0.018191 0.848000
0.017444 0.012315 0.852000
-0.006030 0.015766 0.849000
-0.000457 -0.024306 0.883000
0.009013 -0.025090 0.885000
-0.045675 0.000402 0.872000
0.002451 -0.033028 0.883000
-0.005117 -0.005699 0.872000
-0.019914 0.006414 0.860000
0.030705 0.025528 0.860000
0.006573 0.013718 0.852000
0.005364 -0.024697 0.884000
-0.005539 -0.023552 0.882000
-0.039394 -0.020868 0.876000
0.011537 -0.030484 0.883000
0.003922 -0.013829 0.887000
-0.032505 0.008850 0.856000
-0.041036 0.004671 0.865000
-0.015081 0.020610 0.847000
-0.027276 0.000401 0.869000
0.023729 0.010900 0.851000
0.014444 -0.031938 0.883000
0.006843 -0.020400 0.887000
0.009367 -0.026517 0.884000
-0.025535 -0.013040 0.883000
-0.018162 -0.025975 0.878000
0.037767 -0.008249 0.876000
-0.011957 0.019238 0.848000
-0.000818 -0.008659 0.881000
0.050083 0.009428 0.877000
-0.020037 -0.007209 0.881000
0.007902 -0.027940 0.883000
-0.002266 -0.030381 0.880000
-0.020668 -0.004649 0.877000
0.000610 0.015085 0.850000
0.022227 -0.022642 0.889000
0.018891 0.007072 0.854000
0.021495 -0.022276 0.889000
-0.022525 -0.005383 0.879000
-0.030313 0.021926 0.844000
0.030175 0.015526 0.855000
-0.011360 -0.019581 0.883000
0.028382 0.015156 0.854000
-0.031426 -0.026607 0.875000
0.029036 -0.002089 0.863000
-0.034268 -0.001755 0.874000
-0.036113 0.008518 0.858000
-0.007691 -0.029984 0.879000
0.018058 -0.010484 0.882000
0.013970 0.008126 0.854000
-0.019946 -0.028472 0.877000
-0.014598 -0.022800 0.881000
-0.016393 -0.024223 0.880000
-0.035748 -0.025526 0.875000
-0.043022 0.009622 0.862000
-0.035590 -0.014444 0.880000
0.002722 0.004963 0.854000
-0.028046 0.013670 0.849000
0.027614 0.011614 0.852000
-0.004101 -0.011248 0.885000
-0.023045 0.021952 0.845000
0.029436 0.007072 0.854000
0.024917 -0.002458 0.868000
0.041984 0.007467 0.859000
-0.007420 0.015748 0.848000
-0.027093 0.011263 0.852000
0.003856 0.001838 0.872000
0.013985 -0.007176 0.877000
0.010129 -0.021130 0.887000
0.032582 -0.020515 0.892000
-0.027856 -0.027358 0.876000
-0.027653 -0.006483 0.881000
-0.008826 0.013320 0.849000
0.038760 -0.006792 0.874000
-0.003724 -0.025730 0.882000
0.029612 -0.020859 0.891000
-0.007638 -0.006424 0.873000
-0.039413 0.014787 0.853000
-0.034215 0.021978 0.846000
0.023894 -0.011586 0.883000
-0.000090 0.006713 0.853000
0.027622 -0.031682 0.886000
-0.048324 0.003973 0.868000
-0.031726 0.009884 0.854000
-0.001180 -0.031105 0.880000
0.024601 0.024733 0.857000
-0.045465 0.003258 0.868000
-0.049490 0.019873 0.876000
-0.042134 -0.000316 0.873000
0.030598 0.020148 0.857000
0.035565 -0.013418 0.884000
0.016625 -0.035209 0.883000
-0.030225 -0.013388 0.882000
-0.016804 0.018148 0.846000
-0.016824 0.019913 0.847000
-0.006967 -0.030346 0.879000
-0.001904 -0.031829 0.880000
0.030806 0.012330 0.853000
-0.013572 -0.014162 0.885000
-0.006650 -0.010884 0.885000
-0.044645 -0.009736 0.880000
-0.036041 0.015748 0.848000
-0.000441 0.007415 0.853000
-0.018162 -0.025614 0.878000
-0.006745 0.010900 0.851000
0.039164 -0.007520 0.875000
-0.026713 -0.002115 0.874000
0.034358 0.007775 0.854000
0.032562 0.008117 0.853000
-0.030986 -0.009042 0.883000
0.027778 -0.018659 0.891000
0.010834 -0.025818 0.885000
-0.045152 -0.024865 0.890000
0.029221 0.021584 0.858000
0.003763 0.013352 0.851000
0.034205 0.021255 0.859000
0.033532 -0.033581 0.888000
-0.028211 0.007072 0.854000
0.033608 -0.025598 0.890000
0.024312 -0.030918 0.885000
-0.013463 0.008488 0.855000
-0.011246 0.016078 0.847000
0.000260 0.016504 0.851000
0.003927 -0.016403 0.888000
-0.007015 -0.018169 0.885000
0.027355 -0.004234 0.866000
0.022705 0.015121 0.852000
0.047249 -0.009352 0.878000
-0.042785 -0.013342 0.879000
0.009752 0.007423 0.854000
0.020319 -0.003180 0.870000
0.024601 0.023322 0.857000
-0.006613 -0.026759 0.880000
-0.019241 0.017103 0.846000
0.014097 -0.029063 0.884000
-0.048658 0.021627 0.874000
-0.018893 0.017800 0.846000
-0.044854 0.001833 0.870000
-0.012211 -0.001383 0.866000
-0.016030 -0.023499 0.880000
-0.020910 -0.001393 0.872000
0.008718 0.003213 0.856000
0.012656 -0.026547 0.885000
0.032472 -0.027764 0.889000
0.027906 0.001814 0.861000
-0.023354 -0.008679 0.883000
0.042472 -0.003891 0.869000
-0.030179 0.003582 0.860000
0.022855 -0.030189 0.885000
0.021652 0.009510 0.852000
0.015893 -0.000668 0.863000
0.022328 0.009499 0.851000
-0.035307 -0.000676 0.873000
-0.026595 -0.014477 0.882000
0.036392 -0.003891 0.869000
0.028666 0.010211 0.852000
-0.039413 0.019703 0.853000
-0.042618 0.009611 0.861000
-0.032766 -0.007580 0.882000
0.003196 -0.015672 0.888000
0.039018 0.007089 0.856000
-0.034686 0.014718 0.849000
0.014035 0.002514 0.858000
-0.018102 0.007458 0.858000
0.004142 0.002511 0.857000
0.041590 -0.006424 0.873000
0.031377 0.023377 0.859000
0.029245 -0.017925 0.891000
0.030277 -0.016056 0.889000
0.000635 -0.011248 0.885000
-0.030769 0.015381 0.847000
-0.010972 -0.030778 0.881000
-0.035650 0.017472 0.847000
0.013127 -0.004601 0.868000
-0.005199 -0.014543 0.886000
-0.048379 0.016495 0.869000
0.025182 -0.017173 0.890000
0.048443 -0.009011 0.880000
-0.045524 -0.018705 0.876000
0.032580 -0.011573 0.882000
0.040291 -0.008249 0.876000
-0.005533 -0.026427 0.881000
0.015025 0.008126 0.854000
-0.034582 -0.010484 0.882000
0.000633 -0.027546 0.882000
0.002362 0.015453 0.851000
0.025187 -0.000669 0.865000
-0.042883 -0.008296 0.881000
-0.039619 -0.006846 0.881000
0.008610 -0.032591 0.881000
-0.034219 -0.008306 0.882000
0.018181 -0.022251 0.888000
0.027747 -0.023766 0.890000
-0.018567 0.015032 0.847000
-0.042327 -0.002844 0.877000
0.029997 0.002520 0.860000
-0.021627 -0.001393 0.872000
-0.014944 -0.024586 0.880000
0.028035 -0.003517 0.865000
-0.022402 0.022701 0.847000
0.044057 -0.001737 0.865000
0.045494 -0.010448 0.879000
-0.022115 0.004660 0.863000
-0.006265 -0.023552 0.882000
0.008303 -0.013829 0.887000
0.019198 0.014419 0.852000
0.022077 -0.033755 0.883000
-0.045203 0.010698 0.863000
-0.000090 0.016504 0.851000
0.008639 -0.011235 0.884000
-0.023222 -0.024891 0.878000
-0.017707 0.008850 0.856000
-0.009489 -0.029589 0.878000
-0.003934 0.015766 0.849000
-0.045559 0.009988 0.863000
0.015605 -0.025876 0.887000
-0.038180 0.018562 0.849000
0.028748 -0.003873 0.865000
-0.033869 -0.000676 0.873000
0.011615 -0.016056 0.889000
0.022102 -0.032702 0.884000
-0.006983 -0.024976 0.881000
0.029945 -0.024865 0.890000
0.005892 0.004617 0.855000
0.000990 -0.008259 0.877000
0.008154 -0.006410 0.871000
0.013811 -0.019349 0.889000
-0.022834 -0.027028 0.877000
0.048916 -0.009032 0.882000
-0.032303 0.004998 0.860000
-0.012394 -0.027452 0.879000
-0.041603 0.006783 0.862000
0.015552 -0.030155 0.884000
-0.003239 0.016135 0.850000
-0.006094 0.003927 0.858000
0.012656 -0.026911 0.885000
-0.020262 0.017779 0.845000
0.032399 -0.031718 0.887000
-0.002272 -0.026457 0.882000
0.021577 0.001463 0.863000
-0.043063 0.001833 0.870000
-0.010959 -0.026759 0.880000
-0.031522 0.005693 0.858000
-0.035301 0.016078 0.847000
0.000261 0.004963 0.854000
0.031231 0.015174 0.855000
0.015183 -0.001023 0.863000
-0.028574 0.001111 0.865000
0.006237 0.005666 0.854000
0.012333 -0.020423 0.888000
0.025032 -0.006417 0.872000
-0.027011 -0.001034 0.872000
-0.012989 0.017124 0.847000
-0.021801 -0.005383 0.879000
-0.025781 -0.020940 0.879000
0.045902 -0.006784 0.873000
-0.012829 -0.009780 0.884000
0.013985 -0.007537 0.877000
-0.048625 0.013246 0.867000
0.028287 -0.036704 0.884000
-0.031154 0.014701 0.848000
-0.038900 -0.000316 0.873000
-0.035308 -0.008669 0.882000
0.044666 -0.000668 0.863000
0.008610 -0.032953 0.881000
0.049136 -0.004987 0.873000
