-0.028142 0.003686 0.885000
0.009729 0.007055 0.852000
-0.030191 -0.007571 0.881000
0.027871 -0.022542 0.871000
-0.017499 0.004395 0.881000
-0.033876 0.031336 0.864000
0.030528 -0.020606 0.865000
-0.024472 -0.007233 0.884000
-0.047327 0.001846 0.876000
0.000272 -0.020126 0.891000
-0.022314 0.021559 0.857000
-0.030172 0.021886 0.870000
-0.014532 0.003653 0.877000
0.004825 0.007766 0.853000
-0.033779 0.041696 0.880000
0.042534 -0.020914 0.863000
-0.031742 0.027780 0.864000
0.007428 -0.010699 0.870000
-0.004485 -0.014226 0.889000
0.038092 -0.027077 0.867000
0.033420 -0.015830 0.857000
0.010340 -0.012907 0.874000
-0.025029 0.012330 0.878000
-0.041291 0.033289 0.878000
0.013857 -0.036669 0.892000
0.046367 -0.022285 0.875000
0.026396 -0.011964 0.858000
-0.011567 0.031690 0.845000
0.030067 -0.018051 0.862000
-0.004824 -0.037432 0.884000
0.041042 -0.028213 0.869000
-0.024417 -0.013025 0.882000
0.025543 -0.020250 0.865000
-0.041747 0.006201 0.880000
0.009044 -0.046007 0.888000
0.023353 -0.014876 0.863000
-0.032544 0.019513 0.876000
0.013138 -0.034505 0.893000
-0.008127 0.020309 0.849000
-0.030658 0.003318 0.884000
0.004673 -0.027093 0.891000
-0.007039 -0.010555 0.888000
0.024418 -0.017007 0.863000
-0.029399 0.045628 0.879000
-0.026408 0.020312 0.864000
0.034559 -0.017635 0.859000
-0.021173 -0.013403 0.883000
0.025540 0.001095 0.853000
0.016431 0.001097 0.854000
-0.006681 -0.017519 0.889000
-0.006643 -0.006505 0.884000
-0.002882 0.020983 0.848000
0.011199 -0.020354 0.885000
0.007938 -0.019670 0.887000
-0.000091 0.003586 0.861000
-0.010328 -0.011286 0.888000
-0.003605 0.012344 0.854000
0.013094 -0.025598 0.890000
0.036242 -0.015478 0.857000
0.032990 -0.005940 0.855000
0.029187 -0.013361 0.857000
-0.006706 0.029290 0.846000
-0.011608 0.023775 0.848000
0.006492 -0.020080 0.889000
-0.020786 -0.019559 0.882000
0.014428 -0.020648 0.882000
0.043635 -0.027059 0.878000
-0.013572 -0.018169 0.885000
-0.014648 -0.023606 0.884000
0.035184 -0.000663 0.857000
0.014707 -0.016922 0.877000
-0.031705 0.030234 0.863000
-0.015393 0.032038 0.845000
0.010844 -0.003485 0.857000
0.003573 -0.022326 0.891000
-0.029964 0.004779 0.885000
-0.034984 0.006949 0.883000
-0.030122 -0.014428 0.879000
-0.017136 0.003670 0.881000
-0.001486 0.018540 0.848000
-0.036397 0.006578 0.882000
-0.030881 0.015256 0.880000
-0.014995 -0.025033 0.883000
0.007607 -0.032594 0.891000
-0.006801 0.008518 0.858000
0.008678 -0.043449 0.888000
-0.009480 0.029604 0.845000
0.031450 -0.017676 0.861000
-0.010598 0.020707 0.851000
0.017895 -0.021180 0.874000
-0.023288 0.015744 0.867000
-0.013605 0.013911 0.864000
-0.001559 -0.020469 0.890000
-0.010258 -0.002135 0.882000
-0.029136 0.012386 0.882000
-0.006681 -0.012762 0.889000
-0.006308 -0.010555 0.888000
0.006882 -0.027124 0.892000
-0.011737 -0.025061 0.884000
0.007652 0.001450 0.855000
0.031231 0.000042 0.855000
-0.031386 0.032758 0.864000
-0.007054 0.026853 0.846000
0.038084 -0.030928 0.875000
-0.044182 0.004018 0.878000
-0.029037 0.014153 0.879000
0.000272 -0.024865 0.890000
0.016317 -0.025118 0.886000
0.006147 -0.025288 0.892000
-0.012509 0.013879 0.862000
-0.023345 0.027170 0.856000
0.006140 -0.030394 0.891000
-0.023664 -0.019537 0.881000
-0.002292 -0.016074 0.890000
0.010920 -0.028959 0.892000
0.008135 -0.010687 0.869000
0.011496 0.005308 0.853000
0.013970 0.001097 0.854000
-0.040883 -0.004649 0.877000
0.011132 0.008458 0.852000
-0.025228 0.006600 0.885000
-0.021149 0.006215 0.882000
-0.022601 -0.015566 0.882000
-0.001556 -0.028098 0.888000
-0.011103 0.008212 0.863000
0.039474 -0.026689 0.866000
-0.025869 0.009845 0.882000
0.010785 -0.016999 0.881000
-0.022455 0.032190 0.849000
-0.036635 -0.004660 0.879000
-0.028474 0.001499 0.884000
0.004652 -0.040844 0.887000
0.026913 -0.002062 0.852000
0.009786 -0.003132 0.857000
-0.019225 0.008345 0.877000
-0.039484 -0.006100 0.878000
-0.025781 0.034881 0.855000
0.025277 -0.009470 0.856000
-0.020810 -0.014857 0.883000
-0.020833 -0.010871 0.884000
-0.000827 -0.023400 0.890000
0.007184 -0.016693 0.884000
-0.026958 -0.011210 0.882000
0.037741 0.004992 0.859000
-0.017213 0.027298 0.849000
-0.024780 -0.014477 0.882000
-0.021776 0.009800 0.878000
0.009775 -0.045642 0.888000
-0.025575 0.015476 0.872000
0.032324 -0.014403 0.856000
-0.021000 0.017761 0.861000
-0.038050 0.027973 0.870000
-0.022339 -0.000321 0.886000
0.015728 0.002151 0.854000
-0.026022 0.023130 0.863000
-0.039619 0.005483 0.881000
0.035082 -0.028669 0.872000
0.017234 -0.006321 0.859000
-0.011352 0.018341 0.855000
0.010806 0.002854 0.854000
0.033966 -0.027561 0.871000
-0.006809 0.008174 0.859000
0.016078 -0.030829 0.893000
-0.034257 0.005132 0.883000
0.017515 -0.017922 0.873000
-0.024516 0.023758 0.860000
-0.027290 -0.014461 0.881000
0.021877 -0.023726 0.875000
0.009389 0.005659 0.853000
0.037163 -0.023018 0.862000
0.006948 0.002506 0.855000
-0.039982 0.006933 0.881000
-0.022964 -0.021737 0.882000
-0.029422 0.021503 0.869000
-0.010293 -0.024725 0.885000
-0.007814 0.017596 0.853000
0.039955 -0.016259 0.861000
0.037387 0.005699 0.859000
-0.018286 -0.016693 0.884000
0.011249 -0.044961 0.889000
-0.021910 0.024323 0.855000
0.013794 -0.009570 0.865000
-0.039390 -0.007597 0.884000
0.013873 -0.033402 0.893000
0.026242 -0.006277 0.853000
-0.026535 -0.016980 0.880000
-0.009979 0.015227 0.858000
-0.026565 -0.012648 0.881000
0.006215 0.013001 0.851000
-0.018983 0.028030 0.850000
0.006492 -0.038741 0.889000
0.019040 -0.034911 0.894000
0.030562 -0.013346 0.856000
-0.004465 -0.008698 0.885000
-0.043294 0.014927 0.882000
-0.024133 0.023730 0.859000
-0.029930 0.002591 0.884000
-0.036660 0.035533 0.871000
0.037034 0.004992 0.859000
-0.020151 -0.006155 0.886000
-0.035549 -0.007554 0.879000
-0.031243 -0.014082 0.880000
-0.006737 0.018584 0.850000
-0.031963 0.022960 0.870000
-0.024836 0.006593 0.884000
-0.008576 0.009588 0.859000
-0.006706 0.025808 0.846000
-0.031314 -0.001772 0.882000
-0.007752 -0.025483 0.886000
-0.036190 0.021340 0.877000
0.020343 -0.021108 0.871000
-0.017882 -0.022463 0.882000
-0.001915 -0.037110 0.885000
-0.015393 0.030995 0.845000
0.019245 -0.017503 0.870000
-0.042062 0.003299 0.879000
-0.043245 -0.003945 0.881000
-0.029540 0.027716 0.862000
0.037785 0.007476 0.860000
-0.040883 0.024588 0.877000
-0.037952 0.036098 0.876000
-0.025282 0.022039 0.862000
0.020319 -0.020009 0.870000
-0.023328 -0.014840 0.882000
0.038139 -0.019425 0.860000
0.043295 -0.021649 0.864000
0.018188 -0.002418 0.854000
-0.004970 0.021656 0.847000
-0.019014 -0.015601 0.884000
-0.026988 -0.004681 0.883000
-0.008204 0.012035 0.857000
0.008717 -0.025655 0.892000
-0.009176 0.021707 0.849000
-0.027443 0.025261 0.863000
-0.002184 0.023426 0.848000
0.030298 -0.030346 0.879000
-0.022666 0.022617 0.857000
-0.021197 -0.012691 0.884000
-0.032098 0.031692 0.864000
-0.027637 0.029353 0.858000
-0.013668 0.006831 0.868000
0.046994 -0.018791 0.880000
-0.038855 0.026961 0.872000
0.033067 0.004980 0.857000
0.002099 -0.015672 0.888000
0.038982 -0.024111 0.863000
-0.025399 0.034137 0.854000
-0.018971 -0.022463 0.882000
0.023055 -0.000309 0.852000
0.000272 -0.021568 0.890000
0.002836 -0.018271 0.890000
0.034679 -0.020890 0.862000
-0.008920 0.010990 0.858000
-0.021875 0.006941 0.882000
-0.028931 0.024608 0.865000
-0.035748 0.022732 0.875000
0.016427 -0.029326 0.892000
0.004287 -0.042670 0.887000
-0.025224 0.024820 0.860000
-0.005325 0.020983 0.848000
0.031456 -0.025410 0.871000
-0.019742 -0.012327 0.884000
-0.004409 -0.004633 0.874000
0.031098 -0.025051 0.871000
0.032137 -0.025380 0.870000
-0.009200 -0.025818 0.885000
0.035553 -0.024551 0.866000
0.014472 -0.008837 0.863000
-0.007759 0.023050 0.847000
-0.004622 0.024096 0.847000
-0.007371 -0.032338 0.884000
0.032324 0.000395 0.856000
0.040664 -0.019802 0.861000
0.001365 -0.042986 0.886000
0.004133 0.002857 0.855000
-0.021537 -0.023216 0.883000
-0.001137 0.023426 0.848000
-0.006665 -0.023686 0.887000
-0.022627 -0.013767 0.883000
0.009511 -0.008136 0.864000
-0.006308 -0.010190 0.888000
-0.025667 0.020644 0.863000
0.036496 -0.023045 0.863000
-0.011059 -0.013845 0.888000
0.015025 0.005315 0.854000
-0.046775 -0.001794 0.893000
0.003199 -0.017519 0.889000
-0.042424 0.002214 0.879000
-0.042062 0.004385 0.879000
-0.005949 -0.018251 0.889000
-0.015741 0.030647 0.845000
-0.022601 -0.016292 0.882000
-0.012610 0.028212 0.845000
0.027998 -0.006979 0.853000
-0.012954 0.005759 0.868000
-0.023100 0.019510 0.860000
-0.021608 0.020853 0.857000
-0.012073 -0.000682 0.882000
0.032159 -0.018385 0.861000
-0.041116 0.012749 0.882000
0.006915 0.010199 0.851000
-0.010598 0.021057 0.851000
0.008313 -0.043083 0.888000
0.005774 -0.029294 0.891000
-0.030122 0.014876 0.879000
-0.038255 0.016398 0.883000
0.034009 -0.021269 0.863000
0.037249 -0.024139 0.864000
-0.009626 0.015227 0.858000
-0.034503 -0.003941 0.880000
-0.011604 0.000763 0.874000
0.006948 0.003209 0.855000
-0.028378 -0.009747 0.881000
0.026944 -0.005926 0.853000
0.036680 0.003224 0.859000
-0.015358 -0.025033 0.883000
0.002026 0.002864 0.857000
0.003918 -0.044080 0.886000
-0.014819 0.023537 0.852000
-0.032172 0.036755 0.866000
0.032513 -0.019094 0.861000
0.020273 -0.003469 0.853000
0.003077 0.003913 0.855000
0.029858 -0.012993 0.856000
-0.008805 0.023399 0.847000
-0.005205 -0.037924 0.887000
-0.006315 -0.016787 0.889000
-0.034865 -0.003578 0.880000
-0.021561 0.005137 0.884000
-0.040930 -0.003570 0.878000
-0.020781 0.028095 0.852000
0.020273 -0.016391 0.868000
0.021957 -0.013826 0.864000
0.010908 -0.025260 0.891000
-0.011737 -0.025789 0.884000
-0.015704 -0.026094 0.882000
-0.035952 -0.004303 0.880000
0.001367 -0.037924 0.887000
-0.025043 0.016439 0.866000
0.018275 -0.022645 0.875000
0.000259 0.019936 0.848000
-0.008217 -0.036136 0.897000
-0.016523 -0.008353 0.887000
0.022669 -0.014182 0.864000
0.040711 -0.016632 0.862000
-0.021528 0.015762 0.868000
-0.043921 0.010909 0.880000
0.031897 -0.005933 0.854000
-0.008098 0.027898 0.846000
-0.017234 -0.011625 0.886000
-0.012197 0.007875 0.865000
-0.039709 0.015671 0.883000
-0.004273 0.023747 0.847000
0.006113 -0.044130 0.887000
-0.018347 0.023916 0.853000
0.018891 0.002503 0.854000
-0.022213 -0.019174 0.881000
-0.040027 0.010208 0.882000
0.011654 -0.028225 0.892000
-0.033740 -0.010810 0.879000
0.018593 -0.020797 0.873000
-0.023614 0.029533 0.853000
0.006565 0.016154 0.851000
-0.022339 -0.003968 0.886000
-0.016523 -0.007258 0.887000
-0.004110 -0.028797 0.887000
0.022918 -0.010930 0.860000
0.009741 0.004606 0.853000
-0.037123 0.007667 0.882000
0.009763 0.002154 0.855000
-0.004465 -0.035653 0.885000
-0.029540 0.033747 0.862000
0.025129 -0.017007 0.863000
0.012470 -0.012518 0.872000
0.029788 0.000745 0.854000
-0.036149 0.022037 0.876000
-0.020886 0.014383 0.871000
-0.023368 0.015082 0.870000
-0.006681 -0.017153 0.889000
0.019243 0.002503 0.854000
0.027008 -0.009811 0.855000
-0.000813 -0.008240 0.875000
0.043345 -0.023454 0.865000
0.017485 0.000394 0.854000
-0.007778 -0.016056 0.889000
0.025861 0.000393 0.852000
0.034564 -0.025322 0.868000
-0.024780 -0.012299 0.882000
-0.010536 0.033469 0.846000
-0.043971 0.012735 0.881000
0.006030 -0.007520 0.875000
0.037387 -0.017635 0.859000
-0.022268 0.015422 0.869000
-0.026708 -0.019914 0.898000
-0.022157 0.029814 0.851000
0.004118 0.009510 0.852000
-0.011022 -0.024361 0.885000
-0.024500 -0.002142 0.885000
-0.001554 -0.033908 0.887000
-0.004633 0.018212 0.849000
-0.030951 -0.003950 0.882000
-0.029490 0.020118 0.871000
-0.014284 -0.000684 0.884000
0.035225 0.002514 0.858000
-0.044854 -0.002122 0.877000
0.005040 -0.025993 0.891000
0.023708 -0.016652 0.863000
0.018869 -0.001713 0.853000
0.025484 -0.016652 0.863000
-0.035671 0.006215 0.882000
-0.010316 -0.005797 0.887000
0.014608 -0.036710 0.893000
-0.016113 0.014639 0.865000
-0.020423 0.005489 0.882000
-0.022964 -0.015203 0.882000
-0.026868 0.030341 0.856000
-0.025106 0.035978 0.856000
-0.025014 0.017132 0.865000
-0.010633 -0.031574 0.883000
0.026427 -0.013039 0.859000
-0.013204 0.015281 0.861000
0.014673 0.007072 0.854000
-0.002902 0.009181 0.854000
-0.001559 -0.015707 0.890000
-0.005558 -0.031282 0.885000
0.031673 -0.030277 0.877000
0.000962 0.011263 0.852000
-0.027383 0.008776 0.884000
0.024418 -0.017717 0.863000
-0.032655 -0.011895 0.879000
0.022517 -0.029858 0.886000
0.031582 -0.011571 0.855000
0.039955 -0.019802 0.861000
-0.037061 0.025525 0.872000
0.031934 -0.011571 0.855000
-0.001924 -0.025569 0.889000
-0.015029 -0.018533 0.885000
0.002423 -0.007862 0.873000
0.023543 -0.009129 0.857000
-0.019985 0.035991 0.848000
0.012008 -0.037728 0.891000
-0.016206 0.011143 0.870000
-0.016121 -0.015983 0.885000
0.016738 -0.027398 0.889000
0.004123 0.008468 0.853000
-0.035952 0.018515 0.880000
-0.021935 0.021886 0.856000
-0.027734 0.026620 0.861000
0.014322 0.003557 0.854000
-0.040615 0.034413 0.879000
-0.031021 0.010595 0.884000
-0.013904 -0.027940 0.883000
-0.011567 0.034125 0.845000
0.002706 0.017164 0.849000
0.015130 -0.005975 0.860000
-0.037963 0.030767 0.868000
-0.044594 0.009450 0.879000
0.005182 0.003909 0.854000
-0.014715 0.035558 0.846000
-0.040930 0.023894 0.878000
0.034872 0.006752 0.858000
-0.013020 0.024502 0.849000
0.001371 -0.018271 0.890000
-0.011750 -0.003235 0.885000
-0.041479 0.015290 0.882000
-0.009514 0.022379 0.848000
0.021327 0.001798 0.853000
-0.039528 0.028722 0.871000
0.009786 -0.042400 0.889000
-0.021206 0.022916 0.855000
-0.043459 0.002212 0.878000
0.030812 -0.018783 0.863000
0.010504 -0.004195 0.858000
-0.004475 -0.027702 0.887000
-0.046298 0.003653 0.877000
0.006627 -0.002079 0.859000
-0.026438 0.018912 0.865000
0.012599 -0.018812 0.881000
-0.024278 0.012316 0.877000
0.031915 -0.020938 0.864000
0.007768 -0.009603 0.868000
-0.004465 -0.036017 0.885000
-0.041605 -0.004649 0.877000
-0.011750 -0.021447 0.885000
-0.020423 -0.020648 0.882000
-0.013148 0.000769 0.881000
0.038756 -0.007727 0.858000
0.005376 -0.045904 0.886000
0.034478 0.001101 0.857000
0.005040 -0.025626 0.891000
0.031168 -0.019138 0.863000
0.017837 0.003909 0.854000
-0.023563 0.017112 0.864000
-0.040799 0.017125 0.883000
0.035973 0.006760 0.859000
-0.017214 0.000772 0.885000
-0.032113 0.008048 0.884000
-0.003376 -0.034234 0.886000
0.036904 -0.010175 0.856000
-0.013637 0.010023 0.866000
-0.023153 0.018137 0.862000
0.005225 -0.001729 0.861000
-0.015323 0.002944 0.881000
-0.015097 0.011832 0.868000
0.001368 -0.014941 0.888000
0.014506 -0.009570 0.865000
-0.017539 0.002588 0.883000
0.041421 -0.020535 0.862000
0.000959 0.022056 0.849000
-0.005576 -0.023347 0.888000
-0.032804 0.014217 0.883000
-0.023301 -0.018087 0.881000
-0.001839 0.016135 0.850000
-0.026535 0.011634 0.880000
-0.006357 0.028246 0.846000
0.005176 0.008117 0.853000
-0.012142 -0.013829 0.887000
-0.007362 -0.004681 0.883000
0.034005 -0.028310 0.872000
-0.010636 0.018671 0.854000
-0.017598 -0.011625 0.886000
0.012727 -0.025598 0.890000
0.003776 0.006018 0.854000
-0.001489 0.015085 0.850000
-0.023717 -0.009769 0.883000
0.010174 -0.034428 0.891000
-0.023691 -0.013025 0.882000
0.021129 -0.030691 0.889000
0.006588 0.004612 0.854000
-0.043459 0.030760 0.878000
0.033459 -0.016555 0.858000
-0.023017 0.005865 0.884000
0.026468 -0.022926 0.872000
0.031888 -0.026905 0.873000
0.015343 -0.032300 0.893000
0.027134 -0.029724 0.882000
0.007994 0.005315 0.854000
0.013619 0.009532 0.854000
0.040309 0.006067 0.861000
-0.003745 -0.029527 0.887000
-0.016103 -0.020331 0.884000
0.025809 -0.016632 0.862000
-0.018307 -0.013798 0.885000
-0.012524 0.013185 0.863000
0.006140 -0.031127 0.891000
-0.017983 -0.004337 0.887000
-0.009211 -0.022565 0.886000
-0.026163 0.034569 0.856000
0.038538 0.007839 0.861000
0.027841 -0.013746 0.859000
0.021108 -0.022953 0.873000
-0.048048 0.003288 0.876000
-0.017195 0.001863 0.884000
0.021295 -0.014571 0.866000
-0.023937 0.030199 0.852000
0.005547 0.000747 0.856000
-0.027166 0.014482 0.877000
-0.028316 0.018977 0.868000
0.013954 0.004957 0.853000
0.027263 -0.004517 0.852000
-0.020763 -0.022075 0.881000
-0.023780 0.022670 0.859000
-0.030020 0.040064 0.876000
-0.024246 0.018158 0.863000
-0.027252 0.030024 0.857000
-0.022601 -0.022100 0.882000
-0.037806 0.019624 0.881000
-0.005909 0.006949 0.883000
0.014909 -0.026301 0.889000
-0.020857 -0.006877 0.885000
-0.011425 -0.032484 0.888000
-0.028410 -0.005765 0.882000
0.004307 -0.024893 0.891000
-0.023407 -0.003963 0.885000
0.011654 -0.026389 0.892000
0.012270 -0.003842 0.858000
-0.022652 0.015082 0.870000
0.039110 -0.005255 0.858000
-0.032432 0.040645 0.873000
0.039073 -0.026303 0.865000
0.027647 -0.001362 0.853000
-0.043245 0.011284 0.881000
0.020203 -0.012774 0.865000
0.013985 -0.016922 0.877000
0.048750 -0.017684 0.879000
0.025921 -0.007691 0.854000
-0.018142 0.007623 0.877000
-0.015958 0.006533 0.876000
-0.030207 0.040911 0.871000
-0.002292 -0.015707 0.890000
0.020413 -0.022979 0.874000
0.017858 -0.003477 0.855000
-0.000789 0.016116 0.849000
-0.037892 0.011310 0.883000
-0.009132 0.030647 0.845000
0.003785 0.002156 0.856000
0.031804 -0.018385 0.861000
-0.019137 0.011541 0.873000
-0.004845 -0.011286 0.888000
-0.025200 -0.006505 0.884000
0.031546 -0.004879 0.854000
-0.040790 0.026333 0.875000
-0.012521 -0.011652 0.888000
-0.011059 -0.012017 0.888000
0.038847 0.006768 0.860000
-0.047435 0.008716 0.878000
0.009832 -0.005982 0.861000
-0.001531 -0.007151 0.874000
-0.032077 0.004041 0.883000
0.018976 -0.030394 0.891000
0.038361 -0.025947 0.865000
-0.012829 -0.024697 0.884000
0.004652 -0.042670 0.887000
-0.041479 0.016016 0.882000
-0.012610 0.032734 0.845000
0.008313 -0.044545 0.888000
-0.036314 -0.003216 0.880000
-0.019241 0.034165 0.846000
0.036327 -0.017635 0.859000
-0.035024 0.012778 0.884000
0.028733 -0.008745 0.854000
0.047195 -0.020531 0.877000
-0.031641 0.015273 0.881000
-0.048408 0.003288 0.876000
-0.035789 0.021676 0.876000
0.040216 -0.002432 0.859000
0.006500 -0.035122 0.890000
-0.017943 -0.014162 0.885000
-0.000789 0.023803 0.849000
-0.008447 0.025112 0.846000
0.031194 -0.005230 0.854000
0.000272 -0.017539 0.890000
0.004668 -0.029993 0.890000
0.039201 -0.015886 0.860000
-0.005564 -0.029494 0.886000
0.032715 0.004980 0.857000
-0.027197 0.013775 0.878000
-0.036449 0.033547 0.866000
0.009809 -0.004554 0.859000
0.014707 -0.002072 0.856000
0.003557 -0.041940 0.887000
-0.000827 -0.019004 0.890000
0.009028 0.007406 0.852000
-0.028730 0.031862 0.859000
0.013873 -0.031197 0.893000
-0.025114 -0.016999 0.881000
-0.010130 0.001477 0.871000
-0.042424 0.005832 0.879000
-0.026316 0.025912 0.861000
0.019019 -0.033770 0.893000
0.038892 -0.019802 0.861000
-0.006681 -0.010933 0.889000
0.013123 -0.037403 0.892000
-0.014268 -0.027940 0.883000
-0.005721 0.013766 0.855000
-0.010176 0.027169 0.845000
-0.025535 0.009129 0.883000
-0.017456 0.018115 0.861000
-0.016085 0.001497 0.883000
0.038094 -0.000311 0.859000
0.032324 -0.014755 0.856000
-0.017618 -0.006528 0.887000
-0.016475 0.036297 0.847000
-0.014383 0.008974 0.868000
0.008375 -0.002074 0.857000
0.032681 -0.029488 0.875000
-0.024026 -0.020625 0.881000
-0.000824 -0.012734 0.887000
-0.031385 0.005137 0.884000
0.027551 -0.015550 0.861000
-0.023407 -0.002870 0.885000
0.015025 0.007775 0.854000
-0.023380 -0.007233 0.884000
-0.004840 -0.025146 0.887000
-0.007371 -0.033793 0.884000
0.007522 -0.014461 0.881000
-0.043147 0.005470 0.879000
-0.004308 0.010587 0.854000
-0.027990 0.030412 0.858000
-0.017559 0.002227 0.884000
-0.017294 0.023213 0.853000
-0.023263 0.028831 0.853000
-0.015184 0.005792 0.873000
0.040617 -0.001019 0.860000
0.009452 -0.031162 0.892000
-0.043459 0.000766 0.878000
0.015728 0.004612 0.854000
-0.019752 0.026022 0.853000
-0.005929 -0.028035 0.886000
0.036637 0.001808 0.858000
-0.033568 0.010595 0.884000
-0.006016 0.029325 0.847000
0.042228 -0.023072 0.864000
0.009064 -0.036587 0.890000
-0.006009 0.024764 0.846000
0.013123 -0.042910 0.892000
-0.027715 -0.003591 0.883000
-0.000090 0.016116 0.849000
-0.031677 0.014201 0.882000
0.036991 0.000042 0.858000
-0.013066 0.021783 0.852000
-0.003011 -0.034234 0.886000
-0.013605 0.013200 0.864000
-0.016631 0.020453 0.855000
-0.010657 -0.022904 0.885000
0.010186 -0.030795 0.892000
-0.046094 0.011996 0.880000
-0.010282 -0.028336 0.884000
0.013603 0.004606 0.853000
0.012022 -0.036669 0.892000
0.047195 -0.020170 0.877000
0.034046 -0.010163 0.855000
-0.048769 0.004370 0.876000
0.016832 -0.033808 0.894000
-0.024334 0.010535 0.879000
-0.042688 -0.002122 0.877000
-0.009273 0.014168 0.858000
-0.026499 0.017171 0.867000
-0.024892 0.001867 0.886000
-0.012350 0.022458 0.851000
-0.021900 -0.014130 0.883000
0.034519 -0.017261 0.858000
0.016469 -0.002776 0.856000
0.003922 -0.039019 0.887000
-0.022704 -0.000321 0.886000
0.032739 -0.023152 0.867000
0.012028 -0.010294 0.866000
0.013283 0.000746 0.855000
-0.030640 0.027748 0.863000
-0.015437 0.012532 0.867000
-0.001137 0.022030 0.848000
-0.015063 -0.002877 0.887000
0.039909 0.000396 0.860000
-0.036093 0.033547 0.866000
-0.001552 -0.034964 0.886000
-0.035778 0.035013 0.867000
0.002824 -0.041892 0.886000
-0.026285 0.026589 0.860000
-0.021032 0.033199 0.848000
-0.004119 -0.020080 0.889000
-0.016467 -0.018512 0.884000
0.023193 -0.028700 0.884000
-0.022105 0.034636 0.849000
-0.049186 0.006180 0.877000
-0.002658 -0.019737 0.890000
0.005514 0.017905 0.851000
0.009742 -0.019262 0.885000
-0.041747 0.008012 0.880000
-0.030088 0.015944 0.878000
0.013283 0.000042 0.855000
0.023757 -0.003815 0.852000
0.013298 -0.001719 0.856000
-0.007087 0.019283 0.850000
0.004458 0.017884 0.850000
-0.042349 -0.005056 0.885000
-0.008098 0.030683 0.846000
0.046323 -0.019537 0.881000
-0.021875 -0.016292 0.882000
0.025189 -0.006277 0.853000
0.018869 -0.000309 0.853000
0.037022 -0.026720 0.867000
-0.011009 -0.027608 0.884000
0.008708 0.003209 0.855000
0.001657 0.019960 0.849000
0.012008 -0.036995 0.891000
-0.009232 -0.016768 0.888000
-0.004845 -0.024078 0.888000
-0.008457 0.024096 0.847000
0.001313 0.010211 0.852000
0.037653 -0.014067 0.857000
0.015343 -0.036343 0.893000
0.008303 -0.019305 0.887000
0.008492 -0.010687 0.869000
0.030634 -0.015496 0.858000
-0.002652 -0.040159 0.888000
-0.029432 -0.014444 0.880000
-0.017891 0.037387 0.848000
0.026913 -0.004166 0.852000
0.012770 -0.032300 0.893000
-0.025756 0.017508 0.866000
0.040048 -0.024111 0.863000
0.016450 -0.002421 0.855000
0.000260 0.014036 0.850000
0.019665 -0.029594 0.889000
0.038538 -0.020511 0.861000
0.017470 -0.027764 0.889000
-0.027590 0.013429 0.879000
0.017608 -0.006683 0.860000
0.031057 -0.031829 0.880000
-0.036260 0.026541 0.870000
-0.017598 -0.001050 0.886000
0.038006 -0.009481 0.857000
0.014791 -0.021011 0.882000
-0.039619 0.008746 0.881000
-0.034503 -0.004303 0.880000
-0.005199 -0.009073 0.886000
0.037300 -0.008423 0.857000
-0.029999 0.034932 0.865000
0.016060 -0.029694 0.892000
-0.012843 -0.021811 0.885000
0.013873 -0.029727 0.893000
-0.037316 0.021725 0.878000
0.009764 -0.020765 0.887000
0.005899 0.000395 0.856000
-0.017902 -0.019945 0.883000
-0.021875 -0.019559 0.882000
0.005774 -0.032961 0.891000
0.002009 0.021033 0.850000
0.035225 -0.016555 0.858000
0.036552 -0.010175 0.856000
-0.038575 0.010208 0.882000
-0.006272 -0.005771 0.883000
0.017874 -0.017563 0.873000
0.007679 -0.002430 0.858000
-0.013127 0.019420 0.856000
-0.003376 -0.033140 0.886000
-0.011551 0.003266 0.870000
0.020749 -0.022593 0.873000
0.002824 -0.042257 0.886000
-0.019385 0.015047 0.868000
-0.024500 0.006236 0.885000
0.017506 0.005321 0.855000
-0.034627 0.030660 0.865000
0.001365 -0.041528 0.886000
0.001737 -0.019370 0.890000
0.037387 -0.017281 0.859000
-0.015793 -0.008718 0.887000
-0.028474 0.009867 0.884000
0.012241 0.000042 0.856000
-0.001924 -0.024105 0.889000
0.006514 -0.024187 0.892000
-0.031750 0.041771 0.874000
-0.021925 -0.008688 0.884000
0.014608 -0.036343 0.893000
-0.026083 0.013399 0.877000
-0.030817 0.038269 0.868000
-0.024611 0.013023 0.876000
0.013037 -0.008117 0.862000
0.024983 -0.010905 0.858000
0.000614 0.004622 0.856000
0.000261 0.005673 0.855000
-0.003258 0.008840 0.855000
0.037120 -0.020157 0.861000
-0.010524 0.027865 0.845000
0.029085 0.002854 0.854000
-0.008165 0.017596 0.853000
0.008322 -0.041668 0.889000
-0.005205 -0.026972 0.887000
0.001308 0.020658 0.849000
-0.007770 -0.017499 0.888000
-0.005011 0.014453 0.854000
-0.026133 0.033825 0.855000
-0.029320 0.023924 0.866000
-0.021900 0.005858 0.883000
-0.003952 0.014085 0.853000
-0.024956 0.018868 0.863000
-0.003753 -0.014226 0.889000
-0.014451 0.023859 0.851000
-0.042883 0.010922 0.881000
0.026593 0.000042 0.853000
0.027998 -0.003469 0.853000
-0.041070 0.034491 0.881000
-0.026897 -0.017704 0.880000
-0.003962 0.008840 0.855000
0.030991 -0.022821 0.868000
-0.003938 0.017184 0.850000
0.033193 -0.032517 0.879000
0.048388 -0.017684 0.879000
-0.018524 0.007271 0.878000
0.033420 0.003922 0.857000
0.044159 -0.023866 0.867000
0.012035 -0.033035 0.893000
-0.015437 0.013246 0.867000
-0.028608 0.023567 0.866000
-0.026655 -0.001048 0.884000
-0.022157 0.037169 0.851000
0.005292 -0.011083 0.872000
0.027998 -0.006628 0.853000
-0.021149 -0.019922 0.882000
-0.021032 0.031105 0.848000
-0.028079 0.010583 0.883000
0.000272 -0.027764 0.889000
0.007300 0.002506 0.855000
-0.003376 -0.039340 0.886000
0.009155 -0.008136 0.864000
-0.020659 0.034554 0.847000
0.036242 -0.003132 0.857000
-0.004110 -0.027337 0.887000
-0.004845 -0.021520 0.888000
-0.006365 0.029674 0.847000
-0.029103 -0.009747 0.881000
0.016782 0.004963 0.854000
-0.032566 0.026092 0.867000
-0.051495 0.006652 0.892000
-0.042785 0.005832 0.879000
-0.040253 0.002576 0.879000
-0.032367 -0.005033 0.881000
0.021577 -0.012389 0.863000
-0.024459 0.026175 0.858000
-0.045215 0.001848 0.877000
-0.021851 -0.019900 0.881000
-0.044905 0.004380 0.878000
0.040971 0.000042 0.860000
-0.010974 0.019703 0.853000
0.039555 0.002520 0.860000
0.009797 -0.040616 0.890000
0.031134 -0.025798 0.872000
-0.015793 -0.010543 0.887000
-0.010524 0.028908 0.845000
0.019688 -0.030360 0.890000
0.012613 -0.019559 0.882000
-0.004119 -0.014592 0.889000
-0.021586 0.004415 0.885000
0.012623 -0.004195 0.858000
-0.006643 -0.033066 0.884000
0.024136 -0.006628 0.853000
-0.001186 -0.010884 0.885000
-0.014757 0.007554 0.869000
-0.016107 0.036254 0.846000
-0.031208 -0.012619 0.879000
-0.004101 -0.033467 0.885000
0.036099 -0.022309 0.862000
0.004950 -0.012201 0.875000
0.000965 0.005321 0.855000
-0.012610 0.029951 0.845000
-0.008846 -0.024753 0.886000
0.000627 -0.008590 0.874000
0.013314 -0.002074 0.857000
-0.037720 -0.003574 0.879000
-0.009554 -0.003595 0.884000
0.012756 -0.037403 0.892000
0.000272 -0.024132 0.890000
-0.004845 -0.021154 0.888000
-0.023863 0.018491 0.862000
0.045804 -0.019990 0.885000
-0.020151 -0.006885 0.886000
-0.028871 0.007329 0.885000
0.016431 0.000042 0.854000
-0.023691 -0.016292 0.882000
0.016880 -0.005968 0.859000
-0.034503 -0.006476 0.880000
-0.019137 0.011182 0.873000
0.038359 -0.011245 0.857000
-0.041870 0.031015 0.875000
0.021177 -0.032227 0.891000
-0.008836 -0.034560 0.885000
-0.025143 0.009482 0.882000
0.032009 -0.015125 0.857000
-0.031459 0.025706 0.866000
0.007266 0.012301 0.851000
0.009455 -0.004200 0.859000
0.016133 -0.018705 0.876000
0.010518 -0.022642 0.889000
-0.020550 0.020148 0.857000
-0.036801 0.009856 0.883000
0.039555 -0.016240 0.860000
0.003772 0.008819 0.853000
0.012900 0.003553 0.853000
0.012991 -0.005614 0.859000
0.015376 0.006018 0.854000
0.005885 0.003909 0.854000
0.018526 -0.027337 0.887000
-0.025171 -0.007225 0.883000
0.003557 -0.038654 0.887000
0.004142 0.001101 0.857000
0.001681 0.001814 0.861000
-0.019742 -0.013418 0.884000
-0.031314 -0.003224 0.882000
0.010920 -0.034833 0.892000
-0.028730 0.031155 0.859000
0.023873 -0.021775 0.869000
-0.030172 0.021528 0.870000
-0.013306 0.030647 0.845000
0.032324 -0.014050 0.856000
0.009060 0.003209 0.855000
-0.022613 0.026787 0.855000
-0.027538 0.021785 0.866000
-0.011034 -0.004332 0.886000
0.005407 -0.021226 0.891000
0.015343 -0.031932 0.893000
0.013702 -0.019922 0.882000
0.039201 0.004998 0.860000
-0.008271 0.006088 0.864000
0.017515 -0.017204 0.873000
-0.021181 0.024647 0.854000
-0.006777 0.014118 0.855000
0.015783 -0.003838 0.857000
0.008346 0.003909 0.854000
-0.028740 -0.011560 0.881000
0.013874 -0.011774 0.870000
-0.015410 -0.002144 0.886000
-0.007104 0.017575 0.852000
-0.003021 -0.014226 0.889000
-0.003383 -0.026637 0.888000
-0.021610 -0.004332 0.886000
-0.011827 0.008222 0.864000
-0.012128 -0.017460 0.886000
0.031582 0.000042 0.855000
-0.007750 0.027201 0.846000
-0.039932 0.029114 0.872000
-0.014648 -0.022150 0.884000
-0.006673 -0.009824 0.888000
0.032600 -0.011206 0.854000
-0.007507 0.009224 0.858000
-0.014740 0.011118 0.868000
0.037249 -0.024850 0.864000
0.004297 -0.036546 0.889000
0.034750 -0.010163 0.855000
-0.049458 0.000413 0.895000
-0.002652 -0.012383 0.888000
-0.035870 0.020280 0.878000
-0.007769 0.021332 0.848000
-0.020334 0.035991 0.848000
0.034046 -0.006996 0.855000
0.013384 -0.022176 0.885000
-0.032113 0.010231 0.884000
0.007224 -0.037643 0.889000
0.014690 -0.001013 0.855000
0.039201 0.002874 0.860000
0.007661 0.000042 0.856000
-0.017598 -0.009437 0.886000
0.015952 -0.024389 0.886000
0.010504 -0.003842 0.858000
-0.004470 -0.030952 0.886000
-0.036397 0.005852 0.882000
0.028383 -0.030987 0.887000
0.016758 -0.014296 0.871000
-0.028507 0.008057 0.885000
-0.032295 -0.014226 0.889000
-0.038169 0.005120 0.881000
-0.034945 0.016016 0.882000
0.012327 -0.008117 0.862000
0.020693 -0.028400 0.886000
-0.017963 -0.009802 0.886000
-0.012169 0.012474 0.863000
0.010198 -0.007408 0.862000
-0.007039 -0.009459 0.888000
-0.003376 -0.030952 0.886000
-0.006016 0.022353 0.847000
0.030527 0.003209 0.855000
-0.032506 0.020211 0.875000
0.024475 -0.019894 0.865000
-0.005564 -0.027670 0.886000
0.037257 -0.010879 0.856000
-0.022261 0.026787 0.855000
-0.014681 -0.014543 0.886000
0.011289 -0.009203 0.864000
-0.029466 -0.010835 0.881000
-0.038006 0.032590 0.869000
-0.002533 0.024473 0.848000
-0.009840 0.025460 0.846000
-0.004298 0.015471 0.852000
-0.029860 0.029810 0.861000
0.006882 -0.025655 0.892000
0.025187 -0.019894 0.865000
-0.029794 -0.012271 0.880000
-0.002923 0.006060 0.860000
-0.018971 -0.021737 0.882000
0.024390 -0.014149 0.862000
0.002782 -0.009299 0.873000
-0.016486 -0.014526 0.885000
0.031267 0.002861 0.856000
0.045442 -0.020916 0.878000
0.038183 -0.021929 0.861000
-0.005915 -0.035612 0.884000
0.010781 0.008809 0.852000
-0.006673 -0.010555 0.888000
-0.020382 0.029079 0.850000
0.005508 0.015085 0.850000
-0.009772 0.001118 0.871000
0.000626 -0.008221 0.873000
-0.039529 -0.001765 0.879000
0.001667 0.006369 0.854000
0.017529 -0.030795 0.892000
-0.013050 0.022809 0.851000
-0.044854 -0.001761 0.877000
-0.028079 -0.004318 0.883000
-0.035348 0.008766 0.883000
-0.029828 -0.006846 0.881000
0.039862 -0.004200 0.859000
-0.026993 0.035438 0.860000
0.016782 0.000394 0.854000
0.019969 -0.005236 0.855000
-0.034660 0.011323 0.884000
0.010920 -0.026389 0.892000
-0.003749 -0.024444 0.888000
-0.016001 0.018781 0.859000
-0.004851 -0.020446 0.889000
0.011287 -0.031896 0.892000
0.029406 -0.025857 0.874000
-0.003025 -0.018638 0.890000
-0.011943 0.024793 0.847000
-0.035228 -0.005389 0.880000
-0.003610 0.008488 0.855000
0.006339 -0.008888 0.868000
-0.028088 0.026620 0.861000
0.032990 -0.006996 0.855000
-0.030259 0.000770 0.883000
-0.016903 0.025611 0.851000
-0.004293 0.016504 0.851000
-0.022261 0.026083 0.855000
-0.015046 -0.014543 0.886000
0.028700 -0.007682 0.853000
0.032638 -0.002773 0.855000
0.030491 -0.009800 0.854000
0.026378 -0.028965 0.881000
0.038847 0.004290 0.860000
0.047917 -0.020170 0.877000
0.008677 0.008809 0.852000
0.016079 0.003206 0.854000
0.006573 0.016874 0.852000
-0.044182 0.001489 0.878000
-0.016533 0.025930 0.850000
-0.001926 -0.021568 0.890000
-0.000458 -0.037152 0.886000
-0.034464 -0.008278 0.879000
-0.031968 -0.009736 0.880000
-0.038212 0.008756 0.882000
-0.034072 0.025437 0.869000
-0.032283 0.024006 0.869000
-0.018197 0.032424 0.846000
-0.030817 0.023979 0.868000
0.028490 -0.021392 0.868000
-0.021077 0.008726 0.879000
-0.004671 0.008850 0.856000
-0.038269 0.024172 0.875000
-0.026685 0.005872 0.885000
0.021652 -0.000659 0.852000
0.005780 -0.025288 0.892000
-0.031350 0.029169 0.863000
0.009367 -0.018148 0.884000
0.003940 -0.024526 0.891000
0.033067 0.006391 0.857000
-0.005929 -0.028400 0.886000
-0.030951 -0.004676 0.882000
0.030987 -0.015849 0.858000
0.018188 -0.001364 0.854000
0.035102 -0.009811 0.855000
-0.004660 0.014102 0.854000
0.003781 0.002857 0.855000
-0.037018 0.035175 0.871000
-0.043098 0.002212 0.878000
-0.012872 -0.013829 0.887000
-0.031641 -0.007209 0.881000
0.040309 0.004295 0.861000
-0.030191 -0.009022 0.881000
0.009054 -0.021910 0.889000
0.027229 -0.016987 0.862000
-0.010119 0.003624 0.870000
0.006127 -0.035448 0.889000
-0.035625 0.037010 0.872000
-0.016793 -0.026094 0.882000
-0.017542 0.037387 0.848000
-0.037123 0.017468 0.882000
-0.010694 -0.015306 0.888000
-0.008185 0.016230 0.855000
-0.024472 -0.006142 0.884000
-0.010188 0.026157 0.846000
0.016078 -0.037813 0.893000
-0.023407 0.004415 0.885000
-0.031750 0.020188 0.874000
-0.016107 0.029639 0.846000
0.021345 -0.019249 0.868000
-0.029566 0.009503 0.884000
-0.035024 0.009503 0.884000
0.037561 -0.024111 0.863000
0.023082 0.001095 0.853000
-0.037231 0.022758 0.876000
-0.023433 0.000044 0.886000
-0.024870 0.024112 0.860000
-0.003399 -0.039973 0.892000
-0.018714 -0.003972 0.887000
-0.000094 -0.024132 0.890000
-0.030259 0.000407 0.883000
0.006113 -0.045590 0.887000
-0.008447 0.029987 0.846000
0.042179 -0.020203 0.863000
0.011903 -0.003485 0.857000
-0.033568 0.007684 0.884000
-0.007039 -0.010190 0.888000
-0.030853 0.022933 0.869000
0.011654 -0.033365 0.892000
0.004808 0.015435 0.850000
0.005892 0.001802 0.855000
-0.025957 -0.000685 0.885000
-0.022289 -0.010144 0.884000
-0.022366 0.019841 0.859000
0.036792 -0.028245 0.870000
0.038272 -0.024111 0.863000
-0.015376 -0.021423 0.884000
0.041727 0.001814 0.861000
-0.016140 -0.013084 0.886000
-0.038006 0.029729 0.869000
0.006127 -0.036912 0.889000
-0.004490 -0.017539 0.890000
0.037387 0.003931 0.859000
-0.014698 -0.005067 0.887000
0.027671 -0.025916 0.876000
-0.023945 0.011246 0.878000
0.013345 -0.005968 0.859000
-0.009597 -0.013845 0.888000
-0.022858 0.030164 0.851000
-0.002896 0.014770 0.852000
0.012375 -0.040295 0.891000
-0.002885 0.016815 0.849000
-0.001911 -0.009405 0.883000
0.012656 -0.021083 0.885000
-0.037649 0.033663 0.869000
-0.004105 -0.031317 0.886000
-0.031314 -0.004313 0.882000
0.026519 -0.015213 0.862000
0.035184 -0.002427 0.857000
-0.009543 -0.033028 0.883000
0.008668 -0.019670 0.887000
-0.043410 -0.001040 0.877000
0.008677 0.007406 0.852000
-0.027252 0.029671 0.857000
-0.025592 -0.002142 0.885000
-0.007023 -0.026212 0.886000
0.007616 0.010900 0.851000
-0.021950 -0.006513 0.885000
-0.011047 -0.005797 0.887000
0.022826 -0.021800 0.870000
-0.030916 0.014548 0.881000
0.013873 -0.031565 0.893000
0.016920 -0.007399 0.861000
0.021302 -0.001361 0.852000
0.012361 -0.042448 0.890000
-0.004851 -0.017519 0.889000
-0.009554 -0.029791 0.884000
0.015728 0.002503 0.854000
0.034519 0.006046 0.858000
-0.034707 0.020955 0.876000
0.019243 0.002854 0.854000
-0.041842 0.017105 0.882000
0.000611 0.013001 0.851000
0.005207 -0.000311 0.858000
-0.021317 0.011914 0.874000
0.024774 -0.017717 0.863000
-0.001188 -0.035328 0.886000
-0.013670 0.027898 0.846000
0.025510 -0.004867 0.852000
0.010139 -0.003132 0.857000
0.023326 -0.013084 0.862000
0.009074 -0.033327 0.891000
0.013460 -0.025598 0.890000
0.015326 -0.038505 0.892000
0.023082 0.001798 0.853000
-0.045370 0.012720 0.880000
0.013094 -0.042448 0.890000
-0.033167 0.005495 0.883000
0.037741 0.000042 0.859000
-0.008836 0.020333 0.850000
0.033459 0.007458 0.858000
0.002709 0.014036 0.850000
-0.017234 -0.010896 0.886000
-0.023235 0.029849 0.852000
0.013407 -0.008837 0.863000
0.028096 0.002508 0.856000
0.023980 -0.011638 0.860000
0.007530 -0.015566 0.882000
-0.030623 0.012400 0.883000
0.009866 -0.008492 0.864000
-0.039256 0.004757 0.881000
-0.047742 0.004736 0.877000
-0.025869 -0.011210 0.882000
-0.026113 0.012691 0.878000
-0.005558 -0.033103 0.885000
0.003080 0.002508 0.856000
0.004836 0.003913 0.855000
-0.034047 0.003695 0.887000
0.028847 -0.021392 0.868000
0.009033 -0.020035 0.887000
-0.037165 0.015671 0.883000
-0.003326 -0.004628 0.873000
0.006866 -0.034389 0.890000
0.029962 -0.015514 0.859000
-0.015871 0.024589 0.852000
-0.011059 -0.007266 0.888000
-0.013004 0.024822 0.848000
0.004458 0.016835 0.850000
0.013954 0.004606 0.853000
0.002365 0.010211 0.852000
0.023082 -0.004873 0.853000
-0.046606 0.000043 0.876000
-0.015739 -0.020695 0.884000
0.034046 -0.005940 0.855000
-0.019356 -0.019218 0.883000
0.003935 -0.018638 0.890000
0.025540 -0.005575 0.853000
-0.001889 -0.004628 0.873000
0.007966 0.013352 0.851000
-0.025898 -0.008679 0.883000
0.023488 -0.007348 0.855000
-0.031210 0.023291 0.869000
-0.019787 0.000044 0.886000
-0.014749 0.026218 0.848000
-0.002548 0.012681 0.853000
0.018188 0.002854 0.854000
0.001004 -0.028496 0.889000
-0.000094 -0.037881 0.886000
-0.027653 -0.010472 0.881000
-0.038717 0.023145 0.877000
-0.013222 -0.015272 0.886000
0.035847 -0.010527 0.856000
-0.015045 0.033081 0.845000
-0.011485 0.006807 0.865000
0.011184 0.000042 0.856000
-0.041163 0.016761 0.883000
0.038403 -0.002783 0.858000
0.006851 -0.042718 0.888000
-0.029165 0.042752 0.872000
-0.021107 0.028763 0.851000
0.004133 0.003913 0.855000
0.012656 -0.021447 0.885000
0.029630 -0.023590 0.870000
0.031972 0.003918 0.856000
0.036948 -0.007365 0.857000
0.015783 -0.003132 0.857000
-0.016436 0.033429 0.845000
-0.006194 -0.001751 0.872000
-0.029896 -0.000320 0.883000
0.028733 0.001448 0.854000
-0.002632 -0.008296 0.881000
0.005748 -0.043400 0.887000
-0.012263 0.032038 0.845000
-0.004105 -0.030588 0.886000
-0.025869 -0.013025 0.882000
-0.038400 0.022087 0.878000
-0.003753 -0.018983 0.889000
-0.032403 -0.001408 0.882000
0.001667 0.005666 0.854000
0.027373 -0.027421 0.878000
0.023317 -0.023726 0.875000
0.010932 -0.030462 0.893000
0.017690 -0.009559 0.864000
0.021000 0.002854 0.854000
0.009775 -0.000662 0.856000
-0.020878 0.038444 0.856000
-0.005193 -0.007970 0.885000
-0.043049 0.027837 0.877000
-0.011731 0.017679 0.857000
-0.030328 0.007329 0.885000
-0.003745 -0.010908 0.887000
-0.003589 0.016485 0.850000
-0.017214 -0.012705 0.885000
-0.009863 0.023077 0.848000
0.035363 -0.032879 0.879000
-0.015323 0.002582 0.881000
-0.019027 0.026693 0.852000
-0.030986 0.001134 0.883000
0.012022 -0.035568 0.892000
0.010186 -0.006691 0.861000
-0.014349 0.030299 0.845000
-0.014151 0.021132 0.854000
0.012035 -0.031197 0.893000
0.015448 -0.004195 0.858000
0.022339 -0.017046 0.865000
0.012008 -0.038828 0.891000
-0.023558 0.035068 0.851000
0.009441 -0.035894 0.891000
-0.029882 0.042393 0.872000
-0.044645 0.009823 0.880000
-0.008204 0.013093 0.857000
0.007902 -0.016674 0.883000
-0.049851 0.005091 0.876000
-0.021206 0.022564 0.855000
0.022313 -0.016315 0.864000
-0.032477 0.008048 0.884000
0.015711 -0.038915 0.893000
0.018692 -0.008108 0.861000
0.027809 -0.013024 0.858000
0.026304 -0.009811 0.855000
0.043295 -0.020583 0.864000
0.002712 0.012301 0.851000
-0.024444 0.007676 0.883000
-0.036356 0.018174 0.881000
-0.039214 0.027678 0.872000
-0.034111 0.025108 0.870000
0.024164 -0.007339 0.854000
-0.033379 -0.008639 0.879000
-0.030888 0.022602 0.870000
0.001737 -0.026330 0.890000
-0.011594 0.024793 0.847000
0.003073 0.006721 0.854000
-0.002652 -0.025540 0.888000
0.001365 -0.013449 0.886000
-0.003741 -0.032411 0.886000
-0.025592 0.005143 0.885000
-0.002967 -0.004269 0.873000
-0.024638 0.034057 0.852000
-0.004829 -0.037838 0.885000
0.002362 0.011951 0.851000
-0.011259 0.023775 0.848000
-0.028541 0.035248 0.864000
-0.023043 -0.003963 0.885000
0.030091 -0.025468 0.873000
-0.022339 -0.001780 0.886000
-0.039123 0.022810 0.878000
-0.005011 0.013399 0.854000
0.029474 -0.027719 0.876000
0.030351 -0.016240 0.860000
0.012549 0.009170 0.853000
-0.001530 -0.006065 0.873000
-0.025577 0.025882 0.860000
0.017535 -0.019742 0.874000
-0.005211 -0.022982 0.888000
-0.032841 0.008776 0.884000
0.020369 -0.007012 0.857000
-0.015741 0.033777 0.845000
-0.045628 0.006548 0.878000
0.004842 0.001452 0.856000
0.031972 0.005327 0.856000
0.015466 -0.005261 0.859000
0.025159 -0.000659 0.852000
-0.003231 0.025869 0.848000
-0.032829 0.021267 0.874000
-0.008517 0.018298 0.853000
-0.019613 0.031417 0.847000
0.018887 -0.016070 0.870000
-0.033167 0.004768 0.883000
-0.026897 -0.015531 0.880000
-0.034296 0.012050 0.884000
0.035744 -0.021599 0.862000
-0.005661 0.026157 0.846000
0.034478 0.002864 0.857000
0.006485 -0.040525 0.888000
-0.047327 0.001125 0.876000
0.014472 -0.008482 0.863000
0.001001 -0.037559 0.887000
-0.039123 0.022448 0.878000
-0.029524 0.042752 0.872000
0.004485 0.002506 0.855000
-0.008866 -0.016768 0.888000
-0.022653 -0.009052 0.884000
0.000986 -0.007862 0.873000
0.004859 -0.001018 0.859000
0.016782 0.005315 0.854000
0.036453 -0.021954 0.862000
0.032681 -0.029128 0.875000
-0.001140 0.014735 0.850000
-0.012879 0.013895 0.863000
0.030843 -0.010854 0.854000
0.012742 -0.038828 0.891000
0.012947 -0.018066 0.880000
-0.005217 -0.018251 0.889000
0.039611 -0.028570 0.869000
0.018188 -0.001012 0.854000
0.021352 -0.004879 0.854000
-0.003686 -0.003550 0.873000
-0.026655 -0.001412 0.884000
-0.004096 -0.037068 0.884000
0.012255 -0.002427 0.857000
-0.029964 0.005507 0.885000
0.015916 -0.022878 0.884000
-0.001140 0.015785 0.850000
0.006376 -0.012173 0.873000
-0.018081 0.019442 0.857000
0.009441 -0.023426 0.891000
0.040664 0.003586 0.861000
-0.016523 -0.007988 0.887000
-0.013587 -0.002874 0.886000
0.015700 -0.014313 0.872000
-0.026685 -0.000685 0.885000
0.012961 -0.002779 0.857000
-0.034390 0.036840 0.868000
0.028030 0.001448 0.854000
-0.015722 -0.024306 0.883000
-0.045163 -0.001038 0.876000
-0.039846 0.023171 0.878000
0.020133 -0.010246 0.862000
0.004673 -0.020859 0.891000
0.010117 -0.020013 0.886000
-0.038766 0.032270 0.870000
0.035785 -0.023045 0.863000
0.005407 -0.023059 0.891000
-0.004829 -0.034560 0.885000
-0.036438 0.008039 0.883000
-0.027050 0.005143 0.885000
0.013516 -0.011774 0.870000
0.035537 -0.002074 0.857000
0.013810 -0.009937 0.866000
-0.001145 0.007423 0.854000
-0.011077 0.012446 0.861000
0.000965 0.004969 0.855000
-0.013945 0.014606 0.863000
-0.036468 0.037137 0.875000
0.016777 -0.015031 0.872000
0.013857 -0.039239 0.892000
-0.006673 -0.018961 0.888000
-0.011704 0.019045 0.855000
0.018188 0.003909 0.854000
0.029085 -0.009800 0.854000
0.017836 -0.028496 0.889000
-0.045937 0.000765 0.877000
0.017816 -0.027367 0.888000
0.013123 -0.036669 0.892000
-0.026713 0.015871 0.874000
0.013857 -0.037770 0.892000
-0.011724 -0.030484 0.883000
-0.001917 -0.035693 0.886000
0.000627 -0.007151 0.874000
-0.003753 -0.021544 0.889000
-0.028938 0.016628 0.876000
-0.017294 0.022160 0.853000
0.034882 -0.031324 0.876000
-0.014468 0.022835 0.852000
0.007965 -0.037686 0.890000
-0.048769 0.002567 0.876000
-0.024444 0.008039 0.883000
0.025779 -0.013778 0.861000
-0.008866 -0.016403 0.888000
0.001657 0.019261 0.849000
0.003206 -0.025626 0.891000
0.041325 -0.001019 0.860000
0.038448 0.002164 0.859000
0.013138 -0.033402 0.893000
-0.024667 0.035150 0.853000
-0.015704 -0.027183 0.882000
-0.022576 -0.021713 0.881000
-0.017261 0.012561 0.869000
-0.012958 0.032386 0.845000
0.005878 0.007766 0.853000
-0.005835 -0.001751 0.872000
-0.032453 0.033114 0.864000
-0.047381 0.004014 0.877000
0.015520 -0.007763 0.862000
-0.047341 0.011673 0.883000
0.012180 -0.015478 0.877000
-0.015411 0.028246 0.846000
-0.001835 0.020285 0.848000
-0.008447 0.028942 0.846000
0.006514 -0.027124 0.892000
0.007582 -0.044545 0.888000
0.000609 0.019261 0.849000
-0.026232 -0.009758 0.882000
-0.027715 -0.005771 0.883000
-0.033530 0.005858 0.883000
-0.001551 -0.038567 0.885000
-0.037995 0.022784 0.877000
0.041161 -0.024494 0.864000
0.014322 0.008478 0.854000
-0.047687 0.000764 0.876000
-0.003254 0.010587 0.854000
-0.032040 -0.001408 0.882000
0.020121 -0.033035 0.893000
0.002731 0.002159 0.857000
-0.033165 0.032047 0.864000
0.025779 -0.014132 0.861000
-0.012507 -0.013464 0.887000
0.018909 -0.019315 0.871000
-0.015012 -0.019604 0.884000
-0.045989 0.005464 0.878000
-0.011581 0.034513 0.846000
-0.019469 0.019772 0.856000
0.015326 -0.028959 0.892000
0.005383 -0.044130 0.887000
0.036991 -0.003136 0.858000
-0.043049 -0.003205 0.877000
0.000260 0.017164 0.849000
0.007224 -0.039473 0.889000
-0.003391 -0.016806 0.890000
-0.026988 -0.005408 0.883000
0.022313 -0.016671 0.864000
0.027647 0.000042 0.853000
0.028063 -0.027028 0.877000
-0.015081 0.027233 0.847000
-0.030390 0.036399 0.866000
0.007965 -0.035488 0.890000
0.030527 0.000746 0.855000
0.009729 0.012315 0.852000
-0.004114 -0.024809 0.888000
0.014592 -0.038505 0.892000
-0.018307 -0.012341 0.885000
-0.029388 0.022907 0.868000
-0.012156 -0.010921 0.888000
-0.034542 -0.011560 0.881000
-0.024108 -0.007233 0.884000
-0.018286 -0.014874 0.884000
-0.024389 -0.018087 0.881000
-0.039709 0.013127 0.883000
0.033694 -0.009811 0.855000
0.006133 -0.020836 0.890000
-0.028507 0.003686 0.885000
0.028700 -0.003820 0.853000
-0.043558 0.008374 0.880000
-0.037248 0.033267 0.868000
-0.026262 0.009129 0.883000
-0.028316 0.020764 0.868000
0.005201 0.000395 0.857000
0.031131 -0.018761 0.862000
-0.032885 0.036042 0.866000
-0.046351 0.005464 0.878000
-0.028346 -0.015531 0.880000
0.023406 -0.003114 0.852000
0.039862 -0.001372 0.859000
0.015862 -0.021350 0.881000
0.035156 -0.023454 0.865000
-0.046042 0.011620 0.879000
-0.023328 -0.015566 0.882000
-0.029860 0.030164 0.861000
0.036904 -0.012993 0.856000
-0.035348 0.041111 0.883000
-0.036075 0.007676 0.883000
0.033420 0.005686 0.857000
-0.032098 0.033470 0.864000
-0.007404 -0.009093 0.888000
0.038405 -0.026689 0.866000
-0.026291 -0.003959 0.884000
0.007573 -0.019305 0.887000
-0.003021 -0.023739 0.889000
-0.033357 0.025079 0.869000
-0.025228 0.006236 0.885000
-0.010586 0.022082 0.850000
0.030140 -0.001715 0.854000
-0.008144 -0.014226 0.889000
0.032046 -0.015849 0.858000
-0.008826 -0.032338 0.884000
0.042584 -0.022716 0.864000
0.020625 -0.003820 0.853000
-0.038444 -0.003936 0.879000
-0.029235 0.006236 0.885000
-0.010176 0.028212 0.845000
-0.019787 -0.005791 0.886000
-0.021537 -0.015584 0.883000
-0.028142 0.002593 0.885000
-0.014648 -0.020695 0.884000
0.002066 0.001122 0.874000
-0.004124 -0.017905 0.890000
0.011224 -0.021861 0.887000
-0.018650 -0.017057 0.884000
0.009763 0.002857 0.855000
0.004215 -0.009647 0.872000
-0.009648 0.009245 0.860000
-0.017604 0.025961 0.851000
-0.023965 0.029884 0.853000
-0.040390 0.011297 0.882000
-0.045318 0.009450 0.879000
-0.041870 0.028494 0.875000
-0.036438 0.010220 0.883000
-0.015080 -0.006900 0.888000
-0.038255 0.015308 0.883000
-0.028346 -0.015893 0.880000
-0.007271 0.000043 0.872000
0.007885 -0.015186 0.881000
0.008717 -0.026756 0.892000
-0.023407 0.005143 0.885000
0.020915 -0.013130 0.865000
-0.015312 0.018094 0.860000
0.044312 -0.025022 0.870000
0.036637 0.001102 0.858000
0.003505 -0.011108 0.874000
0.029788 -0.001364 0.854000
0.025176 -0.024863 0.877000
0.010174 -0.005621 0.860000
-0.005949 -0.015324 0.889000
-0.021986 0.019818 0.858000
0.023896 -0.009129 0.857000
-0.008501 -0.008728 0.888000
0.005389 -0.039794 0.888000
-0.029169 -0.002137 0.883000
-0.023399 0.024409 0.858000
0.041679 -0.001019 0.860000
-0.030623 -0.001047 0.883000
0.002827 -0.039019 0.887000
-0.017156 -0.025367 0.882000
-0.007490 0.013783 0.856000
-0.011710 -0.000682 0.882000
-0.042062 0.002938 0.879000
0.006604 0.001099 0.856000
-0.008127 0.020658 0.849000
0.011287 -0.026389 0.892000
-0.007402 0.025460 0.846000
-0.029265 0.017690 0.875000
0.009763 0.001802 0.855000
0.015464 -0.019854 0.879000
-0.002882 0.024822 0.848000
-0.012507 -0.014194 0.887000
0.035973 0.008174 0.859000
-0.019444 -0.001782 0.887000
-0.010037 0.007502 0.863000
-0.003246 0.015121 0.852000
-0.028061 -0.018354 0.894000
-0.012507 -0.004702 0.887000
-0.001917 -0.036058 0.886000
0.041727 0.002169 0.861000
-0.030157 -0.011547 0.880000
-0.008016 -0.002478 0.875000
0.039110 -0.013730 0.858000
-0.037528 0.014217 0.883000
0.036595 -0.005601 0.857000
-0.024487 0.025498 0.859000
0.017547 -0.004896 0.857000
-0.033205 0.009140 0.884000
0.011628 -0.042448 0.890000
0.015623 -0.025906 0.888000
0.026589 -0.025555 0.876000
0.012198 0.007766 0.853000
0.037077 -0.019779 0.860000
-0.002649 -0.030987 0.887000
0.030843 -0.003824 0.854000
-0.019675 -0.023888 0.881000
-0.021950 -0.007241 0.885000
0.001704 -0.008221 0.873000
0.014129 -0.023659 0.886000
-0.017983 -0.002877 0.887000
-0.025200 -0.003959 0.884000
