-0.042313 0.018491 0.862000
0.034882 -0.019066 0.876000
0.044567 -0.016748 0.868000
-0.013463 0.012007 0.855000
-0.023863 -0.022285 0.875000
-0.035067 -0.001759 0.876000
-0.012101 -0.014510 0.884000
-0.014859 -0.000677 0.875000
0.048805 -0.009736 0.880000
0.029781 -0.012404 0.864000
-0.013541 -0.015220 0.883000
-0.032581 0.004014 0.877000
0.021754 -0.001367 0.856000
-0.000459 -0.017134 0.888000
0.035889 0.002159 0.857000
-0.039483 -0.012848 0.870000
-0.018224 -0.013735 0.881000
0.035307 0.013847 0.860000
0.035951 -0.013517 0.867000
-0.026474 -0.010798 0.878000
0.004278 -0.036381 0.885000
-0.013177 -0.007952 0.883000
0.016192 -0.004205 0.860000
-0.022724 0.021630 0.846000
-0.037389 0.015671 0.863000
0.030486 -0.016504 0.874000
0.010056 0.012636 0.850000
0.020976 0.004957 0.853000
-0.025159 0.006488 0.870000
-0.024611 -0.017623 0.876000
-0.032432 -0.015407 0.873000
-0.005182 -0.025760 0.883000
0.020976 0.001798 0.853000
0.030843 0.003206 0.854000
0.021527 -0.004564 0.861000
-0.014565 -0.022749 0.879000
0.019278 -0.021154 0.888000
-0.039709 0.007606 0.875000
0.045125 -0.009570 0.865000
0.015189 -0.017057 0.884000
-0.013177 -0.015220 0.883000
-0.015284 0.026976 0.839000
-0.043261 0.010115 0.874000
-0.018197 0.019889 0.846000
-0.000440 0.008788 0.850000
-0.051300 -0.004254 0.870000
0.005395 -0.018251 0.889000
0.043039 -0.015284 0.866000
-0.021781 0.015085 0.850000
-0.018864 -0.024863 0.877000
0.010602 -0.007442 0.866000
-0.029368 0.015210 0.857000
0.015676 -0.022326 0.891000
0.011860 -0.013358 0.880000
0.014828 -0.006351 0.863000
0.012356 -0.007069 0.864000
0.035307 0.014201 0.860000
0.012389 -0.023452 0.892000
-0.020645 -0.022671 0.876000
-0.003724 -0.031539 0.882000
-0.002279 -0.025090 0.885000
-0.026444 -0.012951 0.877000
-0.028938 -0.010413 0.876000
-0.020377 -0.012633 0.880000
-0.010107 -0.002103 0.869000
0.008135 -0.008541 0.869000
-0.004829 -0.019990 0.885000
-0.017679 0.002555 0.872000
0.000267 -0.008580 0.873000
-0.020464 0.028357 0.839000
-0.027433 -0.019022 0.874000
0.016813 -0.026051 0.893000
-0.026899 0.012388 0.857000
-0.031632 0.014217 0.861000
-0.031713 -0.015048 0.873000
-0.012183 0.001821 0.864000
0.033306 -0.022826 0.882000
-0.024259 0.015453 0.851000
0.041824 -0.010258 0.863000
-0.036468 0.007606 0.875000
-0.017639 0.003624 0.870000
0.030140 0.000745 0.854000
-0.036551 0.003292 0.877000
-0.012785 -0.022075 0.881000
-0.012436 -0.006128 0.882000
0.022830 -0.019967 0.884000
-0.004465 -0.022540 0.885000
0.039862 -0.004907 0.859000
-0.036301 -0.014296 0.871000
-0.026203 0.007554 0.869000
0.009187 -0.007808 0.867000
-0.000438 0.014318 0.846000
-0.006395 0.010199 0.851000
-0.040704 0.026881 0.858000
-0.012553 0.001467 0.865000
-0.017862 -0.003583 0.881000
0.042989 -0.013486 0.865000
0.016004 -0.008183 0.869000
-0.013353 0.016795 0.848000
-0.018648 0.006109 0.867000
-0.043981 0.004720 0.874000
-0.027558 -0.006461 0.878000
0.019046 -0.004210 0.861000
0.017854 -0.010365 0.872000
0.000625 -0.006051 0.871000
0.042584 -0.012759 0.864000
-0.008472 -0.012705 0.885000
0.048278 -0.010785 0.877000
-0.013192 -0.011963 0.884000
-0.001828 0.016040 0.845000
-0.044649 0.004714 0.873000
-0.028529 0.018649 0.853000
0.014909 -0.039473 0.889000
0.003048 0.012592 0.847000
-0.027914 0.030647 0.845000
-0.016923 0.015121 0.852000
-0.009294 0.003582 0.860000
-0.020732 0.015085 0.850000
-0.010636 0.010938 0.854000
-0.009873 -0.005752 0.880000
-0.005199 -0.018189 0.886000
0.022313 -0.007069 0.864000
0.012713 -0.034716 0.889000
0.026378 -0.019537 0.881000
-0.010621 -0.021011 0.882000
-0.015323 -0.016274 0.881000
-0.045727 0.006511 0.873000
-0.015757 0.003603 0.865000
-0.011841 0.001111 0.865000
-0.034498 0.024267 0.853000
-0.016411 -0.015186 0.881000
-0.004655 0.006362 0.853000
-0.044854 -0.003896 0.870000
0.010406 0.009488 0.850000
0.040605 -0.020484 0.875000
0.023900 -0.014280 0.870000
-0.042347 -0.009983 0.870000
-0.019105 0.031157 0.840000
0.024745 -0.006698 0.862000
-0.022860 -0.015495 0.878000
-0.024583 -0.020845 0.875000
0.025307 -0.003485 0.857000
-0.002189 0.009488 0.850000
0.034564 -0.013890 0.868000
-0.010820 0.023579 0.841000
-0.018102 0.012049 0.858000
0.020625 0.003202 0.853000
0.010269 -0.008888 0.868000
0.002090 -0.033429 0.884000
-0.020786 -0.005039 0.882000
0.011302 -0.007078 0.865000
-0.015284 0.024559 0.839000
0.030073 -0.022125 0.883000
0.028095 -0.018386 0.878000
-0.020908 0.022941 0.843000
-0.021390 0.000765 0.877000
0.003745 0.014335 0.847000
-0.031595 0.014909 0.860000
0.016409 -0.035161 0.891000
0.014791 -0.015929 0.882000
0.018891 0.007775 0.854000
-0.014284 -0.011235 0.884000
0.043853 -0.017105 0.868000
-0.030565 0.008288 0.871000
-0.001189 -0.020035 0.887000
0.019754 -0.034505 0.893000
0.002059 -0.007844 0.871000
-0.003728 -0.027940 0.883000
-0.017091 0.021553 0.843000
-0.037952 0.000764 0.876000
0.030210 0.008850 0.856000
-0.010820 0.026002 0.841000
-0.023558 0.014753 0.851000
0.022132 -0.002074 0.857000
0.025540 0.000393 0.853000
-0.017253 0.015804 0.851000
-0.004829 -0.021083 0.885000
-0.017722 0.024242 0.840000
0.022517 -0.021107 0.886000
0.023433 0.000393 0.853000
0.036707 -0.014604 0.868000
0.027839 -0.016070 0.870000
0.031231 -0.003477 0.855000
0.036182 -0.011692 0.864000
-0.029582 0.019351 0.853000
0.008707 -0.023426 0.891000
0.013986 0.001802 0.855000
-0.013495 -0.023861 0.880000
-0.007743 -0.017076 0.885000
-0.014366 0.018496 0.846000
0.009441 -0.025993 0.891000
-0.044138 -0.007477 0.870000
-0.002174 0.019495 0.844000
-0.009886 0.014386 0.850000
-0.032619 0.016306 0.859000
0.021492 -0.016144 0.874000
-0.034619 0.019067 0.856000
-0.018971 -0.007943 0.882000
-0.042509 0.015726 0.866000
0.013634 0.000746 0.855000
-0.005294 0.019472 0.843000
0.019663 -0.001016 0.857000
0.000998 -0.033429 0.884000
-0.023222 0.000766 0.878000
0.030598 -0.004896 0.857000
0.006542 0.013305 0.848000
-0.027590 -0.003213 0.879000
0.011496 0.003904 0.853000
0.007300 0.001098 0.855000
-0.021756 0.015417 0.849000
-0.015187 0.014436 0.853000
0.009356 0.010187 0.850000
0.006009 -0.010006 0.872000
0.022327 -0.026419 0.893000
-0.014956 0.030120 0.840000
-0.044031 0.034616 0.875000
0.023371 -0.019087 0.877000
0.001652 0.016407 0.846000
0.024838 0.006713 0.853000
-0.020076 0.006823 0.867000
-0.021751 -0.019087 0.877000
0.047680 -0.008343 0.886000
-0.006052 0.008458 0.852000
-0.018928 -0.014082 0.880000
-0.031632 0.013154 0.861000
0.042454 -0.021229 0.876000
0.018870 -0.020013 0.886000
0.007867 -0.011534 0.879000
-0.001913 -0.029791 0.884000
0.029051 0.000042 0.853000
0.018672 -0.030496 0.894000
-0.046805 0.029147 0.873000
-0.022576 -0.006483 0.881000
-0.040153 0.012561 0.869000
-0.044802 -0.007110 0.869000
-0.038094 -0.012863 0.871000
0.012931 0.001802 0.855000
-0.009435 0.023233 0.841000
0.009356 0.012636 0.850000
-0.024696 0.025686 0.842000
-0.039437 0.037598 0.869000
0.036411 -0.009880 0.861000
-0.015994 -0.027421 0.878000
0.017916 -0.026051 0.893000
-0.009581 0.007775 0.854000
-0.032581 -0.003566 0.877000
-0.044957 0.000402 0.872000
-0.009793 0.020835 0.842000
-0.015722 -0.011586 0.883000
0.034046 -0.000662 0.855000
-0.018971 -0.007580 0.882000
0.007548 -0.014510 0.884000
-0.000824 -0.014924 0.887000
0.006127 -0.018617 0.889000
-0.014993 0.006074 0.862000
-0.032256 -0.000318 0.878000
0.024257 -0.020308 0.883000
0.016813 -0.027522 0.893000
0.020796 -0.016523 0.875000
-0.048379 -0.002461 0.869000
-0.013510 -0.019900 0.881000
-0.038143 0.022943 0.856000
0.013954 0.011628 0.853000
-0.032220 0.003292 0.877000
-0.042165 0.026205 0.859000
-0.012060 -0.022438 0.881000
-0.043621 0.009756 0.874000
-0.023195 0.001487 0.877000
0.019040 -0.028656 0.894000
-0.009906 -0.019218 0.883000
0.020976 0.002851 0.853000
-0.038269 0.000763 0.875000
-0.000785 0.018474 0.845000
-0.044442 0.024877 0.862000
0.003196 -0.023347 0.888000
-0.014593 0.025595 0.839000
-0.006173 -0.001745 0.869000
0.042485 -0.005634 0.862000
0.019640 -0.000310 0.856000
-0.008764 0.019125 0.843000
0.005389 -0.027002 0.888000
-0.012596 -0.000672 0.868000
0.026953 -0.024078 0.888000
0.033530 -0.014264 0.869000
0.004797 0.014352 0.848000
0.035184 0.001101 0.857000
-0.005988 0.019125 0.843000
0.023516 -0.001719 0.856000
-0.020683 0.016446 0.848000
-0.024858 0.005427 0.872000
-0.047966 -0.005673 0.868000
-0.039795 0.037240 0.869000
0.036766 0.013863 0.861000
-0.000090 0.007739 0.850000
0.033498 0.011710 0.859000
-0.001885 -0.006051 0.871000
0.009753 -0.016366 0.886000
0.011509 0.002151 0.854000
-0.043422 -0.008193 0.870000
-0.009886 0.014036 0.850000
0.031656 0.011330 0.857000
-0.034271 0.013215 0.865000
0.012699 -0.039794 0.888000
0.038258 -0.022749 0.879000
-0.023610 -0.010810 0.879000
-0.034350 0.011819 0.867000
-0.028609 0.025778 0.845000
0.038227 0.011750 0.862000
-0.027729 0.020683 0.850000
-0.023195 -0.018005 0.877000
0.041824 0.008922 0.863000
-0.042542 0.009036 0.874000
-0.015330 0.007839 0.861000
-0.007071 0.014352 0.848000
-0.005182 -0.026123 0.883000
-0.001133 0.018127 0.845000
0.029858 0.009555 0.856000
-0.025359 0.029463 0.841000
-0.039951 0.026497 0.857000
-0.039034 0.037554 0.868000
-0.018950 -0.011197 0.881000
-0.034386 -0.000318 0.877000
0.016813 -0.031565 0.893000
-0.012567 0.000756 0.866000
0.002830 -0.016768 0.888000
0.033459 -0.006667 0.858000
-0.041893 0.032910 0.868000
-0.032942 0.003653 0.877000
-0.021776 -0.024530 0.878000
0.002467 -0.019714 0.889000
-0.043072 0.018158 0.863000
0.029781 0.010711 0.864000
0.049083 -0.005784 0.885000
0.023291 -0.017583 0.874000
0.007224 -0.026301 0.889000
-0.050860 0.000406 0.881000
-0.016085 -0.006135 0.883000
-0.009446 0.020835 0.842000
-0.006682 0.019125 0.843000
0.032569 -0.015748 0.872000
-0.050824 -0.005673 0.868000
0.043445 -0.016372 0.867000
0.035594 -0.013517 0.867000
-0.003380 -0.015289 0.887000
-0.030088 -0.005016 0.878000
-0.019937 0.010674 0.861000
0.030915 0.009907 0.856000
-0.017500 0.019193 0.846000
-0.017181 0.005739 0.865000
0.012319 -0.043400 0.887000
0.010541 -0.021226 0.891000
0.010896 -0.019737 0.890000
-0.027631 -0.022351 0.892000
-0.000092 -0.007127 0.871000
-0.047252 -0.008531 0.868000
-0.011724 -0.017401 0.883000
-0.000820 -0.036299 0.883000
-0.034386 -0.001040 0.877000
-0.037952 0.004730 0.876000
-0.039304 -0.002475 0.874000
0.031493 -0.015748 0.872000
-0.026194 0.011682 0.857000
-0.016812 -0.008315 0.883000
0.029391 -0.008837 0.863000
-0.028313 0.000405 0.879000
-0.037878 0.029353 0.858000
0.036490 -0.022775 0.880000
0.013123 -0.024921 0.892000
-0.030320 0.019374 0.854000
0.001652 0.015362 0.846000
0.040356 0.008912 0.862000
-0.006045 0.010900 0.851000
-0.039200 0.024704 0.856000
-0.040070 0.007606 0.875000
-0.022138 -0.015495 0.878000
0.003772 0.003553 0.853000
-0.016374 0.009953 0.860000
-0.041248 0.030199 0.862000
0.009400 0.001448 0.854000
-0.006335 0.021900 0.843000
0.031934 0.002857 0.855000
-0.036551 0.002209 0.877000
-0.022322 0.022968 0.844000
0.023433 0.004957 0.853000
-0.021759 0.009988 0.863000
-0.012625 -0.001389 0.870000
0.026923 -0.023321 0.887000
0.031656 0.010624 0.857000
-0.041775 -0.001753 0.873000
-0.016320 0.027321 0.839000
0.016060 0.006010 0.853000
-0.004263 0.016040 0.845000
-0.014974 0.022541 0.841000
-0.038006 0.012204 0.869000
0.014209 -0.032227 0.891000
-0.051300 -0.003538 0.870000
0.017490 -0.041715 0.890000
-0.037034 0.015671 0.863000
0.015326 -0.032263 0.892000
-0.021101 -0.010460 0.880000
-0.035421 0.012532 0.867000
-0.027952 -0.001404 0.879000
-0.030671 -0.014346 0.874000
0.030527 0.006376 0.855000
0.006127 -0.025203 0.889000
-0.003943 0.007397 0.851000
0.002000 0.017452 0.846000
-0.010633 -0.018855 0.883000
-0.012087 -0.017401 0.883000
0.003070 0.004255 0.853000
0.006828 -0.038931 0.885000
0.014639 0.006003 0.852000
0.040356 0.007493 0.862000
0.009049 0.001448 0.854000
-0.016012 -0.020940 0.879000
0.007598 0.011573 0.849000
-0.030805 0.023775 0.848000
0.008341 -0.021592 0.891000
0.016873 -0.013312 0.877000
-0.008185 0.006728 0.855000
-0.000094 -0.016768 0.888000
-0.022908 0.027008 0.840000
-0.048464 0.027115 0.877000
0.010541 -0.023059 0.891000
-0.022213 -0.007934 0.881000
-0.034902 0.014606 0.863000
0.017776 -0.019283 0.886000
-0.024723 -0.006476 0.880000
-0.021005 -0.022311 0.876000
-0.005558 -0.019990 0.885000
0.033029 -0.004538 0.856000
0.041733 -0.021229 0.876000
0.037741 -0.008443 0.859000
-0.024330 0.008954 0.866000
-0.006387 0.012287 0.850000
-0.040024 0.009396 0.874000
0.034599 0.013493 0.860000
-0.023664 -0.003583 0.881000
-0.028643 -0.005739 0.878000
0.033325 -0.016844 0.873000
-0.003376 -0.012719 0.886000
0.012947 -0.014082 0.880000
0.010908 -0.020859 0.891000
0.005735 -0.040024 0.885000
-0.026255 0.011002 0.859000
-0.007337 -0.031105 0.880000
0.029505 -0.003833 0.856000
0.024312 -0.021083 0.885000
0.020483 -0.018005 0.877000
-0.044496 0.030479 0.870000
-0.036108 0.006886 0.875000
0.034831 0.001806 0.857000
-0.035108 -0.003205 0.877000
0.027841 -0.005614 0.859000
-0.031604 0.008995 0.870000
-0.001883 -0.004970 0.870000
0.032046 0.012755 0.858000
0.002817 -0.013055 0.884000
-0.010486 0.020835 0.842000
0.014892 -0.020058 0.888000
0.019922 0.004606 0.853000
0.030175 0.006728 0.855000
0.016931 -0.015531 0.880000
0.003533 -0.011197 0.881000
-0.016279 0.013415 0.855000
-0.046698 -0.001032 0.871000
-0.011858 0.021848 0.841000
0.023272 -0.022226 0.887000
0.009023 -0.039704 0.886000
-0.015702 0.007493 0.862000
0.034831 0.004628 0.857000
-0.012465 -0.008688 0.884000
0.006899 0.015417 0.849000
-0.036323 0.015316 0.863000
-0.022131 0.015085 0.850000
-0.007037 0.017410 0.844000
0.034962 -0.020555 0.878000
-0.022525 -0.000318 0.879000
-0.038544 0.014995 0.865000
0.024136 0.001798 0.853000
0.015693 -0.030795 0.892000
0.010056 0.010887 0.850000
-0.034667 0.012874 0.866000
0.047056 -0.008362 0.888000
-0.037788 0.036315 0.864000
0.030207 -0.013858 0.866000
0.038345 -0.023888 0.881000
-0.038585 0.009036 0.874000
0.034643 -0.015354 0.870000
-0.008743 0.022887 0.841000
-0.000809 -0.005334 0.871000
-0.027073 -0.019382 0.874000
-0.016709 0.010649 0.859000
-0.000090 0.007047 0.851000
-0.038540 0.027202 0.857000
-0.004947 0.020512 0.843000
-0.022912 -0.009011 0.880000
0.033459 -0.007020 0.858000
-0.007752 -0.012719 0.886000
-0.035789 -0.000317 0.876000
-0.024361 -0.003941 0.880000
-0.022188 -0.009736 0.880000
-0.024611 -0.018345 0.876000
0.013609 -0.011494 0.876000
-0.044854 0.011233 0.877000
0.020903 -0.029425 0.895000
0.007598 0.011923 0.849000
-0.012909 0.001467 0.865000
0.020076 -0.015803 0.875000
0.030140 0.002503 0.854000
0.033415 -0.012789 0.866000
-0.020763 -0.010109 0.881000
-0.028991 0.029290 0.846000
-0.034229 -0.012173 0.873000
0.021640 -0.030162 0.895000
0.026718 -0.003838 0.857000
0.030879 -0.002421 0.855000
-0.021826 -0.010460 0.880000
-0.021810 0.008587 0.865000
-0.037188 -0.001397 0.875000
-0.026713 0.004720 0.874000
0.017715 -0.017764 0.883000
-0.032432 -0.016126 0.873000
-0.028313 -0.004298 0.879000
0.040617 -0.000665 0.860000
-0.049810 -0.000315 0.869000
0.001342 -0.006051 0.871000
-0.030498 0.013477 0.859000
0.015042 0.001802 0.855000
-0.039210 0.015689 0.864000
-0.023637 -0.001043 0.880000
0.002462 -0.025511 0.887000
0.027387 -0.014588 0.867000
-0.019082 0.030084 0.839000
0.022971 -0.005989 0.862000
0.012170 0.007397 0.851000
-0.013526 -0.005765 0.882000
-0.021801 -0.014066 0.879000
-0.005551 -0.024333 0.884000
-0.045612 0.024580 0.864000
0.032546 -0.023793 0.891000
0.035931 -0.007727 0.858000
-0.002269 -0.009022 0.881000
0.040806 -0.012404 0.864000
0.003545 -0.037068 0.884000
0.036978 -0.024669 0.883000
-0.022912 -0.002130 0.880000
0.010056 0.009138 0.850000
0.036015 0.011015 0.860000
0.035143 -0.001367 0.856000
-0.001528 -0.007135 0.872000
-0.014978 -0.005402 0.882000
-0.042037 -0.005693 0.871000
-0.045151 0.020620 0.862000
0.035307 0.012431 0.860000
-0.023275 -0.001043 0.880000
0.032362 0.009919 0.857000
-0.019630 -0.016237 0.879000
0.030491 -0.001364 0.854000
-0.023503 -0.021205 0.875000
0.021229 -0.018748 0.878000
-0.006658 -0.011990 0.886000
0.036117 -0.016447 0.871000
0.012319 -0.018210 0.887000
-0.007007 -0.009052 0.884000
-0.003745 -0.014924 0.887000
0.010163 -0.029627 0.890000
-0.039737 0.030837 0.860000
-0.016964 -0.028193 0.891000
-0.002649 -0.018575 0.887000
0.041066 -0.009891 0.862000
-0.016339 0.030466 0.840000
0.034790 -0.001719 0.856000
0.033654 -0.010613 0.863000
0.010847 -0.042257 0.886000
-0.016057 0.007848 0.862000
0.019334 -0.012187 0.874000
-0.001489 0.009138 0.850000
0.035537 0.000748 0.857000
-0.005694 0.010900 0.851000
0.022377 -0.028320 0.895000
0.008649 -0.015619 0.885000
-0.027888 0.002931 0.877000
-0.007732 0.017410 0.844000
-0.003216 0.019495 0.844000
0.037344 -0.006314 0.858000
0.031456 -0.015372 0.871000
-0.016469 0.004671 0.865000
-0.044390 0.020596 0.861000
-0.010356 0.003936 0.860000
-0.010441 0.000043 0.867000
-0.039437 0.012561 0.869000
-0.025448 -0.006114 0.880000
0.006866 -0.023033 0.890000
-0.014978 -0.014114 0.882000
-0.036510 0.000043 0.876000
-0.041989 -0.008193 0.870000
-0.002649 -0.018210 0.887000
-0.008424 -0.029294 0.880000
-0.041057 0.020877 0.858000
0.036595 0.000395 0.857000
-0.019563 0.000764 0.876000
0.031194 -0.000309 0.854000
-0.012408 -0.023499 0.880000
0.010467 0.000042 0.855000
-0.011512 0.027387 0.841000
-0.048022 -0.003176 0.869000
0.031231 0.003561 0.855000
-0.013173 0.007113 0.859000
-0.021507 0.013734 0.853000
0.028733 -0.001715 0.854000
0.036169 -0.023163 0.881000
0.014879 -0.007442 0.866000
0.013050 -0.042670 0.887000
0.021222 -0.005996 0.863000
-0.016717 -0.001763 0.878000
-0.006643 -0.020331 0.884000
0.012125 -0.010018 0.873000
0.016059 -0.009647 0.872000
0.029788 0.005315 0.854000
0.040048 0.013185 0.863000
0.029609 0.010295 0.859000
0.031669 -0.013874 0.867000
0.020512 -0.027920 0.894000
-0.002998 -0.034080 0.882000
0.015376 0.002854 0.854000
-0.025131 0.022996 0.845000
0.033342 -0.001717 0.855000
-0.028395 0.021357 0.849000
0.007947 -0.002149 0.888000
-0.025359 0.028079 0.841000
-0.001481 0.015692 0.845000
0.002099 -0.024078 0.888000
-0.020512 0.024271 0.841000
0.047357 -0.017704 0.880000
-0.015323 -0.018449 0.881000
-0.016793 -0.005039 0.882000
0.012564 0.002151 0.854000
-0.043212 0.001480 0.873000
0.015240 -0.019305 0.887000
-0.014910 -0.002125 0.878000
0.030137 -0.011692 0.864000
0.031582 0.004969 0.855000
-0.021415 0.000043 0.878000
-0.045570 -0.004970 0.870000
-0.010224 0.014718 0.849000
0.015988 -0.042718 0.888000
-0.019093 0.003986 0.871000
0.006208 0.008788 0.850000
-0.016475 0.018867 0.847000
0.028003 -0.010626 0.864000
-0.041150 0.007966 0.875000
0.025543 -0.010638 0.865000
-0.037188 0.007246 0.875000
-0.020464 0.026976 0.839000
-0.010128 0.021502 0.841000
0.015326 -0.031162 0.892000
-0.009514 0.015050 0.848000
0.015095 -0.002430 0.858000
-0.011704 0.010599 0.855000
0.037150 -0.016070 0.870000
-0.024173 0.020285 0.848000
-0.016030 -0.003216 0.880000
-0.022808 -0.023753 0.876000
0.014225 -0.023819 0.892000
0.014355 0.000042 0.856000
0.011576 -0.042986 0.886000
0.011981 -0.034350 0.889000
0.014639 0.007055 0.852000
-0.018413 0.031503 0.840000
-0.043261 0.003281 0.874000
-0.039528 -0.010712 0.871000
-0.022860 0.000405 0.878000
0.026642 -0.013145 0.866000
-0.012741 -0.002848 0.878000
-0.015974 0.029739 0.839000
0.017675 -0.016274 0.881000
-0.034660 -0.009052 0.884000
-0.003741 -0.021107 0.886000
-0.034025 0.003292 0.877000
-0.000457 -0.033755 0.883000
-0.009884 -0.026064 0.881000
-0.029591 -0.015425 0.874000
0.004453 0.010525 0.849000
-0.003943 0.008098 0.851000
0.016821 -0.000310 0.856000
-0.001908 -0.034806 0.882000
0.019213 -0.019262 0.885000
0.013702 -0.015566 0.882000
0.036369 0.011369 0.860000
-0.017098 -0.020578 0.879000
-0.026836 0.001850 0.878000
-0.025845 0.007554 0.869000
-0.015330 0.008193 0.861000
-0.037790 0.022943 0.856000
-0.033625 -0.003562 0.876000
0.008238 -0.011909 0.880000
-0.002611 -0.007511 0.874000
-0.031965 0.022458 0.851000
-0.017790 0.010661 0.860000
-0.000094 -0.031610 0.884000
0.006619 -0.000664 0.858000
-0.015890 0.014085 0.853000
-0.045623 0.029439 0.871000
-0.015358 -0.006861 0.883000
-0.015722 -0.006861 0.883000
0.009706 0.010887 0.850000
0.019640 -0.000662 0.856000
0.013267 0.003557 0.854000
0.001368 -0.021520 0.888000
0.042309 -0.020078 0.873000
0.017114 0.005659 0.853000
-0.045914 0.020999 0.863000
0.015912 -0.006358 0.864000
-0.029761 -0.000318 0.879000
-0.011153 0.024588 0.840000
-0.005648 0.018105 0.844000
0.030879 -0.003829 0.855000
0.027711 -0.002773 0.855000
0.014161 -0.040525 0.888000
-0.046034 0.003632 0.872000
0.029816 -0.013130 0.865000
-0.009107 -0.004283 0.876000
0.040617 -0.006683 0.860000
-0.009180 -0.020308 0.883000
-0.013526 0.008528 0.859000
-0.051456 -0.007606 0.885000
-0.033756 0.024589 0.852000
0.040216 -0.004907 0.859000
0.033381 -0.005242 0.856000
-0.044290 0.003996 0.873000
-0.011009 -0.008325 0.884000
0.040758 0.010698 0.863000
0.017772 -0.007817 0.868000
0.032009 -0.005249 0.857000
-0.030746 0.010736 0.866000
0.002459 -0.029858 0.886000
-0.023945 0.028045 0.840000
-0.017801 -0.022000 0.878000
0.025396 -0.005267 0.860000
-0.028905 -0.015082 0.875000
-0.044496 -0.004970 0.870000
0.006536 -0.027952 0.895000
0.016409 -0.036628 0.891000
-0.039029 0.031191 0.860000
-0.024808 -0.023216 0.883000
-0.008816 0.015050 0.848000
0.039110 -0.003842 0.858000
-0.038720 0.017761 0.861000
0.047528 -0.006916 0.890000
0.006500 -0.021568 0.890000
0.009070 -0.000310 0.856000
-0.028991 0.024416 0.846000
-0.024772 0.007196 0.869000
-0.003563 0.022621 0.844000
-0.037438 0.022590 0.856000
-0.004627 0.013654 0.848000
0.024334 -0.005267 0.860000
0.035619 0.007113 0.859000
-0.015650 -0.002851 0.879000
-0.011710 -0.018470 0.882000
0.023131 -0.010675 0.868000
-0.023195 -0.016922 0.877000
-0.034498 0.022511 0.853000
-0.022079 0.017144 0.848000
-0.029985 0.005445 0.875000
0.008303 -0.036098 0.887000
-0.047774 0.002911 0.871000
0.034758 -0.023189 0.882000
-0.036343 -0.013595 0.872000
-0.019742 0.005759 0.868000
0.021246 -0.006358 0.864000
0.015538 -0.006351 0.863000
-0.030533 0.012431 0.860000
0.008356 0.001098 0.855000
-0.044649 0.003636 0.873000
-0.023142 -0.022285 0.875000
-0.039291 0.019465 0.858000
-0.021122 0.007884 0.866000
0.015693 -0.024187 0.892000
0.004797 0.012607 0.848000
-0.009884 -0.024251 0.881000
0.017142 -0.023059 0.891000
-0.030103 0.010046 0.868000
0.012535 0.006003 0.852000
0.030843 0.003557 0.854000
0.019040 -0.031600 0.894000
0.031890 -0.022852 0.883000
0.032249 -0.000309 0.854000
-0.040893 0.030199 0.862000
-0.012032 -0.027452 0.879000
-0.041415 0.010822 0.873000
-0.018142 -0.024141 0.877000
-0.028329 0.023399 0.847000
0.035307 -0.009160 0.860000
-0.010107 -0.001745 0.869000
0.038448 0.002517 0.859000
0.018540 0.008478 0.854000
0.004094 0.016078 0.847000
0.010908 -0.004924 0.862000
-0.007362 -0.024306 0.883000
0.029643 -0.006683 0.860000
0.005735 -0.014526 0.885000
-0.010441 0.000757 0.867000
0.040617 0.000042 0.860000
-0.041273 -0.011774 0.870000
-0.049395 0.017906 0.868000
-0.030708 0.018693 0.855000
-0.030311 -0.014705 0.874000
0.019946 0.000745 0.854000
-0.015703 0.020859 0.843000
0.005164 0.006697 0.851000
0.003188 -0.032046 0.886000
0.002002 0.012592 0.847000
-0.000452 -0.008221 0.873000
0.013937 0.006705 0.852000
0.013490 -0.025288 0.892000
-0.034747 0.001848 0.877000
0.032990 -0.003125 0.855000
0.011211 -0.041528 0.886000
0.026905 -0.008482 0.863000
-0.005545 -0.025760 0.883000
-0.014906 0.011682 0.857000
0.005858 0.008788 0.850000
0.007599 -0.021202 0.890000
-0.037591 0.005451 0.876000
0.047122 -0.014621 0.869000
-0.021705 0.019913 0.847000
-0.008457 0.015729 0.847000
-0.043630 0.023050 0.860000
-0.024334 -0.010086 0.879000
-0.037744 0.016026 0.863000
-0.044138 -0.006044 0.870000
-0.024251 0.002207 0.876000
-0.040445 0.029775 0.860000
0.023245 -0.003847 0.859000
0.002703 0.011909 0.848000
0.041565 -0.014554 0.865000
-0.000438 0.019889 0.846000
0.004464 0.008098 0.851000
0.020725 -0.012160 0.872000
0.040569 -0.004907 0.859000
-0.006038 0.012636 0.850000
-0.029037 -0.003213 0.879000
0.006866 -0.024499 0.890000
0.015358 0.003553 0.853000
-0.043621 0.008677 0.874000
0.005844 0.012607 0.848000
0.028227 -0.006329 0.860000
-0.030345 0.005085 0.875000
-0.001138 0.011224 0.849000
-0.041823 0.009036 0.874000
-0.015219 -0.000317 0.875000
-0.035984 -0.013954 0.872000
0.017154 0.000746 0.855000
-0.019796 0.024588 0.840000
0.045125 -0.012774 0.865000
-0.033303 0.004736 0.877000
-0.024723 -0.006114 0.880000
-0.023780 0.011356 0.859000
-0.049208 0.023703 0.871000
-0.005909 -0.024306 0.883000
0.041921 -0.014198 0.865000
-0.000819 -0.035895 0.882000
-0.010235 -0.028570 0.880000
0.033669 -0.022826 0.882000
-0.018204 -0.026759 0.880000
0.033812 0.008871 0.858000
0.033459 0.010283 0.858000
0.033593 -0.021688 0.880000
0.009409 -0.017865 0.888000
0.002019 0.003557 0.854000
0.011617 -0.005279 0.862000
-0.005558 -0.010884 0.885000
0.007224 -0.026667 0.889000
-0.013133 -0.022775 0.880000
0.006899 0.015068 0.849000
-0.031191 0.023803 0.849000
-0.035829 -0.002844 0.877000
-0.039690 0.029387 0.859000
-0.013290 0.019147 0.844000
-0.040743 0.001122 0.874000
-0.049338 -0.006737 0.867000
-0.036381 0.026114 0.856000
-0.019082 0.027667 0.839000
0.025189 0.000042 0.853000
0.002456 -0.030553 0.885000
-0.039612 0.034576 0.865000
-0.014956 0.023551 0.840000
0.003927 -0.025540 0.888000
-0.028249 -0.008259 0.877000
-0.000825 -0.019692 0.888000
0.010971 -0.008521 0.867000
-0.008816 -0.022125 0.883000
0.005872 0.005653 0.852000
-0.015668 -0.019877 0.880000
-0.039034 0.003288 0.876000
-0.038810 0.034497 0.863000
0.044821 -0.014571 0.866000
0.011944 -0.003851 0.860000
-0.024696 0.030885 0.842000
-0.043732 0.019201 0.862000
-0.026485 0.013063 0.855000
0.036948 -0.005249 0.857000
-0.047938 0.027382 0.874000
0.002827 -0.014559 0.887000
0.003185 -0.033832 0.885000
-0.047470 0.005068 0.872000
-0.031485 0.017679 0.857000
0.018317 -0.015117 0.877000
0.011135 -0.013358 0.880000
-0.011724 -0.015584 0.883000
-0.011844 0.024242 0.840000
-0.024361 -0.003216 0.880000
-0.040398 0.029033 0.859000
-0.032809 0.013200 0.864000
0.038224 -0.016429 0.870000
-0.037790 0.021181 0.856000
-0.001481 0.020561 0.845000
-0.013637 0.001468 0.866000
-0.031137 -0.004649 0.877000
0.029753 0.001446 0.853000
0.003409 0.008438 0.850000
-0.019105 0.024242 0.840000
0.016206 -0.014806 0.880000
-0.044906 -0.001391 0.871000
0.017142 -0.022693 0.891000
-0.018737 0.029048 0.839000
0.041921 -0.014554 0.865000
0.038707 -0.023888 0.881000
-0.032315 0.027712 0.851000
-0.045832 0.009407 0.875000
-0.027166 0.002931 0.877000
-0.017356 0.026976 0.839000
-0.024611 -0.019066 0.876000
0.038312 -0.018261 0.872000
0.001734 -0.016768 0.888000
0.023818 -0.010662 0.867000
0.040758 -0.011679 0.863000
0.010151 -0.002076 0.858000
0.005495 0.015050 0.848000
0.003561 -0.016403 0.888000
0.012042 -0.008521 0.867000
-0.032754 -0.016107 0.872000
-0.017806 0.020884 0.844000
0.014742 -0.003136 0.858000
0.007948 0.012272 0.849000
0.025944 -0.025260 0.891000
-0.020683 0.016097 0.848000
-0.006729 0.013670 0.849000
0.023611 -0.021836 0.886000
-0.045160 -0.008541 0.869000
-0.026299 0.020658 0.849000
0.022494 -0.014655 0.871000
-0.030020 0.004730 0.876000
0.034953 0.012431 0.860000
-0.012190 0.026317 0.840000
0.027622 -0.022930 0.886000
-0.022834 -0.018365 0.877000
-0.022294 0.005772 0.870000
-0.004101 -0.022904 0.885000
0.005034 -0.022667 0.890000
0.015257 -0.043083 0.888000
-0.028211 0.017265 0.854000
-0.040539 0.017427 0.862000
0.014707 -0.012590 0.877000
0.039793 -0.019000 0.873000
0.029119 -0.003477 0.855000
0.037873 0.012815 0.862000
0.029436 0.006018 0.854000
-0.019697 -0.005765 0.882000
0.010245 -0.007442 0.866000
0.015658 -0.021568 0.890000
-0.037482 0.020148 0.857000
-0.039737 0.030483 0.860000
-0.018245 -0.006854 0.882000
0.002420 -0.006776 0.872000
-0.027464 -0.017603 0.875000
0.005000 -0.038159 0.884000
0.020144 -0.028656 0.894000
0.028515 -0.004902 0.858000
-0.010474 0.023579 0.841000
-0.028281 -0.005377 0.878000
0.014811 -0.005634 0.862000
-0.009565 -0.011248 0.885000
0.005000 -0.013418 0.884000
0.008972 -0.013373 0.881000
-0.001133 0.020909 0.845000
-0.010293 -0.012705 0.885000
0.045890 -0.009224 0.866000
-0.018566 -0.015531 0.880000
-0.046752 0.003991 0.872000
0.039209 -0.021229 0.876000
0.023868 -0.002424 0.856000
-0.022001 0.021604 0.845000
-0.042460 0.016420 0.865000
0.012375 -0.029294 0.891000
0.038756 -0.000664 0.858000
-0.038677 0.012904 0.868000
0.022642 -0.006351 0.863000
-0.025663 -0.018684 0.875000
-0.043427 0.027393 0.863000
-0.005694 0.008448 0.851000
0.026562 0.003198 0.852000
0.011469 0.010550 0.851000
-0.008472 -0.015255 0.885000
-0.026648 0.021008 0.849000
-0.014938 0.027667 0.839000
-0.008080 -0.025367 0.882000
-0.015419 0.002181 0.866000
0.020343 -0.010712 0.871000
0.015718 -0.010018 0.873000
-0.025419 -0.000318 0.879000
-0.027220 0.013078 0.856000
0.006565 0.007748 0.851000
0.031450 -0.008462 0.861000
-0.016378 0.021528 0.842000
-0.017375 0.012388 0.857000
0.034522 -0.019066 0.876000
-0.022548 0.008241 0.866000
0.025434 -0.022201 0.886000
0.018304 -0.026449 0.894000
-0.009921 0.010575 0.853000
-0.027157 0.014805 0.854000
0.037257 -0.023526 0.881000
-0.044496 -0.006044 0.870000
0.017936 -0.012936 0.876000
0.032753 -0.007020 0.858000
-0.005188 -0.023606 0.884000
-0.013510 -0.018812 0.881000
-0.023740 0.022300 0.845000
-0.018204 -0.014444 0.880000
-0.050341 -0.000316 0.872000
0.002099 -0.022251 0.888000
-0.046732 0.019268 0.865000
-0.045559 0.023130 0.863000
-0.004758 -0.005699 0.872000
0.038756 -0.004548 0.858000
-0.012814 -0.014130 0.883000
0.039955 0.003941 0.861000
-0.022499 -0.015857 0.878000
0.016042 -0.021959 0.891000
-0.009480 0.017431 0.845000
0.014759 -0.003847 0.859000
-0.025191 0.022004 0.847000
0.008453 -0.006366 0.865000
0.013236 0.005653 0.852000
-0.016448 -0.010496 0.883000
0.029823 -0.003477 0.855000
0.017008 -0.017784 0.884000
-0.020934 0.002918 0.873000
-0.028365 -0.021984 0.892000
0.017816 0.006362 0.853000
0.010163 -0.020469 0.890000
-0.039256 0.034932 0.865000
0.002462 -0.025876 0.887000
-0.030671 -0.015065 0.874000
0.002348 0.016407 0.846000
0.034044 -0.016844 0.873000
0.013619 0.003557 0.854000
0.017896 -0.023452 0.892000
-0.002179 0.014666 0.846000
0.031582 0.002857 0.855000
-0.017781 -0.024502 0.877000
-0.026866 -0.005383 0.879000
0.032249 -0.000661 0.854000
0.010859 -0.037924 0.887000
-0.046537 0.026122 0.868000
0.003931 -0.017885 0.889000
-0.043521 0.033062 0.872000
0.029800 -0.016883 0.875000
-0.017117 -0.018066 0.880000
-0.022550 -0.009736 0.880000
0.008667 0.007397 0.851000
-0.008462 -0.018876 0.884000
-0.006628 -0.007943 0.882000
0.026593 -0.000309 0.853000
-0.000824 -0.014559 0.887000
0.004273 -0.013418 0.884000
0.042534 -0.009903 0.863000
-0.024443 0.006488 0.870000
-0.045108 0.015047 0.868000
-0.037700 0.032683 0.862000
0.007590 -0.027398 0.889000
-0.020692 0.000043 0.878000
-0.003368 -0.026153 0.884000
-0.050110 -0.003530 0.868000
-0.004818 -0.026487 0.883000
0.029051 -0.000309 0.853000
0.008307 0.014735 0.850000
-0.007752 -0.013084 0.886000
0.013954 0.004255 0.853000
-0.017175 -0.007225 0.883000
0.026225 -0.008847 0.864000
-0.047252 -0.009603 0.868000
-0.022470 0.009988 0.863000
0.011106 0.010537 0.850000
0.026012 -0.003838 0.857000
-0.037172 0.019112 0.858000
0.020436 -0.015803 0.875000
-0.026041 0.016173 0.852000
0.016060 -0.031162 0.892000
-0.007362 -0.008315 0.883000
-0.001551 -0.026182 0.885000
-0.012190 0.027354 0.840000
0.008297 0.013670 0.849000
-0.025722 -0.013312 0.877000
-0.039200 0.022590 0.856000
-0.008481 -0.013449 0.886000
0.013236 0.010562 0.852000
0.038562 -0.025847 0.886000
0.011199 -0.016712 0.885000
0.020512 -0.033440 0.894000
0.014150 -0.007434 0.865000
-0.016728 0.010307 0.860000
0.036099 -0.010601 0.862000
-0.024202 0.017863 0.849000
0.002351 0.018518 0.847000
-0.033303 -0.001040 0.877000
0.037896 -0.022387 0.879000
0.004469 0.004601 0.852000
0.029471 -0.003125 0.855000
0.042228 0.010711 0.864000
-0.021220 0.005414 0.870000
-0.027088 0.009633 0.863000
-0.016318 -0.000317 0.876000
-0.008795 0.016059 0.846000
-0.010258 -0.023189 0.882000
-0.015974 0.026286 0.839000
0.008698 -0.026330 0.890000
0.009752 0.001448 0.854000
0.042018 -0.016015 0.867000
-0.016717 -0.001402 0.878000
-0.003741 -0.013084 0.886000
0.038006 -0.005249 0.857000
0.036595 -0.004543 0.857000
-0.031172 0.001127 0.878000
-0.009132 0.017083 0.845000
0.037810 -0.020892 0.877000
0.012541 -0.011507 0.877000
-0.024465 0.022326 0.846000
-0.001837 0.011224 0.849000
-0.020190 0.022914 0.842000
0.031767 -0.007391 0.860000
-0.047966 0.023622 0.868000
0.014959 -0.023819 0.892000
-0.021702 0.002204 0.875000
-0.003911 0.021579 0.844000
-0.029266 0.018671 0.854000
-0.043833 0.017823 0.864000
0.001000 -0.013813 0.886000
0.016170 -0.014050 0.878000
0.015274 -0.040571 0.889000
-0.000458 -0.024753 0.886000
0.004123 0.003904 0.853000
0.011119 0.008098 0.851000
-0.025419 0.000043 0.879000
-0.003938 0.010537 0.850000
-0.008108 -0.015983 0.885000
0.017470 -0.021178 0.889000
0.025333 -0.015712 0.870000
-0.003380 -0.016750 0.887000
-0.020331 -0.017302 0.878000
0.009430 -0.019370 0.890000
0.017916 -0.025316 0.893000
0.003185 -0.013798 0.885000
-0.018460 0.001124 0.875000
-0.009570 0.010575 0.853000
-0.013889 -0.017018 0.882000
-0.030741 -0.007528 0.876000
-0.040091 0.029775 0.860000
-0.007437 0.013336 0.850000
0.018518 0.003904 0.853000
-0.040680 0.033152 0.865000
0.000622 0.002898 0.867000
0.027263 0.003198 0.852000
0.023433 0.002149 0.853000
-0.038847 0.024352 0.856000
0.013666 -0.002074 0.857000
-0.022886 -0.012619 0.879000
-0.005170 -0.007571 0.881000
-0.037923 0.018781 0.859000
0.001362 -0.034521 0.884000
-0.021154 0.028012 0.839000
-0.024499 0.005068 0.872000
-0.018245 -0.006128 0.882000
-0.019334 -0.009032 0.882000
0.013970 0.003206 0.854000
-0.003719 -0.033679 0.881000
-0.014927 -0.002851 0.879000
0.046657 -0.011733 0.867000
0.034994 -0.009526 0.861000
-0.025390 -0.010436 0.878000
-0.017519 -0.006128 0.882000
-0.045928 0.014724 0.870000
0.008297 0.011923 0.849000
-0.000090 0.012940 0.847000
0.011968 -0.038332 0.888000
-0.000093 -0.009363 0.879000
-0.008108 -0.011977 0.885000
-0.028056 0.007213 0.871000
-0.013557 0.027321 0.839000
0.017526 -0.000310 0.856000
0.029426 -0.010270 0.864000
0.040216 -0.005968 0.859000
-0.013243 0.021502 0.841000
0.016880 -0.002786 0.859000
-0.007970 -0.003538 0.870000
0.006133 -0.019004 0.890000
0.003767 0.004250 0.852000
-0.009200 -0.015255 0.885000
-0.015097 0.001115 0.868000
-0.041463 0.009756 0.874000
-0.012509 0.003236 0.862000
0.009229 -0.009995 0.871000
-0.008796 -0.027514 0.881000
-0.030635 -0.017204 0.873000
-0.007121 0.006721 0.854000
0.032580 -0.022463 0.882000
0.017854 -0.010724 0.872000
0.036015 -0.008807 0.860000
-0.024173 0.019936 0.848000
-0.035053 0.018052 0.858000
0.040711 0.008203 0.862000
-0.017010 0.025940 0.839000
-0.032378 0.013879 0.862000
0.008687 0.002851 0.853000
-0.013510 -0.020625 0.881000
-0.015098 0.017493 0.848000
0.030527 -0.003477 0.855000
0.012961 -0.014823 0.881000
0.026211 0.001795 0.852000
0.003750 0.018191 0.848000
0.002351 0.012940 0.847000
-0.013751 0.014753 0.851000
-0.021727 -0.024113 0.876000
0.030245 -0.005249 0.857000
-0.005551 -0.021787 0.884000
0.001308 0.010525 0.849000
-0.027762 0.020357 0.851000
0.018692 -0.003856 0.861000
-0.015271 -0.027782 0.878000
0.000999 -0.029825 0.885000
-0.011671 -0.003936 0.879000
0.006500 -0.023400 0.890000
-0.024696 0.031231 0.842000
0.038405 -0.013858 0.866000
0.010140 -0.034312 0.888000
-0.030420 0.027931 0.847000
-0.011309 -0.028537 0.879000
-0.031314 0.012105 0.862000
-0.048625 -0.008165 0.867000
-0.047415 0.026571 0.871000
0.038982 0.013895 0.863000
0.024560 -0.013175 0.868000
-0.023999 -0.023499 0.880000
0.044413 -0.012062 0.865000
0.021852 -0.016864 0.874000
-0.003353 -0.007925 0.880000
-0.044087 0.019201 0.862000
-0.042201 0.014673 0.867000
0.010541 -0.023793 0.891000
-0.009906 -0.018855 0.883000
-0.030122 0.000405 0.879000
-0.007376 0.018431 0.843000
0.029085 0.004963 0.854000
-0.009565 -0.015619 0.885000
0.021678 0.003553 0.853000
-0.022213 -0.006846 0.881000
0.001303 0.018844 0.846000
-0.041989 0.034418 0.870000
0.008022 -0.000663 0.857000
-0.015629 0.024904 0.839000
0.028159 -0.019515 0.880000
-0.018983 0.006815 0.866000
-0.014446 -0.029760 0.894000
-0.000458 -0.013449 0.886000
-0.040697 -0.002831 0.873000
-0.014167 0.012359 0.855000
0.013460 -0.034023 0.890000
0.010794 0.004957 0.853000
0.022352 -0.027184 0.894000
0.004108 0.008788 0.850000
-0.032003 0.021433 0.852000
0.011445 -0.011134 0.876000
-0.038811 -0.009995 0.871000
-0.021781 0.014735 0.850000
-0.000785 0.017779 0.845000
0.022944 -0.005273 0.861000
-0.042542 0.002202 0.874000
-0.044390 0.022368 0.861000
0.037384 -0.025061 0.884000
-0.013542 0.006060 0.860000
-0.011724 -0.017037 0.883000
0.001003 -0.017134 0.888000
-0.028475 0.009977 0.862000
0.009356 0.013336 0.850000
-0.027793 -0.019742 0.874000
0.017837 0.002151 0.854000
0.003134 -0.008202 0.871000
0.018465 -0.007451 0.867000
-0.021709 0.011028 0.861000
0.025304 -0.014979 0.869000
-0.014631 -0.006135 0.883000
0.008341 -0.022326 0.891000
0.038094 0.001810 0.859000
0.007445 -0.010006 0.872000
-0.005988 0.023635 0.843000
0.011106 0.009488 0.850000
0.022758 0.000042 0.854000
-0.028545 0.004725 0.875000
0.027102 -0.004548 0.858000
0.014639 0.007757 0.852000
-0.043931 0.002558 0.873000
-0.009413 -0.003183 0.871000
0.007607 -0.022326 0.891000
-0.032979 0.002573 0.878000
-0.001551 -0.026547 0.885000
0.009808 -0.026726 0.891000
-0.021073 0.009288 0.864000
-0.028905 0.005085 0.875000
0.034046 -0.000310 0.855000
-0.012101 -0.012327 0.884000
0.045386 -0.017503 0.870000
0.013251 0.004255 0.853000
-0.001883 -0.004254 0.870000
-0.000462 -0.037445 0.893000
-0.027093 0.018978 0.852000
0.011509 0.002854 0.854000
0.041824 -0.011679 0.863000
0.038227 0.014234 0.862000
0.039750 -0.023137 0.880000
0.000955 0.017800 0.846000
0.005913 -0.000311 0.858000
0.019896 -0.018491 0.883000
-0.020310 0.017124 0.847000
0.011315 -0.007799 0.866000
-0.048212 0.020003 0.866000
0.033106 0.009930 0.858000
0.017792 -0.008183 0.869000
0.016512 -0.012951 0.877000
-0.010524 0.017431 0.845000
0.009808 -0.023793 0.891000
-0.004605 0.017758 0.844000
0.007419 -0.008183 0.869000
-0.005915 -0.022150 0.884000
-0.037129 0.027908 0.857000
-0.044036 0.020950 0.861000
0.006127 -0.025569 0.889000
0.025779 -0.005982 0.861000
0.030848 0.013200 0.864000
-0.021390 -0.020170 0.877000
-0.031426 -0.010041 0.875000
-0.043981 0.006878 0.874000
-0.002892 0.007748 0.851000
-0.014723 0.001470 0.867000
-0.008175 0.007072 0.854000
0.006200 0.010525 0.849000
-0.007387 -0.014907 0.886000
0.005279 -0.008193 0.870000
-0.021500 0.029393 0.839000
-0.018907 -0.019131 0.879000
0.004808 0.009138 0.850000
0.006346 -0.008183 0.869000
-0.000822 -0.026182 0.885000
-0.014548 -0.002125 0.878000
0.017123 -0.040250 0.890000
-0.037909 -0.001037 0.875000
0.005146 0.017144 0.848000
-0.007015 -0.010884 0.885000
-0.044796 0.020265 0.862000
-0.036870 0.001125 0.876000
0.016024 -0.037319 0.890000
0.012008 -0.028560 0.891000
-0.021053 -0.018025 0.878000
-0.030671 0.005799 0.874000
-0.014854 0.013399 0.854000
-0.049038 0.018620 0.868000
0.006127 -0.025935 0.889000
-0.011309 -0.028175 0.879000
0.005146 0.014701 0.848000
-0.027793 -0.017583 0.874000
-0.026024 -0.019044 0.875000
0.026427 -0.005261 0.859000
-0.028512 -0.020101 0.874000
0.002094 -0.013813 0.886000
-0.005915 -0.009416 0.884000
-0.045060 0.005799 0.874000
-0.009565 -0.010884 0.885000
0.016151 -0.012951 0.877000
-0.036702 -0.010724 0.872000
-0.048077 0.000401 0.870000
-0.023275 -0.006838 0.880000
0.021123 -0.003140 0.859000
0.037748 -0.025061 0.884000
0.018263 -0.035200 0.892000
-0.011051 0.004639 0.859000
-0.006658 -0.014178 0.886000
0.032506 -0.021326 0.880000
-0.013449 -0.002122 0.877000
0.016230 -0.005634 0.862000
0.023921 -0.020695 0.884000
-0.031066 0.005445 0.875000
-0.015974 0.024904 0.839000
0.002092 -0.013434 0.885000
-0.018017 0.014453 0.854000
-0.030415 -0.007176 0.877000
0.031546 -0.000661 0.854000
-0.004087 -0.030450 0.882000
-0.030564 0.021408 0.851000
0.029753 0.000744 0.853000
0.007607 -0.022693 0.891000
-0.048212 0.021429 0.866000
-0.005117 -0.005699 0.872000
-0.025018 0.014085 0.853000
-0.028152 -0.017224 0.874000
-0.005413 0.005364 0.862000
-0.013495 -0.024223 0.880000
0.024831 -0.008858 0.865000
0.023433 0.006713 0.853000
-0.001917 -0.021471 0.886000
0.010506 -0.035408 0.888000
0.001652 0.017103 0.846000
0.005000 -0.038523 0.884000
0.042502 -0.021614 0.877000
-0.019891 0.012063 0.859000
-0.041273 -0.010699 0.870000
-0.035064 0.012175 0.867000
-0.044547 0.030873 0.871000
0.041018 -0.008817 0.861000
-0.010972 -0.023888 0.881000
0.005767 -0.019004 0.890000
0.016060 0.005659 0.853000
-0.007007 -0.019967 0.884000
0.032617 -0.022852 0.883000
-0.011737 -0.011599 0.884000
-0.001133 0.019518 0.845000
-0.027154 0.026064 0.843000
0.019321 -0.023033 0.890000
0.047480 -0.014621 0.869000
0.023623 -0.016844 0.873000
-0.037963 0.012904 0.868000
-0.043830 -0.003542 0.871000
-0.029688 0.026157 0.846000
-0.031462 -0.007889 0.876000
-0.026053 -0.021950 0.876000
0.022380 0.001095 0.853000
-0.002524 0.015344 0.845000
-0.015852 0.015804 0.851000
0.030140 0.001097 0.854000
-0.011129 0.000755 0.865000
-0.011512 0.021502 0.841000
0.031131 -0.008472 0.862000
-0.029131 0.007571 0.871000
-0.018737 0.026976 0.839000
-0.020284 0.001125 0.876000
0.037697 -0.001017 0.858000
0.017549 -0.026051 0.893000
0.028733 -0.002067 0.854000
0.027809 -0.005255 0.858000
-0.023972 -0.009725 0.879000
-0.002882 0.012607 0.848000
0.014161 -0.041621 0.888000
-0.004087 -0.032265 0.882000
-0.009565 -0.009791 0.885000
0.013360 -0.004913 0.860000
-0.016825 0.005739 0.865000
-0.033395 0.009711 0.870000
-0.027316 0.011002 0.859000
-0.024551 0.017514 0.849000
0.035184 -0.006307 0.857000
-0.000094 -0.030155 0.884000
0.010506 -0.036139 0.888000
-0.033831 -0.016466 0.872000
0.042682 -0.014927 0.866000
0.002351 0.017472 0.847000
-0.027250 0.023023 0.846000
-0.023917 -0.016561 0.877000
0.003199 -0.019714 0.889000
-0.001556 -0.018230 0.888000
0.010430 0.005653 0.852000
-0.039737 0.018448 0.860000
0.044057 -0.012418 0.865000
0.019040 -0.029392 0.894000
-0.029693 -0.007176 0.877000
-0.007254 -0.003538 0.870000
0.002719 0.003553 0.853000
-0.008156 0.010211 0.852000
-0.015666 0.022195 0.841000
0.031204 -0.010270 0.864000
-0.009956 0.006736 0.856000
-0.036636 0.016363 0.862000
0.037785 0.007830 0.860000
-0.005902 -0.027183 0.882000
-0.014938 0.027321 0.839000
-0.040430 0.007246 0.875000
-0.019429 0.004340 0.870000
-0.005648 0.017063 0.844000
0.012684 -0.040844 0.887000
-0.037790 0.022590 0.856000
-0.034587 0.014267 0.864000
0.023626 -0.004913 0.860000
0.033211 -0.014996 0.870000
0.010518 -0.031423 0.889000
-0.013112 0.012359 0.855000
0.019738 -0.015821 0.876000
-0.027042 0.005433 0.873000
-0.042470 0.023349 0.858000
-0.039200 0.025057 0.856000
-0.023154 0.016116 0.849000
-0.028217 0.003649 0.876000
-0.026172 -0.005027 0.880000
-0.036870 0.005812 0.876000
-0.017010 0.030084 0.839000
0.009049 0.001097 0.854000
0.003170 -0.011197 0.881000
-0.046127 0.016458 0.867000
0.009176 -0.007086 0.866000
-0.044547 -0.003542 0.871000
-0.015704 -0.014477 0.882000
0.031656 -0.005601 0.857000
0.027292 -0.009559 0.864000
-0.019312 -0.012648 0.881000
0.018181 -0.021154 0.888000
-0.020610 0.021257 0.845000
0.014592 -0.031162 0.892000
0.026334 -0.002776 0.856000
-0.039291 0.027940 0.858000
-0.041700 0.016401 0.864000
-0.015668 -0.020964 0.880000
-0.038187 0.020500 0.857000
0.035785 -0.010968 0.863000
-0.032183 0.005091 0.876000
0.016512 -0.013312 0.877000
-0.015375 0.020189 0.844000
0.015412 0.000395 0.856000
-0.003008 -0.025454 0.885000
0.009013 -0.041117 0.885000
-0.026071 0.014436 0.853000
-0.010947 -0.029984 0.879000
-0.033756 0.025991 0.852000
-0.027464 -0.017243 0.875000
-0.039392 0.036840 0.868000
0.017509 -0.038462 0.891000
-0.019590 0.020237 0.846000
-0.038847 0.022590 0.856000
-0.046805 0.005073 0.873000
0.016969 -0.016655 0.882000
0.010756 0.011237 0.850000
-0.045981 0.029081 0.871000
-0.050168 -0.001388 0.869000
0.008698 -0.019370 0.890000
0.024029 -0.022982 0.888000
-0.030020 0.004370 0.876000
0.016625 -0.017401 0.883000
0.023434 -0.008868 0.866000
-0.013173 0.006406 0.859000
-0.008826 -0.019604 0.884000
-0.031172 -0.002125 0.878000
-0.028982 0.016249 0.856000
-0.047415 0.002911 0.871000
-0.003015 -0.013464 0.887000
0.002833 -0.017153 0.889000
-0.026931 0.011696 0.858000
0.022110 -0.011415 0.870000
0.013624 -0.012229 0.877000
0.000270 -0.036662 0.883000
0.034524 -0.013517 0.867000
-0.006372 0.014352 0.848000
0.011641 -0.021226 0.891000
-0.017078 -0.024530 0.878000
-0.045368 0.003636 0.873000
0.047068 -0.010317 0.868000
-0.001828 0.021257 0.845000
-0.021936 0.005414 0.870000
-0.005988 0.019819 0.843000
-0.026082 0.027766 0.842000
-0.028938 -0.011134 0.876000
-0.002967 -0.007143 0.873000
-0.039886 -0.009995 0.871000
-0.030039 0.017306 0.856000
0.021805 -0.002783 0.858000
-0.008517 0.009170 0.853000
0.031989 -0.012789 0.866000
-0.008836 -0.013798 0.885000
0.037003 -0.019404 0.875000
-0.034025 0.000043 0.877000
-0.041392 0.031728 0.865000
0.031582 -0.002773 0.855000
-0.029693 -0.007898 0.877000
-0.012567 0.001112 0.866000
0.002009 0.008438 0.850000
-0.017539 -0.008679 0.883000
-0.015834 0.016135 0.850000
0.005370 -0.037838 0.885000
0.010769 0.007748 0.851000
-0.035593 0.023944 0.854000
-0.018204 -0.002130 0.880000
-0.015116 0.016815 0.849000
-0.007708 -0.028240 0.881000
0.008820 -0.007086 0.866000
0.000607 0.014318 0.846000
-0.021390 -0.019809 0.877000
0.009208 -0.009256 0.869000
-0.044547 -0.002466 0.871000
-0.044700 0.010475 0.874000
-0.049566 0.022986 0.871000
-0.023529 0.001846 0.876000
0.003433 0.001452 0.856000
-0.029037 -0.003936 0.879000
0.026109 -0.016825 0.872000
-0.016448 -0.010859 0.883000
-0.009435 0.023579 0.841000
-0.021627 0.004350 0.872000
0.037785 0.005352 0.860000
0.036476 -0.016447 0.871000
0.011615 -0.035082 0.889000
-0.014235 -0.019900 0.881000
-0.031426 -0.010401 0.875000
-0.014961 -0.018449 0.881000
-0.024361 -0.001405 0.880000
0.023461 -0.009235 0.867000
-0.005306 0.016735 0.845000
-0.015633 -0.024891 0.878000
-0.019082 0.026976 0.839000
-0.035324 0.026818 0.856000
0.043395 -0.014927 0.866000
0.028733 0.005666 0.854000
0.040002 0.009977 0.862000
-0.000786 0.021282 0.846000
-0.002638 -0.031211 0.883000
-0.034469 0.010069 0.870000
-0.029791 0.012063 0.859000
0.008668 -0.035733 0.887000
-0.027135 -0.012936 0.876000
-0.036828 -0.001757 0.875000
0.027647 0.001798 0.853000
-0.019583 0.010674 0.861000
-0.013542 0.006414 0.860000
0.012170 0.010199 0.851000
-0.029374 0.023747 0.847000
-0.012730 0.013032 0.853000
-0.001186 -0.012341 0.885000
-0.016374 -0.022025 0.879000
0.031194 0.002854 0.854000
0.029080 -0.016883 0.875000
-0.013702 0.016795 0.848000
0.006099 -0.037474 0.885000
-0.031390 -0.013626 0.874000
0.020369 -0.001721 0.857000
-0.036423 0.027908 0.857000
0.021000 0.000042 0.854000
0.017858 0.000394 0.855000
-0.021379 0.010331 0.862000
0.005735 -0.036746 0.885000
-0.030706 0.005445 0.875000
0.009388 -0.016366 0.886000
-0.046446 0.005433 0.873000
0.011537 -0.015584 0.883000
-0.012073 -0.018107 0.882000
-0.034747 0.001126 0.877000
0.038982 -0.011679 0.863000
0.019969 -0.000310 0.855000
-0.012538 0.002176 0.864000
-0.029374 0.029325 0.847000
0.010529 -0.029261 0.890000
0.029471 0.007784 0.855000
-0.042705 -0.008193 0.870000
0.006835 -0.036058 0.886000
0.029104 -0.013486 0.865000
0.026318 -0.018769 0.879000
0.016565 -0.004564 0.861000
-0.036301 0.010081 0.871000
-0.008774 0.018105 0.844000
-0.029340 0.024764 0.846000
-0.025042 0.030885 0.842000
-0.004445 -0.032953 0.881000
0.007428 -0.009267 0.870000
0.023298 -0.022982 0.888000
-0.030706 -0.012922 0.875000
0.024458 0.003549 0.852000
0.029391 -0.009192 0.863000
-0.041009 0.022264 0.857000
-0.044087 -0.009256 0.869000
-0.017335 0.013415 0.855000
-0.011009 -0.014146 0.884000
0.007249 0.014718 0.849000
-0.011039 0.005339 0.858000
-0.008405 -0.005016 0.878000
-0.002176 0.019866 0.845000
0.019571 0.005308 0.853000
-0.024202 0.017514 0.849000
0.014439 -0.005627 0.861000
0.026765 -0.015712 0.870000
-0.018089 0.022887 0.841000
0.008247 -0.013010 0.881000
0.000961 0.006347 0.851000
0.030102 -0.009548 0.863000
-0.013311 -0.000314 0.868000
0.029279 -0.020625 0.881000
-0.049695 -0.006737 0.867000
0.004099 0.011560 0.848000
0.012375 -0.022326 0.891000
-0.033510 0.007948 0.873000
-0.028905 -0.014722 0.875000
-0.043931 0.010822 0.873000
-0.003589 0.010537 0.850000
