-0.010356 0.023050 0.860000
-0.022140 -0.026272 0.864000
0.012947 0.040971 0.880000
-0.012864 0.028780 0.862000
0.006016 0.025195 0.873000
0.035886 0.019135 0.892000
-0.007421 -0.037686 0.890000
0.003585 -0.002164 0.894000
0.008090 -0.031209 0.904000
-0.000446 0.036585 0.862000
-0.010200 -0.024141 0.877000
0.021343 -0.021762 0.898000
0.011414 -0.027799 0.902000
-0.004725 0.010379 0.866000
0.008835 -0.032325 0.904000
-0.006515 0.001113 0.867000
0.011785 -0.013320 0.902000
0.000623 0.022576 0.869000
0.019865 -0.033959 0.898000
0.012727 0.022755 0.890000
0.008795 -0.006623 0.900000
-0.005451 -0.003172 0.868000
-0.006840 0.012830 0.863000
0.006237 -0.040556 0.905000
-0.010748 0.012830 0.863000
0.009918 -0.007001 0.901000
-0.013556 -0.041070 0.884000
0.017316 0.008935 0.900000
-0.007525 0.020218 0.860000
0.030850 0.035039 0.895000
0.012742 0.020947 0.891000
0.025011 0.026626 0.897000
-0.017873 -0.013470 0.864000
-0.022878 0.024252 0.865000
0.027934 0.033234 0.896000
0.026827 0.016270 0.896000
0.024642 -0.023953 0.897000
0.019495 0.024808 0.898000
0.015093 0.008935 0.900000
0.022082 -0.017696 0.898000
0.005625 0.047557 0.868000
-0.016845 -0.022056 0.866000
0.001704 0.019805 0.873000
0.014739 -0.019981 0.901000
-0.021454 0.022828 0.865000
0.024273 -0.002909 0.897000
0.002492 -0.021762 0.898000
-0.019295 0.023513 0.864000
-0.009660 0.015989 0.861000
0.003834 0.047146 0.867000
0.005108 -0.025971 0.903000
-0.002578 0.038759 0.863000
0.030481 0.033934 0.895000
-0.004349 0.037295 0.862000
0.021343 -0.014740 0.898000
0.006959 -0.015177 0.902000
-0.007943 -0.001741 0.867000
-0.010002 0.018094 0.860000
-0.003277 0.028713 0.860000
-0.005969 -0.035935 0.892000
0.011524 0.025092 0.882000
0.007454 0.031662 0.873000
-0.001577 -0.036627 0.900000
0.006966 -0.023370 0.903000
-0.018961 0.032084 0.865000
0.006120 -0.004707 0.888000
-0.009294 0.023404 0.860000
-0.020386 0.026744 0.865000
0.009940 -0.040838 0.903000
0.013764 0.032499 0.886000
-0.001867 0.041245 0.863000
-0.003791 -0.040612 0.898000
0.006580 -0.014789 0.901000
-0.021098 -0.015266 0.865000
0.024670 0.030721 0.898000
0.020997 -0.003286 0.899000
0.014395 0.044955 0.880000
-0.002593 0.006831 0.868000
-0.012436 -0.038436 0.882000
-0.003703 0.052021 0.877000
0.011055 -0.030431 0.903000
-0.013265 -0.007434 0.865000
-0.018271 -0.004947 0.866000
0.023561 0.005219 0.898000
0.019887 -0.004766 0.899000
-0.021810 -0.032355 0.865000
-0.011525 -0.011389 0.868000
0.035519 0.022072 0.892000
-0.005070 0.015334 0.864000
-0.008586 0.026236 0.860000
0.025750 0.008166 0.897000
0.025721 -0.010282 0.896000
-0.001510 0.037650 0.862000
-0.013204 0.016344 0.861000
-0.009467 -0.029882 0.876000
0.007094 0.032381 0.873000
0.016926 0.014845 0.899000
0.013641 -0.014805 0.902000
-0.015615 -0.038579 0.877000
-0.016942 -0.031862 0.871000
-0.021810 0.025676 0.865000
-0.020742 0.028168 0.865000
0.015834 -0.038850 0.900000
-0.019651 0.023868 0.864000
0.000649 -0.037534 0.904000
-0.014672 -0.007425 0.864000
-0.004916 -0.047052 0.901000
-0.002950 0.012904 0.868000
-0.022522 0.025320 0.865000
-0.011827 0.006444 0.864000
-0.005264 -0.043151 0.897000
0.017647 0.021481 0.898000
0.021295 0.035447 0.896000
-0.007229 -0.001028 0.867000
-0.017658 -0.043132 0.889000
-0.016113 -0.003517 0.865000
0.000273 -0.017578 0.892000
0.015834 -0.039961 0.900000
-0.021098 -0.014198 0.865000
0.028639 -0.008797 0.895000
-0.009284 0.019488 0.859000
-0.006455 0.030448 0.859000
-0.014333 -0.010638 0.865000
-0.007462 -0.044896 0.895000
0.016204 -0.021440 0.900000
0.013384 0.033919 0.885000
0.016186 0.012995 0.899000
0.024642 0.031425 0.897000
0.019820 0.033234 0.896000
-0.000801 0.033392 0.862000
0.008081 -0.021512 0.903000
-0.013961 0.002532 0.864000
-0.004424 -0.015478 0.877000
-0.008636 0.005739 0.865000
0.000264 0.033786 0.863000
0.001339 0.024364 0.869000
0.034824 0.029080 0.893000
-0.004480 -0.032850 0.888000
0.025750 0.005213 0.897000
0.023904 -0.011031 0.897000
-0.017181 -0.017046 0.865000
-0.015463 -0.045327 0.889000
0.016870 0.024015 0.896000
-0.002593 0.015047 0.868000
0.031183 0.003724 0.894000
0.026090 -0.008438 0.896000
0.008512 0.042703 0.871000
0.014368 -0.014418 0.901000
-0.007752 -0.034234 0.886000
0.022821 0.012611 0.898000
0.011432 0.043980 0.875000
-0.009839 -0.021975 0.877000
0.002490 -0.019892 0.897000
-0.004344 0.023785 0.861000
0.018057 0.003008 0.900000
0.014304 0.015919 0.897000
0.013255 0.001899 0.901000
-0.008290 0.001468 0.866000
0.003962 -0.012863 0.896000
0.015851 -0.004776 0.901000
0.003989 -0.024829 0.902000
-0.006016 -0.046577 0.899000
0.004195 0.031481 0.868000
0.020973 -0.008087 0.898000
-0.007229 -0.006023 0.867000
0.026827 0.025490 0.896000
-0.005099 -0.005322 0.869000
-0.012894 0.012845 0.864000
-0.008290 0.002538 0.866000
0.002506 -0.030431 0.903000
-0.012770 -0.035451 0.880000
-0.008300 -0.003882 0.867000
0.001380 -0.021345 0.896000
0.008921 0.036098 0.876000
0.011798 -0.015565 0.903000
-0.014333 0.003959 0.865000
0.020581 0.029949 0.897000
0.009013 0.009514 0.885000
0.019887 0.006705 0.899000
-0.019295 -0.019160 0.864000
0.020627 -0.008096 0.899000
0.009786 0.015412 0.889000
0.036254 0.026477 0.892000
0.015093 0.007453 0.900000
0.003829 0.037824 0.866000
-0.015115 -0.023563 0.869000
-0.012654 -0.021491 0.872000
0.007346 -0.024512 0.904000
-0.011244 -0.030533 0.874000
0.018797 0.001897 0.900000
-0.005082 0.011805 0.866000
-0.012267 -0.016787 0.870000
0.002066 0.016231 0.874000
0.025352 -0.017288 0.896000
-0.007516 0.026912 0.859000
-0.008626 0.008577 0.864000
-0.022191 0.029626 0.866000
-0.009738 -0.011032 0.868000
0.005383 -0.003972 0.887000
-0.010095 -0.011032 0.868000
0.030481 0.011095 0.895000
0.034824 0.032755 0.893000
-0.013763 0.010115 0.874000
-0.007354 -0.025730 0.882000
-0.001197 -0.023846 0.893000
-0.010200 -0.024863 0.877000
0.000275 -0.029557 0.899000
0.000266 0.014383 0.871000
-0.011786 0.014926 0.861000
0.013167 0.016252 0.895000
0.013997 -0.001439 0.901000
-0.012310 -0.027264 0.873000
0.023561 0.017046 0.898000
0.003918 -0.005791 0.886000
-0.003281 0.036543 0.861000
0.020997 0.021505 0.899000
0.026459 -0.005487 0.896000
-0.020838 -0.036797 0.869000
-0.017976 -0.032147 0.869000
0.016945 -0.012180 0.900000
0.010683 -0.036006 0.903000
-0.006279 -0.023970 0.884000
-0.007221 0.003963 0.866000
-0.020456 -0.035325 0.868000
0.003918 -0.007979 0.886000
-0.007879 0.030837 0.860000
0.006835 0.002232 0.886000
-0.011964 -0.023339 0.874000
0.005625 0.047200 0.868000
0.023191 0.008545 0.898000
-0.017142 0.024196 0.863000
0.002512 -0.038693 0.905000
0.011654 0.016565 0.892000
0.022821 0.027395 0.898000
-0.020169 -0.038315 0.871000
0.003235 -0.021046 0.899000
0.009271 0.028854 0.875000
0.026090 -0.007700 0.896000
0.024642 -0.012508 0.897000
-0.000092 0.028524 0.865000
0.002417 0.049873 0.871000
-0.010910 -0.023753 0.876000
-0.004364 0.014283 0.865000
0.038780 0.031215 0.891000
-0.023590 -0.026303 0.865000
-0.017873 -0.015248 0.864000
-0.005788 0.011791 0.865000
0.025011 0.006690 0.897000
-0.016299 -0.037771 0.875000
0.016575 -0.014032 0.900000
-0.002930 0.038359 0.862000
0.006361 0.026930 0.871000
0.026488 0.031056 0.897000
-0.002587 0.019290 0.866000
0.034089 0.016951 0.893000
-0.008646 -0.000314 0.866000
-0.008576 0.024437 0.859000
-0.013993 -0.013858 0.866000
-0.016113 -0.015622 0.865000
-0.001184 -0.015584 0.883000
0.005618 0.045362 0.867000
-0.008227 -0.047634 0.898000
0.024300 0.019264 0.898000
-0.007595 -0.009246 0.868000
-0.002661 -0.023793 0.891000
-0.009839 -0.025224 0.877000
-0.001573 -0.033589 0.898000
0.015110 -0.042602 0.901000
0.017296 0.015955 0.899000
-0.003703 -0.014395 0.877000
0.030147 0.035816 0.896000
-0.010710 0.025528 0.860000
-0.022904 0.026062 0.866000
0.025011 0.032533 0.897000
0.033023 0.029113 0.894000
-0.009055 -0.014296 0.871000
0.002398 0.039159 0.864000
-0.008232 0.030129 0.860000
0.000266 0.006854 0.871000
0.009568 -0.031175 0.903000
0.020257 0.004855 0.899000
-0.009242 -0.040936 0.889000
-0.001521 0.010403 0.868000
-0.016095 0.031336 0.864000
0.000985 0.008298 0.872000
-0.007171 0.018448 0.860000
0.018797 0.000415 0.900000
-0.010293 -0.036746 0.885000
0.025011 -0.008078 0.897000
0.038780 0.029382 0.891000
0.021343 0.027764 0.898000
0.032287 0.015498 0.894000
0.028271 0.002254 0.895000
0.006354 0.039073 0.870000
-0.011564 -0.016089 0.871000
-0.005445 -0.001028 0.867000
-0.013449 -0.034248 0.877000
-0.009316 0.013170 0.862000
0.014097 0.036791 0.884000
0.036988 0.029047 0.892000
0.020973 -0.030263 0.898000
0.008707 0.002978 0.891000
0.020973 -0.013261 0.898000
0.003975 -0.000326 0.899000
0.009830 0.008498 0.893000
-0.010735 0.034102 0.862000
-0.002230 0.018934 0.866000
-0.008071 -0.023888 0.881000
0.029376 -0.007323 0.895000
0.031551 0.012555 0.894000
0.027934 0.003732 0.896000
-0.022191 0.030339 0.866000
0.027934 0.035816 0.896000
-0.009660 0.029455 0.861000
0.017104 0.036999 0.889000
0.002887 -0.040601 0.906000
0.023561 0.009654 0.898000
0.015898 0.044745 0.883000
0.016483 0.025461 0.895000
0.019147 -0.005876 0.899000
0.010749 0.049189 0.878000
0.022821 0.008915 0.898000
0.024273 0.007059 0.897000
0.031551 0.029480 0.894000
-0.020386 -0.028083 0.865000
0.019147 -0.008466 0.899000
-0.010368 0.033353 0.861000
0.015481 -0.021464 0.901000
0.003489 0.024750 0.870000
0.011427 -0.016680 0.903000
-0.010885 -0.020461 0.874000
0.015481 0.003011 0.901000
0.019517 0.016695 0.899000
-0.007525 0.018448 0.860000
0.001687 0.042715 0.864000
0.021664 0.036553 0.896000
0.011275 0.016180 0.891000
-0.018228 -0.018804 0.864000
0.019538 0.013009 0.900000
0.009547 -0.005889 0.901000
0.010712 0.042899 0.875000
0.015110 -0.016272 0.901000
0.026119 0.010382 0.897000
-0.014774 -0.024664 0.870000
0.031919 0.014394 0.894000
-0.022166 -0.018826 0.865000
-0.003281 0.026266 0.861000
-0.000094 -0.017192 0.891000
0.022082 -0.002912 0.898000
0.002054 0.024722 0.869000
0.028303 0.035816 0.896000
0.002130 -0.027768 0.901000
-0.007952 -0.008888 0.868000
-0.019719 -0.032430 0.867000
0.031551 0.015130 0.894000
0.020604 -0.018805 0.898000
0.020604 0.025916 0.898000
-0.001154 0.031936 0.861000
0.003481 0.029695 0.868000
-0.004698 0.022014 0.861000
0.012870 0.001897 0.900000
-0.011142 -0.005304 0.866000
-0.015903 -0.033373 0.873000
-0.004017 0.004325 0.867000
-0.007262 -0.012863 0.871000
0.027534 -0.014690 0.895000
-0.017873 0.026713 0.864000
-0.017517 0.028491 0.864000
0.011860 0.030468 0.880000
-0.010710 0.018448 0.860000
-0.005801 0.003254 0.867000
0.012899 -0.004410 0.902000
-0.001164 0.020049 0.868000
-0.018627 -0.005660 0.866000
-0.007171 0.021988 0.860000
-0.013028 -0.026546 0.873000
-0.009117 -0.028111 0.877000
0.024983 -0.022820 0.896000
0.012156 -0.040050 0.902000
0.022821 0.004480 0.898000
-0.009348 0.002535 0.865000
0.021343 -0.028045 0.898000
-0.020006 -0.023072 0.864000
0.025011 0.001890 0.897000
-0.019651 -0.018449 0.864000
0.031551 0.013290 0.894000
0.000270 -0.011210 0.882000
-0.014993 0.023458 0.862000
-0.011485 -0.005654 0.865000
0.022452 0.008915 0.898000
0.025721 -0.022082 0.896000
-0.011009 -0.037796 0.884000
-0.008300 -0.007094 0.867000
0.012528 -0.019260 0.902000
-0.010019 -0.046266 0.893000
0.011055 -0.022255 0.903000
0.012486 0.005225 0.899000
0.019887 -0.008836 0.899000
0.029376 0.031355 0.895000
0.011414 -0.035224 0.902000
0.002852 -0.015059 0.895000
-0.006463 0.022696 0.860000
-0.013219 0.015653 0.862000
0.011485 0.038392 0.879000
0.027934 0.008895 0.896000
0.030113 0.033565 0.895000
0.006943 -0.012180 0.900000
-0.003437 -0.045248 0.902000
-0.013977 -0.008502 0.865000
0.015110 -0.014789 0.901000
-0.018162 -0.002848 0.878000
0.015851 -0.002922 0.901000
-0.004409 -0.011108 0.874000
-0.024658 -0.031643 0.865000
-0.000807 0.011488 0.869000
0.006339 0.042199 0.868000
0.008649 0.008786 0.885000
0.009409 0.009912 0.888000
0.011427 -0.017795 0.903000
-0.004017 0.040366 0.867000
0.014368 -0.023318 0.901000
0.023191 0.011872 0.898000
-0.002950 0.005759 0.868000
0.013626 -0.039264 0.901000
-0.015317 -0.047475 0.902000
0.018427 -0.004030 0.900000
0.008090 -0.027489 0.904000
0.002503 -0.027799 0.902000
-0.009138 -0.023472 0.879000
-0.026469 -0.031679 0.866000
-0.015115 -0.023205 0.869000
0.038047 0.023147 0.891000
0.016945 0.013009 0.900000
-0.018249 -0.009926 0.865000
-0.001580 -0.039679 0.902000
-0.012295 -0.021491 0.872000
0.004610 0.018132 0.879000
0.034824 0.022832 0.893000
-0.014978 0.019283 0.882000
-0.005188 -0.019604 0.884000
0.030953 -0.005869 0.898000
0.015446 0.014845 0.899000
0.025011 0.021457 0.897000
0.025011 0.033271 0.897000
0.016262 0.045835 0.883000
0.008191 0.035696 0.875000
-0.010417 0.002179 0.865000
0.009196 -0.032661 0.903000
-0.025043 -0.033462 0.866000
0.012584 0.039885 0.880000
0.018036 -0.033257 0.899000
0.008434 -0.010339 0.901000
-0.008636 0.002891 0.865000
-0.000091 0.028847 0.864000
0.030447 0.007403 0.894000
0.007070 0.039789 0.870000
-0.001514 0.024935 0.864000
0.015110 -0.017756 0.901000
0.002868 -0.024033 0.900000
0.001751 -0.022476 0.897000
-0.018524 -0.040791 0.878000
0.000985 0.018706 0.872000
0.012913 -0.032290 0.903000
0.035192 0.021362 0.893000
-0.003985 0.027297 0.860000
-0.002320 -0.040006 0.901000
0.023561 0.027395 0.898000
-0.004742 -0.003891 0.869000
-0.008529 -0.042495 0.891000
-0.007888 0.016344 0.861000
-0.011710 -0.036621 0.882000
-0.010549 -0.021950 0.876000
0.028271 0.002623 0.895000
-0.020409 -0.031679 0.866000
0.008835 -0.023396 0.904000
0.027934 0.030284 0.896000
-0.025968 -0.042090 0.898000
0.001767 -0.040183 0.905000
-0.020678 -0.044796 0.893000
0.020927 0.034709 0.896000
0.019168 0.013750 0.900000
-0.001523 0.006839 0.869000
-0.003032 -0.031896 0.892000
0.013626 -0.038893 0.901000
-0.012814 -0.040297 0.883000
0.018797 0.003008 0.900000
0.005735 0.003686 0.885000
-0.004101 -0.028732 0.885000
-0.012310 -0.029420 0.873000
0.001687 0.035959 0.864000
-0.017292 -0.043132 0.889000
-0.006809 0.024084 0.859000
-0.026737 -0.042877 0.899000
-0.006102 0.030801 0.859000
0.016945 -0.041073 0.900000
0.017316 -0.038480 0.900000
0.003116 0.046735 0.866000
0.009643 0.038261 0.876000
-0.022652 -0.038629 0.870000
-0.004698 0.036897 0.861000
0.012528 -0.021859 0.902000
-0.005495 -0.015443 0.875000
0.033023 0.018442 0.894000
0.011018 -0.000326 0.900000
0.011772 -0.001810 0.901000
-0.018249 -0.008502 0.865000
0.006195 -0.012536 0.899000
0.008331 0.001875 0.890000
0.017568 0.029848 0.894000
0.007044 -0.042793 0.913000
-0.006872 0.001827 0.867000
0.000621 0.046379 0.866000
0.032619 0.004087 0.893000
0.010352 0.041459 0.875000
-0.018700 -0.046464 0.904000
0.016593 0.004865 0.901000
-0.002266 -0.014806 0.880000
0.016964 0.000045 0.901000
0.000266 0.019737 0.870000
-0.009086 -0.016864 0.874000
0.035192 0.022832 0.893000
0.020257 0.017435 0.899000
0.010700 0.045368 0.874000
0.014592 0.025009 0.892000
0.033354 0.015113 0.893000
-0.007337 -0.027483 0.880000
-0.008071 -0.024614 0.881000
-0.023946 -0.024523 0.865000
0.006789 0.010909 0.880000
0.033023 0.026905 0.894000
0.038780 0.030115 0.891000
0.010232 0.005945 0.896000
-0.017517 0.028847 0.864000
-0.011116 0.004310 0.864000
-0.019898 -0.043962 0.891000
-0.018940 0.027424 0.864000
0.036254 0.033086 0.892000
0.006065 0.020688 0.880000
0.013641 -0.021488 0.902000
0.010003 0.029969 0.876000
-0.023261 -0.033818 0.866000
0.016593 0.004495 0.901000
0.011846 0.039477 0.879000
-0.010706 -0.043498 0.889000
0.023930 0.015568 0.898000
0.012180 0.044441 0.877000
0.029376 -0.001061 0.895000
0.007710 -0.019282 0.903000
0.007548 0.016053 0.884000
-0.014842 -0.032332 0.874000
0.001017 -0.030364 0.901000
0.005838 -0.016272 0.901000
0.004186 0.039606 0.866000
0.014368 -0.034072 0.901000
0.013255 -0.001439 0.901000
0.029376 -0.002903 0.895000
-0.001573 -0.033220 0.898000
0.008541 0.030979 0.874000
0.010683 -0.014822 0.903000
0.005370 -0.001413 0.885000
0.030815 0.013290 0.894000
-0.000093 -0.013767 0.883000
-0.012183 0.007866 0.864000
-0.009828 -0.019787 0.876000
0.004904 0.046432 0.867000
-0.014283 0.026651 0.862000
0.022796 0.035486 0.897000
0.019147 -0.006246 0.899000
0.031183 0.011083 0.894000
-0.002661 -0.027093 0.891000
-0.013265 -0.010638 0.865000
0.016299 0.044482 0.885000
-0.013388 -0.031217 0.873000
0.009621 0.047527 0.874000
0.000271 0.053710 0.887000
0.027196 0.004101 0.896000
-0.013558 0.018824 0.861000
-0.002602 -0.000315 0.871000
0.006974 -0.024512 0.904000
0.019887 0.005225 0.899000
0.010311 -0.027086 0.903000
0.025352 -0.008806 0.896000
-0.009521 -0.033316 0.881000
-0.001158 0.043427 0.864000
0.008256 0.022914 0.882000
-0.010417 -0.002449 0.865000
0.008532 0.028788 0.873000
0.010659 -0.006260 0.901000
-0.016786 0.027748 0.863000
0.033354 0.009600 0.893000
-0.018249 0.033508 0.865000
0.035519 0.023908 0.892000
-0.008626 0.008933 0.864000
0.007582 0.001140 0.888000
-0.006123 0.037295 0.862000
0.018797 -0.006623 0.900000
0.017686 -0.022922 0.900000
0.019147 -0.013276 0.899000
-0.000801 0.035521 0.862000
-0.006158 -0.000314 0.867000
0.023561 0.022220 0.898000
-0.013403 -0.031972 0.874000
0.023191 -0.007348 0.898000
0.008532 0.029147 0.873000
-0.010477 -0.013922 0.870000
-0.000095 -0.032553 0.900000
0.006602 -0.040139 0.904000
0.005858 -0.027861 0.904000
0.020234 -0.037285 0.898000
0.006959 -0.017775 0.902000
0.019517 -0.038067 0.899000
0.022452 0.008545 0.898000
0.003509 0.014449 0.875000
0.001342 0.049514 0.871000
0.023930 0.023329 0.898000
0.018797 0.014491 0.900000
-0.015323 -0.040568 0.881000
0.024273 0.018504 0.897000
0.026119 0.029949 0.897000
-0.020288 -0.044379 0.892000
-0.010885 -0.027296 0.874000
0.011785 -0.008123 0.902000
0.002130 -0.027397 0.901000
0.001393 -0.036046 0.904000
0.002789 0.016249 0.875000
0.029745 0.014779 0.895000
-0.006508 0.007171 0.866000
-0.020742 0.026744 0.865000
-0.001874 0.020003 0.866000
-0.015915 0.036952 0.915000
-0.013574 0.030199 0.862000
0.002757 0.044901 0.865000
0.027196 0.006682 0.896000
0.013982 0.005601 0.900000
0.008055 -0.008846 0.900000
-0.018605 0.033152 0.865000
-0.016888 0.001869 0.887000
0.016945 -0.010698 0.900000
0.029008 -0.006955 0.895000
0.019147 -0.007726 0.899000
-0.006718 -0.041167 0.894000
0.008072 -0.015177 0.902000
-0.026499 -0.026726 0.891000
0.027565 0.012583 0.896000
-0.013668 -0.017820 0.868000
-0.008290 0.001825 0.866000
0.035886 0.014362 0.892000
0.005068 0.003363 0.896000
-0.014565 -0.038667 0.879000
-0.011827 0.008933 0.864000
0.013270 -0.021859 0.902000
0.014412 0.047545 0.881000
0.008815 -0.011835 0.902000
0.008072 -0.013692 0.902000
-0.019115 -0.038359 0.872000
-0.006470 0.017407 0.861000
0.003250 -0.028573 0.903000
-0.013977 0.007519 0.865000
-0.010465 -0.012475 0.869000
-0.008596 -0.048004 0.898000
-0.012183 0.011778 0.864000
0.022082 0.028504 0.898000
0.022082 -0.013631 0.898000
0.027196 0.032128 0.896000
-0.014350 -0.014571 0.866000
0.014641 0.019936 0.895000
0.025011 0.005582 0.897000
0.032619 0.007762 0.893000
-0.013234 0.033431 0.863000
0.035519 0.020603 0.892000
0.015851 0.001157 0.901000
0.011602 0.022338 0.888000
0.016832 0.028009 0.894000
0.013255 -0.002181 0.901000
-0.026143 -0.034214 0.867000
0.011018 0.000044 0.900000
-0.021098 0.028880 0.865000
-0.018627 -0.027046 0.866000
0.006071 0.017811 0.881000
0.007078 0.039477 0.871000
0.010577 0.008875 0.894000
0.029745 -0.004376 0.895000
-0.023974 -0.034174 0.866000
-0.009489 -0.024891 0.878000
0.022082 -0.028415 0.898000
0.025750 0.022934 0.897000
-0.006102 0.025851 0.859000
0.019061 0.033565 0.895000
0.019517 0.016325 0.899000
0.008144 0.046235 0.870000
0.022452 0.018524 0.898000
0.020257 -0.018826 0.899000
0.014739 -0.002922 0.901000
-0.015080 -0.019940 0.867000
-0.011841 -0.004229 0.865000
0.031551 0.024697 0.894000
0.032287 0.005563 0.894000
0.001020 -0.034148 0.903000
-0.007924 0.006451 0.865000
0.010749 0.027146 0.878000
0.026090 -0.002537 0.896000
-0.016767 0.020975 0.862000
0.023191 0.006697 0.898000
-0.020030 0.026388 0.865000
-0.017517 0.028136 0.864000
-0.003635 0.024849 0.861000
-0.013605 -0.002447 0.864000
-0.018249 -0.009214 0.865000
-0.016806 -0.010626 0.864000
0.016593 0.003382 0.901000
-0.010177 -0.019764 0.875000
0.009643 0.027084 0.876000
0.001336 0.047503 0.867000
0.026235 0.022295 0.901000
-0.007516 0.023377 0.859000
0.030850 0.026567 0.895000
-0.022878 0.024964 0.865000
-0.007879 0.032253 0.860000
-0.005053 0.036188 0.861000
0.022452 0.001523 0.898000
0.021343 -0.032850 0.898000
-0.015028 -0.010626 0.864000
-0.007525 0.017387 0.860000
-0.025014 -0.029507 0.865000
-0.010860 -0.016825 0.872000
0.018036 0.017065 0.899000
-0.002590 0.007536 0.867000
0.008825 -0.038980 0.903000
0.022821 0.001523 0.898000
-0.001565 -0.025316 0.893000
-0.005935 -0.033543 0.887000
-0.012669 -0.028702 0.873000
0.002111 -0.015025 0.893000
0.005425 -0.009155 0.894000
-0.012849 0.015635 0.861000
0.024273 0.003367 0.897000
0.015110 0.004124 0.901000
0.020973 -0.039503 0.898000
-0.011096 -0.046163 0.891000
-0.023590 -0.022030 0.865000
0.033721 0.013643 0.893000
0.008294 0.005514 0.886000
0.030113 0.032829 0.895000
0.017316 -0.036257 0.900000
0.025381 0.016289 0.897000
-0.017497 0.025261 0.863000
0.002843 -0.013907 0.892000
-0.021479 0.032121 0.866000
-0.108268 0.126806 3.798000
0.031919 0.023961 0.894000
0.013079 0.025657 0.889000
-0.014219 -0.039073 0.880000
0.022082 -0.001804 0.898000
-0.026469 -0.030610 0.866000
0.020973 0.027764 0.898000
0.003109 0.042004 0.864000
0.005006 -0.000685 0.885000
0.001018 -0.032996 0.902000
-0.011697 -0.034766 0.881000
0.002789 0.018050 0.875000
-0.012894 -0.004580 0.864000
0.014543 0.030047 0.889000
-0.019651 -0.020938 0.864000
0.002404 0.032478 0.866000
-0.025726 -0.028083 0.865000
0.017686 -0.004030 0.900000
0.019887 0.015215 0.899000
0.008835 -0.034558 0.904000
-0.023329 -0.043103 0.896000
-0.023724 -0.042412 0.897000
-0.011432 0.024849 0.861000
0.026459 -0.009913 0.896000
-0.007586 -0.003526 0.867000
-0.002223 0.039469 0.863000
0.005102 -0.020003 0.902000
0.016280 0.044796 0.884000
0.018407 -0.042507 0.899000
0.005006 0.000044 0.885000
-0.004068 0.052442 0.878000
-0.005801 0.003968 0.867000
0.020581 0.032902 0.897000
0.000264 0.036983 0.863000
-0.017537 -0.021674 0.865000
0.013566 0.013335 0.897000
0.014942 0.027181 0.891000
0.002503 -0.028170 0.902000
-0.012169 -0.045327 0.889000
-0.003669 -0.001388 0.869000
0.011224 0.022678 0.887000
0.025011 0.002259 0.897000
-0.004704 0.038004 0.862000
0.012856 0.005595 0.899000
-0.000095 -0.030297 0.899000
0.011511 0.031953 0.881000
0.016204 0.009305 0.900000
0.024615 -0.025033 0.896000
-0.003277 0.030129 0.860000
-0.016113 0.000399 0.865000
-0.018961 -0.009926 0.865000
0.018777 -0.036587 0.899000
0.016556 0.015585 0.899000
-0.024744 -0.023893 0.868000
-0.008252 0.014234 0.862000
0.007947 0.001871 0.888000
0.023534 -0.028383 0.897000
0.026459 -0.017288 0.896000
-0.006455 0.026205 0.859000
0.026119 0.022934 0.897000
0.025011 0.019611 0.897000
-0.012894 0.011422 0.864000
0.004899 0.043884 0.866000
-0.026367 -0.043247 0.899000
-0.011841 -0.002449 0.865000
0.004553 0.036840 0.868000
-0.006872 -0.004239 0.867000
0.003597 -0.016200 0.897000
0.022452 0.019264 0.898000
0.012528 -0.006267 0.902000
-0.009294 0.019156 0.860000
0.021713 -0.022501 0.898000
-0.013977 0.003247 0.865000
0.017316 -0.010327 0.900000
0.008294 0.014266 0.886000
-0.016095 0.032047 0.864000
-0.016113 -0.003873 0.865000
0.011798 -0.017423 0.903000
-0.002590 0.009321 0.867000
0.010328 0.045316 0.873000
0.010140 0.018684 0.888000
0.001377 -0.017250 0.894000
0.022082 -0.026567 0.898000
-0.010188 -0.031324 0.876000
-0.013794 -0.033487 0.876000
0.027934 0.034709 0.896000
-0.010847 -0.015730 0.871000
0.008815 -0.014805 0.902000
-0.005902 -0.027909 0.882000
0.034824 0.026875 0.893000
0.006602 -0.037906 0.904000
0.036254 0.027946 0.892000
0.009196 -0.015193 0.903000
-0.012310 -0.021875 0.873000
-0.015848 -0.027171 0.870000
0.022082 0.016676 0.898000
-0.010405 0.005732 0.864000
-0.003288 0.039114 0.863000
0.020212 0.030687 0.897000
-0.012422 -0.036579 0.881000
0.031218 -0.003639 0.895000
0.000265 0.044901 0.865000
-0.016825 -0.020250 0.865000
-0.003376 0.054378 0.886000
0.013309 0.041333 0.880000
-0.004693 0.025174 0.860000
0.009166 -0.004401 0.900000
-0.003660 0.006109 0.867000
-0.008309 -0.049231 0.907000
-0.013043 -0.031253 0.874000
0.010174 0.014346 0.891000
-0.018584 -0.015604 0.864000
0.003878 0.018813 0.877000
-0.008866 -0.038697 0.888000
0.032655 0.014394 0.894000
-0.007171 0.018094 0.860000
0.024642 0.017765 0.897000
-0.019295 -0.014893 0.864000
0.016575 -0.041073 0.900000
0.021367 0.021505 0.899000
0.022452 -0.035437 0.898000
-0.004349 0.037650 0.862000
0.020234 -0.032480 0.898000
0.022796 -0.026537 0.897000
0.024642 -0.002540 0.897000
0.002042 0.035248 0.864000
0.003113 0.044901 0.865000
-0.012894 0.001821 0.864000
0.017316 -0.005512 0.900000
0.009196 -0.036378 0.903000
-0.005152 -0.016580 0.878000
0.011214 -0.044442 0.916000
0.016222 -0.002181 0.901000
0.007693 -0.012564 0.901000
-0.004731 0.006466 0.867000
0.028303 0.024752 0.896000
-0.015045 -0.000669 0.865000
0.002754 0.039871 0.864000
0.012870 0.003378 0.900000
0.015535 0.043291 0.883000
0.006230 -0.025628 0.904000
-0.008656 -0.006737 0.867000
0.010683 -0.042324 0.903000
0.011746 0.003004 0.899000
0.035152 0.015096 0.892000
0.017316 -0.000696 0.900000
-0.007162 0.024791 0.859000
0.027934 0.011108 0.896000
0.020257 -0.000696 0.899000
-0.005401 0.022696 0.860000
-0.002569 0.030837 0.860000
-0.023207 -0.028406 0.864000
0.009940 -0.025228 0.903000
0.006361 0.037326 0.871000
0.017588 0.028040 0.895000
-0.018228 -0.014537 0.864000
0.000266 0.013650 0.870000
0.014976 0.024302 0.893000
-0.010356 0.023404 0.860000
-0.011458 0.012830 0.863000
-0.014655 0.032721 0.863000
-0.023288 -0.035998 0.867000
0.015110 0.003753 0.901000
-0.013296 -0.015301 0.867000
0.036988 0.026845 0.892000
-0.002235 0.012547 0.868000
0.025011 0.001521 0.897000
-0.013163 -0.039525 0.882000
-0.007879 0.032607 0.860000
0.027934 0.001519 0.896000
-0.016488 0.020716 0.866000
-0.001166 0.005772 0.870000
0.011900 0.025120 0.883000
0.008541 0.048965 0.874000
0.004747 -0.033479 0.905000
0.013270 -0.009237 0.902000
0.021343 -0.029893 0.898000
0.009196 -0.022998 0.903000
-0.007924 0.004671 0.865000
0.018797 0.008194 0.900000
0.017316 -0.009216 0.900000
0.027934 0.031759 0.896000
0.010003 0.029247 0.876000
0.000621 0.028201 0.866000
0.003625 -0.033814 0.904000
0.025381 0.009274 0.897000
0.005702 0.018515 0.880000
-0.014672 -0.009559 0.864000
-0.004824 -0.019604 0.884000
0.002456 -0.010155 0.885000
0.019495 0.025177 0.898000
0.008462 -0.028977 0.904000
-0.010760 0.009644 0.864000
0.019168 0.006712 0.900000
0.005486 -0.030093 0.904000
0.025011 0.002998 0.897000
-0.007700 -0.026397 0.880000
0.017316 -0.041443 0.900000
-0.021098 -0.030931 0.865000
-0.009294 0.029421 0.860000
0.011173 0.024393 0.883000
-0.006635 -0.022489 0.883000
-0.012969 -0.017840 0.869000
-0.011064 0.020926 0.860000
0.010671 -0.011464 0.902000
0.023561 -0.031741 0.898000
0.026827 -0.008806 0.896000
0.002881 -0.033814 0.904000
-0.022851 -0.026628 0.864000
-0.005426 0.012845 0.864000
0.037722 0.020971 0.892000
0.036621 0.022439 0.892000
-0.003989 0.036543 0.861000
-0.013999 -0.045327 0.889000
-0.021479 0.031052 0.866000
-0.008223 0.024791 0.859000
0.004268 0.052014 0.883000
0.031551 0.014026 0.894000
0.030113 0.002254 0.895000
-0.015702 0.020620 0.862000
0.016556 0.014105 0.899000
-0.002315 -0.036587 0.899000
0.035599 0.011819 0.894000
-0.017852 0.025261 0.863000
-0.000450 0.010773 0.869000
0.008434 -0.009968 0.901000
0.005838 -0.017385 0.901000
-0.009850 -0.032480 0.878000
-0.010710 0.019864 0.860000
0.022427 0.035117 0.897000
0.016908 0.020742 0.898000
0.013997 -0.033331 0.901000
-0.001870 0.023868 0.864000
-0.003018 -0.027733 0.888000
0.009156 -0.002546 0.899000
0.006500 -0.004352 0.890000
-0.011964 -0.031253 0.874000
-0.003361 -0.017018 0.882000
-0.005815 -0.006753 0.869000
-0.018940 0.024224 0.864000
0.002398 0.043427 0.864000
0.022821 0.013720 0.898000
-0.017935 -0.028861 0.867000
0.002057 0.024392 0.870000
0.015763 0.021433 0.896000
0.012570 0.041648 0.879000
0.013641 -0.022601 0.902000
0.010920 0.013995 0.892000
-0.004339 0.032961 0.860000
-0.019674 -0.010638 0.865000
-0.001509 0.032645 0.861000
-0.001519 0.019312 0.867000
0.012500 0.004490 0.900000
-0.003635 0.035480 0.861000
0.007167 0.009845 0.882000
-0.004725 0.008954 0.866000
-0.015045 0.002891 0.865000
-0.014808 -0.029028 0.872000
-0.022140 -0.023427 0.864000
0.036254 0.019135 0.892000
0.016204 -0.044036 0.900000
0.020257 0.015215 0.899000
0.022452 0.020372 0.898000
-0.010710 0.023404 0.860000
0.026459 -0.005856 0.896000
-0.017161 -0.016315 0.864000
-0.004709 0.018158 0.863000
0.029409 0.035816 0.896000
-0.000450 0.010415 0.869000
-0.010107 -0.012475 0.869000
-0.007906 0.012119 0.863000
-0.012553 -0.006010 0.865000
0.004916 0.035094 0.869000
0.029105 -0.011783 0.898000
-0.008062 -0.031467 0.880000
0.022107 0.020025 0.899000
0.008639 0.010231 0.884000
-0.006463 0.031899 0.860000
0.021713 -0.012522 0.898000
0.010994 0.003371 0.898000
0.003246 -0.025943 0.902000
-0.026499 -0.033500 0.867000
0.017706 -0.044456 0.901000
-0.000095 -0.035595 0.902000
-0.003062 -0.042972 0.901000
-0.008300 -0.003526 0.867000
0.018057 0.010787 0.900000
0.028271 -0.009902 0.895000
-0.017873 -0.009914 0.864000
-0.017300 -0.033296 0.871000
-0.006265 0.052318 0.882000
-0.013028 -0.030858 0.873000
-0.005969 -0.036669 0.892000
-0.000457 -0.014857 0.883000
0.014739 -0.021093 0.901000
-0.002933 0.039114 0.863000
0.029409 0.035447 0.896000
0.008425 -0.007364 0.900000
-0.012538 0.011066 0.864000
-0.012849 0.019533 0.861000
-0.001880 0.014707 0.869000
-0.024658 -0.031287 0.865000
0.001691 0.046735 0.866000
-0.005855 -0.015443 0.875000
-0.018605 -0.024167 0.865000
0.022427 0.033271 0.897000
-0.023974 0.024993 0.866000
0.011043 -0.006267 0.902000
0.007539 0.020032 0.883000
-0.004731 0.007536 0.867000
-0.007229 0.000043 0.867000
0.018407 -0.041767 0.899000
-0.013219 0.031618 0.862000
0.003918 -0.006520 0.886000
-0.006598 -0.017302 0.878000
-0.020053 -0.032392 0.866000
0.016464 0.027641 0.894000
-0.001523 0.006481 0.869000
0.003625 -0.030465 0.904000
0.034089 0.011805 0.893000
0.013826 0.026784 0.890000
0.024273 -0.020999 0.897000
0.007216 0.000044 0.888000
-0.009348 0.003247 0.865000
0.015309 0.028648 0.891000
0.008541 0.027022 0.874000
0.039147 0.030115 0.891000
-0.016095 -0.011692 0.864000
-0.004900 -0.043938 0.898000
0.023534 -0.020630 0.897000
-0.007933 0.001825 0.866000
-0.003303 0.015387 0.867000
0.003250 -0.028201 0.903000
0.025346 0.037832 0.909000
-0.007354 -0.023915 0.882000
0.007330 -0.017404 0.902000
0.016575 -0.019958 0.900000
-0.003025 -0.024865 0.890000
-0.002235 0.005402 0.868000
-0.004105 -0.027306 0.886000
-0.003745 -0.027337 0.887000
-0.016076 0.025617 0.863000
-0.009543 -0.034118 0.883000
0.032655 0.011083 0.894000
-0.012352 -0.033127 0.876000
-0.021503 -0.035641 0.867000
0.013123 0.020236 0.892000
-0.017955 -0.031038 0.868000
0.027934 -0.015444 0.896000
-0.007516 0.024437 0.859000
0.017316 -0.004030 0.900000
0.009632 0.028134 0.875000
0.003613 -0.023689 0.901000
0.002052 0.027551 0.868000
0.021343 -0.032111 0.898000
0.004244 0.050996 0.878000
0.026459 0.004838 0.896000
-0.017955 -0.029966 0.868000
0.008350 0.001513 0.892000
0.030113 0.025830 0.895000
0.013997 -0.002922 0.901000
0.001726 -0.010871 0.884000
-0.018228 0.025291 0.864000
0.027903 -0.011743 0.895000
0.009599 0.043829 0.872000
0.005474 -0.019260 0.902000
0.003473 0.046379 0.866000
0.006237 -0.040183 0.905000
0.015463 0.010046 0.900000
0.016945 -0.020329 0.900000
-0.001878 0.006831 0.868000
0.020257 0.022245 0.899000
0.023904 -0.014723 0.897000
0.017200 0.028745 0.894000
0.008028 -0.003648 0.897000
0.011806 0.044030 0.876000
-0.017659 -0.034730 0.871000
-0.018605 -0.006366 0.865000
0.010129 0.019758 0.887000
0.024300 0.020742 0.898000
0.006113 -0.001782 0.887000
0.000620 0.043782 0.864000
0.010311 -0.018538 0.903000
0.020973 -0.022501 0.898000
0.018036 -0.034367 0.899000
-0.023946 -0.027727 0.865000
-0.003338 -0.012215 0.876000
0.025381 -0.024691 0.897000
0.016204 -0.042184 0.900000
-0.016488 0.000756 0.866000
0.015834 -0.038480 0.900000
-0.006635 -0.032301 0.883000
0.014065 0.048688 0.882000
-0.023974 0.025349 0.866000
-0.007961 -0.011402 0.869000
-0.003021 -0.021544 0.889000
-0.015028 -0.008847 0.864000
0.017666 -0.038067 0.899000
0.012062 0.012569 0.895000
-0.004414 -0.012561 0.875000
0.008064 -0.009597 0.901000
0.016204 -0.017736 0.900000
0.023191 -0.005500 0.898000
0.021713 -0.036176 0.898000
0.029008 -0.004008 0.895000
-0.003303 0.008250 0.867000
-0.008414 -0.026728 0.879000
-0.002225 0.022801 0.864000
0.001691 0.031409 0.866000
-0.021454 -0.028795 0.865000
0.011798 -0.016308 0.903000
-0.012324 -0.023699 0.874000
0.002429 0.017330 0.875000
0.024670 0.027025 0.898000
0.003253 -0.034186 0.904000
-0.010002 0.021280 0.860000
0.007885 0.022525 0.881000
0.005486 -0.029721 0.904000
0.019517 -0.034737 0.899000
-0.016012 -0.040476 0.879000
-0.021785 -0.024139 0.864000
0.031183 0.000044 0.894000
0.005267 0.037912 0.868000
0.010289 -0.004406 0.901000
0.020257 -0.011056 0.899000
0.033023 0.027641 0.894000
0.017686 -0.010327 0.900000
-0.004769 -0.012907 0.874000
0.022452 0.007067 0.898000
0.000985 0.049212 0.872000
0.023904 -0.001432 0.897000
-0.020742 -0.028439 0.865000
-0.003292 0.019245 0.864000
-0.020409 0.034260 0.866000
-0.024302 -0.030931 0.865000
0.011043 -0.036709 0.902000
0.015395 0.020327 0.896000
0.029376 -0.008797 0.895000
0.009568 -0.033405 0.903000
-0.000095 -0.036338 0.902000
0.007454 0.037052 0.873000
-0.001872 0.023184 0.865000
0.000265 0.026775 0.866000
-0.017873 0.031336 0.864000
0.012899 -0.032625 0.902000
0.009135 -0.000694 0.897000
0.016575 0.009305 0.900000
-0.001523 0.014349 0.869000
0.029745 0.011464 0.895000
0.005735 0.000772 0.885000
-0.018355 -0.035048 0.870000
-0.007054 -0.036220 0.890000
-0.020386 -0.027371 0.865000
0.016150 0.020350 0.897000
-0.010760 0.004310 0.864000
0.014641 0.020673 0.895000
0.010376 0.029642 0.877000
-0.021098 0.028524 0.865000
-0.023856 0.024176 0.902000
0.024273 0.002998 0.897000
-0.012640 -0.019674 0.871000
0.019147 -0.038067 0.899000
-0.003985 0.033669 0.860000
0.007813 0.026632 0.873000
-0.004878 -0.036015 0.894000
0.001013 -0.023953 0.897000
0.013241 0.004119 0.900000
-0.016411 -0.041293 0.881000
0.022452 -0.023980 0.898000
-0.022522 -0.022386 0.865000
-0.016448 0.020759 0.883000
-0.001540 -0.011534 0.879000
-0.005094 -0.001386 0.868000
0.035192 0.028712 0.893000
0.010683 -0.031918 0.903000
-0.014740 -0.020678 0.868000
-0.011077 0.014926 0.861000
0.003145 0.011554 0.874000
0.005989 0.038671 0.869000
-0.012183 0.000754 0.864000
-0.016469 -0.003873 0.865000
0.008551 0.031375 0.875000
0.015274 0.032609 0.889000
0.033354 0.022464 0.893000
0.015851 -0.019239 0.901000
-0.008309 -0.009246 0.868000
-0.014449 -0.026874 0.872000
0.002884 -0.040183 0.905000
-0.012909 -0.008502 0.865000
-0.005438 0.010379 0.866000
-0.012553 -0.004229 0.865000
-0.004824 -0.028700 0.884000
0.019430 0.034671 0.895000
-0.003380 -0.030987 0.887000
-0.024302 -0.028439 0.865000
-0.018756 -0.038000 0.872000
-0.002685 -0.037697 0.899000
-0.016825 -0.003161 0.865000
-0.008424 -0.032192 0.880000
-0.008636 0.002535 0.865000
-0.016767 0.021330 0.862000
0.010737 0.028559 0.877000
-0.022522 -0.018826 0.865000
0.032655 0.033528 0.894000
0.035192 0.020626 0.893000
0.002862 -0.019544 0.898000
-0.017292 -0.042766 0.889000
0.011968 0.024166 0.888000
0.003629 -0.036831 0.905000
-0.001516 0.024252 0.865000
-0.018961 0.031728 0.865000
0.011746 0.003745 0.899000
0.006065 0.014531 0.880000
-0.006463 0.032607 0.860000
-0.019674 -0.029863 0.865000
0.012899 -0.021117 0.902000
0.007192 0.004779 0.885000
0.020604 -0.029893 0.898000
-0.014203 -0.038667 0.879000
0.000643 -0.023189 0.896000
-0.010760 0.001465 0.864000
0.001687 0.043071 0.864000
-0.025014 -0.026303 0.865000
0.000647 -0.034110 0.902000
-0.006530 -0.008183 0.869000
-0.072863 0.084286 2.556000
0.003625 -0.031953 0.904000
0.035192 0.025772 0.893000
-0.000095 -0.026906 0.897000
-0.007869 0.020548 0.859000
0.005370 0.001865 0.885000
0.025011 0.030687 0.897000
-0.024084 -0.037913 0.870000
-0.009974 -0.043132 0.889000
-0.001198 -0.025345 0.894000
0.002509 -0.035302 0.904000
-0.002930 0.036940 0.862000
-0.017517 -0.015248 0.864000
0.015481 0.000786 0.901000
0.000623 0.023979 0.868000
-0.001878 0.008260 0.868000
0.026827 0.025859 0.896000
-0.015184 -0.031576 0.873000
-0.000836 -0.035146 0.900000
0.002401 0.034932 0.865000
-0.010030 -0.047054 0.894000
0.035192 0.030550 0.893000
0.033354 0.018789 0.893000
-0.006872 0.000757 0.867000
-0.010645 -0.036340 0.884000
0.017228 0.038835 0.915000
0.024642 0.005951 0.897000
-0.007708 -0.023163 0.881000
-0.017537 -0.019182 0.865000
-0.009727 -0.006023 0.867000
0.032986 0.010335 0.893000
-0.014025 -0.019606 0.868000
0.035886 0.024642 0.892000
0.018777 -0.008836 0.899000
0.006209 -0.015901 0.901000
0.008191 0.032815 0.875000
0.025011 -0.011770 0.897000
0.005395 -0.007640 0.889000
-0.007086 -0.043742 0.894000
0.007920 0.016435 0.885000
-0.044328 0.049998 1.555000
-0.016450 0.032047 0.864000
-0.020386 0.029236 0.865000
-0.006357 -0.041949 0.895000
-0.015306 -0.040160 0.880000
0.000274 -0.026168 0.897000
0.004365 -0.024856 0.903000
-0.009117 -0.019087 0.877000
-0.021122 0.032121 0.866000
0.019887 0.001154 0.899000
0.004736 -0.023742 0.903000
0.008825 -0.021883 0.903000
-0.002253 -0.000677 0.875000
0.018407 -0.020306 0.899000
0.009186 -0.010722 0.902000
-0.020030 -0.011350 0.865000
-0.022851 -0.026983 0.864000
0.014368 -0.002551 0.901000
0.004234 0.021676 0.876000
-0.009597 -0.039428 0.888000
-0.012909 -0.006366 0.865000
0.004350 -0.018847 0.900000
0.027534 -0.013585 0.895000
-0.010760 0.010000 0.864000
0.012899 -0.016662 0.902000
-0.009034 -0.011760 0.869000
0.001330 0.036983 0.863000
-0.007533 0.035834 0.861000
0.009420 0.014680 0.889000
0.013641 -0.021859 0.902000
0.023191 0.031460 0.898000
0.036621 0.023540 0.892000
0.008561 0.049438 0.876000
-0.021122 0.034260 0.866000
0.007804 0.038445 0.872000
0.001745 -0.016146 0.894000
-0.023261 0.024636 0.866000
0.003625 -0.030093 0.904000
-0.012864 0.029490 0.862000
0.016262 0.046562 0.883000
-0.014655 0.034141 0.863000
-0.001193 -0.019370 0.890000
-0.003808 -0.046361 0.902000
0.033354 0.011070 0.893000
-0.019651 0.023157 0.864000
-0.005047 0.025528 0.860000
0.004610 0.017047 0.879000
0.009207 -0.026000 0.904000
0.033354 0.018054 0.893000
-0.017340 -0.036607 0.873000
-0.002691 -0.041860 0.901000
-0.020386 0.032084 0.865000
-0.004824 -0.030155 0.884000
0.018304 0.031688 0.894000
-0.013977 -0.010282 0.865000
-0.015401 0.001823 0.865000
0.031919 0.014762 0.894000
0.030481 0.028777 0.895000
0.019168 0.004490 0.900000
0.018036 -0.034737 0.899000
-0.017873 0.027069 0.864000
0.005996 0.037641 0.870000
0.006346 0.040101 0.869000
-0.009565 -0.035289 0.885000
-0.015793 -0.042670 0.887000
-0.023617 0.024636 0.866000
-0.023974 -0.033105 0.866000
-0.018313 -0.032110 0.868000
-0.015167 -0.030104 0.872000
-0.011937 -0.019337 0.872000
0.018016 0.024068 0.898000
0.022452 -0.016588 0.898000
-0.001509 0.035125 0.861000
-0.002578 0.040180 0.863000
-0.012154 0.031973 0.862000
0.000974 0.038048 0.863000
0.011043 -0.008865 0.902000
0.010387 0.035819 0.878000
0.020950 0.030687 0.897000
-0.018249 -0.024879 0.865000
0.026090 -0.004012 0.896000
0.026827 -0.010282 0.896000
0.018407 -0.039917 0.899000
-0.017440 -0.040430 0.878000
0.000264 0.029914 0.864000
0.017529 0.033086 0.892000
0.016945 -0.008475 0.900000
0.029008 -0.009533 0.895000
0.007718 -0.025628 0.904000
0.036988 0.033086 0.892000
0.004747 -0.037576 0.905000
0.023534 -0.025430 0.897000
-0.014672 -0.008847 0.864000
-0.004022 0.002186 0.868000
0.017123 0.035209 0.890000
0.005625 0.038983 0.868000
-0.008756 -0.027750 0.877000
0.024642 -0.008816 0.897000
-0.007321 -0.018025 0.878000
0.000634 -0.013055 0.884000
0.013255 -0.042231 0.901000
0.033023 0.029848 0.894000
-0.007933 0.000756 0.866000
-0.017893 -0.024167 0.865000
0.016222 -0.017014 0.901000
0.018427 0.003008 0.900000
-0.000093 0.051182 0.875000
0.029376 0.014779 0.895000
-0.001196 -0.021984 0.892000
0.002490 -0.018784 0.897000
0.016222 -0.011822 0.901000
0.014739 -0.016643 0.901000
-0.006478 0.014589 0.862000
0.023930 0.027025 0.898000
-0.012939 -0.014231 0.867000
0.021343 -0.025458 0.898000
0.011785 -0.037080 0.902000
0.010311 -0.042324 0.903000
0.005845 -0.018147 0.902000
0.003145 0.011195 0.874000
-0.012901 -0.044961 0.889000
0.031919 0.030216 0.894000
0.017686 0.012639 0.900000
-0.015202 -0.033411 0.874000
0.032287 0.023593 0.894000
-0.007879 0.030483 0.860000
-0.012894 -0.000313 0.864000
-0.013017 -0.047581 0.897000
-0.024658 -0.027371 0.865000
-0.015757 0.000043 0.865000
-0.013961 0.001821 0.864000
0.004731 -0.022230 0.902000
0.007965 0.000777 0.890000
-0.008636 0.004671 0.865000
0.011300 0.012908 0.893000
0.029745 0.013674 0.895000
0.028639 -0.005113 0.895000
0.019887 -0.001436 0.899000
0.003477 0.035370 0.867000
-0.017679 -0.036206 0.872000
-0.016234 0.020508 0.956000
-0.005835 -0.011801 0.872000
0.038780 0.026081 0.891000
-0.011077 0.015281 0.861000
0.010754 -0.043728 0.909000
-0.012567 -0.009937 0.866000
0.032287 0.008139 0.894000
-0.009200 -0.034560 0.885000
0.020997 0.011515 0.899000
-0.019143 -0.043547 0.890000
0.014739 -0.015531 0.901000
0.006843 0.000409 0.887000
-0.021810 -0.019538 0.865000
0.037355 0.019869 0.892000
0.010541 0.014346 0.891000
0.002501 -0.026656 0.901000
0.026119 -0.022476 0.897000
0.001391 -0.034520 0.903000
0.005273 0.026510 0.869000
0.019887 -0.013276 0.899000
0.009940 -0.026343 0.903000
-0.003383 -0.021154 0.888000
-0.007897 0.013524 0.862000
-0.006880 -0.008174 0.868000
0.035192 0.021729 0.893000
-0.021835 0.030696 0.866000
-0.008776 -0.031431 0.879000
0.011055 -0.014078 0.903000
-0.003711 -0.015875 0.879000
-0.011386 -0.040024 0.885000
0.005864 -0.032734 0.905000
0.030113 0.033197 0.895000
0.011401 -0.005147 0.901000
-0.007204 0.010711 0.864000
0.000642 -0.022426 0.895000
0.020997 0.010405 0.899000
-0.023617 0.026062 0.866000
0.009599 0.045264 0.872000
-0.008636 0.006807 0.865000
0.027934 0.025121 0.896000
-0.020053 -0.030967 0.866000
-0.001158 0.027069 0.864000
-0.005047 0.028359 0.860000
-0.004339 0.024466 0.860000
0.015110 -0.010339 0.901000
-0.001934 -0.028288 0.894000
0.022796 -0.016200 0.897000
0.020973 -0.023240 0.898000
-0.006888 -0.008899 0.869000
0.003874 0.020594 0.876000
-0.016825 -0.018114 0.865000
0.000648 -0.035263 0.903000
-0.018292 -0.030289 0.867000
0.000266 0.012576 0.870000
0.015110 -0.013676 0.901000
-0.003277 0.031191 0.860000
-0.014993 0.020620 0.862000
-0.024658 -0.030575 0.865000
-0.004747 -0.006044 0.870000
0.001331 0.042360 0.864000
0.018057 -0.019958 0.900000
-0.019674 -0.026303 0.865000
0.012899 -0.036709 0.902000
0.035192 0.018421 0.893000
0.020604 -0.033589 0.898000
0.001342 0.012232 0.871000
0.004642 -0.002870 0.885000
0.008172 0.030585 0.873000
0.011376 0.002264 0.899000
0.002492 -0.021023 0.898000
-0.020006 -0.024850 0.864000
0.006602 -0.031581 0.904000
0.021713 -0.029154 0.898000
0.030815 0.015498 0.894000
0.009621 0.041052 0.874000
0.033354 0.021729 0.893000
0.022796 -0.022845 0.897000
0.001342 0.022269 0.871000
0.027934 0.012583 0.896000
0.023534 0.035486 0.897000
-0.000092 0.027100 0.865000
0.016575 0.008564 0.900000
-0.003656 0.041032 0.866000
0.015110 -0.044456 0.901000
0.022058 -0.033552 0.897000
0.013270 -0.014805 0.902000
0.011819 0.047329 0.877000
0.009568 -0.024113 0.903000
0.033354 0.016951 0.893000
-0.002691 -0.042231 0.901000
-0.010429 -0.003878 0.866000
0.023534 -0.013246 0.897000
-0.010773 -0.002805 0.865000
0.026827 -0.003644 0.896000
0.023904 -0.023584 0.897000
-0.007525 0.033315 0.860000
-0.005558 -0.022540 0.885000
-0.008163 -0.040295 0.891000
0.016168 0.017785 0.898000
0.012156 -0.036338 0.902000
0.025721 -0.000325 0.896000
0.005443 -0.010293 0.897000
-0.016945 -0.045378 0.890000
0.010026 0.035457 0.878000
0.000264 0.031300 0.863000
0.018057 -0.015884 0.900000
0.019061 0.033197 0.895000
0.012899 -0.007009 0.902000
0.007548 0.017872 0.884000
0.014841 0.037561 0.885000
0.002789 0.009047 0.875000
-0.014638 0.021330 0.862000
-0.008271 0.010355 0.864000
0.020973 -0.026936 0.898000
0.023165 -0.013616 0.897000
0.031183 0.005196 0.894000
0.022082 0.007436 0.898000
0.023561 0.006697 0.898000
-0.008071 -0.023526 0.881000
-0.010405 0.005377 0.864000
0.009033 0.005885 0.887000
0.018427 -0.015143 0.900000
0.019517 -0.007726 0.899000
-0.015401 -0.014198 0.865000
-0.005407 0.036897 0.861000
-0.004715 0.015334 0.864000
-0.010885 -0.019382 0.874000
-0.015828 -0.044961 0.889000
-0.015419 -0.018492 0.866000
-0.016469 -0.019894 0.865000
0.035192 0.032755 0.893000
-0.000467 -0.036709 0.902000
-0.008347 -0.014313 0.872000
0.003481 0.031124 0.868000
-0.014791 -0.025410 0.871000
-0.024067 -0.042365 0.896000
0.023904 -0.024691 0.897000
0.020997 0.003004 0.899000
0.015781 0.020350 0.897000
0.013997 -0.039264 0.901000
0.026857 0.034379 0.897000
-0.005909 -0.030848 0.883000
-0.017201 -0.023482 0.866000
0.026090 -0.001431 0.896000
0.004721 -0.018106 0.900000
0.029376 0.011095 0.895000
0.015851 -0.010339 0.901000
0.008835 -0.025628 0.904000
-0.013945 0.032010 0.863000
0.001014 -0.025088 0.898000
0.018777 -0.021416 0.899000
-0.011116 0.003954 0.864000
0.021713 -0.019544 0.898000
-0.016150 -0.024222 0.867000
0.008786 -0.004396 0.899000
-0.020386 -0.015622 0.865000
0.023534 -0.024322 0.897000
-0.024490 -0.043938 0.898000
0.012756 0.019869 0.892000
0.018756 0.023699 0.898000
-0.014689 -0.012062 0.865000
-0.000829 -0.020882 0.892000
-0.001542 0.050388 0.880000
-0.004747 -0.004612 0.870000
-0.011077 0.030164 0.861000
0.009536 -0.005512 0.900000
-0.013912 0.017761 0.861000
-0.004791 -0.016218 0.878000
-0.012479 -0.040752 0.885000
-0.013826 -0.035009 0.878000
-0.010061 0.003247 0.865000
-0.002318 -0.039591 0.900000
0.030079 -0.002532 0.894000
0.016204 -0.040702 0.900000
0.003931 -0.011299 0.889000
-0.006817 0.018448 0.860000
0.014368 -0.023689 0.901000
0.007530 0.013838 0.882000
0.032619 0.004822 0.893000
0.020257 -0.022526 0.899000
-0.011064 0.021634 0.860000
0.011602 0.023435 0.888000
-0.014655 0.028813 0.863000
0.001700 0.021911 0.871000
-0.015739 -0.009914 0.864000
-0.008776 -0.022025 0.879000
-0.016095 -0.008847 0.864000
0.017142 0.033415 0.891000
-0.026112 -0.032036 0.866000
0.004553 0.047915 0.868000
0.015481 -0.010710 0.901000
-0.007869 0.021962 0.859000
0.004916 0.026510 0.869000
0.000645 -0.027706 0.899000
0.018057 0.002637 0.900000
0.030447 -0.004371 0.894000
-0.004465 -0.019990 0.885000
-0.001194 -0.020126 0.891000
0.017686 -0.000326 0.900000
0.017686 0.010046 0.900000
0.023904 -0.023953 0.897000
0.022082 -0.000695 0.898000
0.004234 0.014465 0.876000
0.030113 0.005201 0.895000
-0.001509 0.032290 0.861000
0.010399 0.032242 0.879000
0.012599 0.027601 0.881000
-0.005193 -0.021083 0.885000
-0.009315 -0.047528 0.896000
0.034824 0.034226 0.893000
0.034456 0.015481 0.893000
-0.006151 0.006102 0.866000
-0.011206 -0.015730 0.871000
0.035192 0.029815 0.893000
-0.023946 -0.025235 0.865000
0.023930 0.031460 0.898000
-0.011617 -0.025166 0.875000
-0.010810 -0.010317 0.868000
-0.006485 0.013895 0.863000
0.017686 -0.004401 0.900000
0.002442 0.051837 0.880000
-0.016213 -0.045744 0.890000
0.002052 0.048272 0.868000
-0.001156 0.030909 0.862000
0.015851 -0.009597 0.901000
0.023534 -0.005124 0.897000
0.014428 0.048325 0.882000
-0.011827 0.006088 0.864000
0.029376 0.006306 0.895000
0.026827 0.008526 0.896000
0.003993 -0.028573 0.903000
0.013982 0.006712 0.900000
0.009568 -0.015193 0.903000
-0.012596 -0.014247 0.868000
-0.001165 0.006123 0.869000
-0.003804 -0.044827 0.901000
-0.005982 -0.040063 0.894000
0.027903 -0.009533 0.895000
0.025381 0.027733 0.897000
-0.021098 -0.031999 0.865000
-0.002235 0.013618 0.868000
-0.007162 0.027266 0.859000
0.004234 0.021315 0.876000
-0.021429 -0.026983 0.864000
0.000270 0.052681 0.882000
-0.011047 -0.041940 0.887000
0.011401 -0.004776 0.901000
-0.012553 0.008231 0.865000
0.006804 0.018920 0.882000
-0.013961 -0.000669 0.864000
0.006099 0.002593 0.885000
-0.006888 -0.009972 0.869000
-0.007525 0.030483 0.860000
-0.025756 -0.030610 0.866000
-0.004551 -0.047475 0.902000
0.015110 -0.001068 0.901000
0.017316 -0.021070 0.900000
0.038047 0.030115 0.891000
0.015898 0.045472 0.883000
0.009940 -0.017795 0.903000
-0.008232 0.029067 0.860000
0.021367 0.003375 0.899000
0.031919 0.031320 0.894000
0.009250 0.041364 0.873000
-0.013537 0.043450 1.087000
