-0.013331 0.013283 0.825000
0.016841 -0.010539 0.857000
0.039637 0.020245 0.832000
-0.036344 0.002435 0.831000
0.012152 0.021459 0.826000
-0.021218 0.007879 0.828000
-0.021057 -0.010092 0.849000
-0.024059 -0.006906 0.844000
0.022692 0.021119 0.826000
-0.009805 -0.007592 0.843000
-0.039228 -0.013586 0.849000
0.024601 -0.017241 0.857000
0.031948 0.019125 0.828000
-0.002187 -0.030708 0.849000
-0.027476 -0.014703 0.853000
-0.002913 -0.015478 0.857000
-0.004283 -0.030708 0.849000
0.005188 -0.021776 0.855000
0.033497 -0.002057 0.850000
-0.013331 0.016000 0.825000
0.000954 -0.004827 0.845000
0.011855 0.013007 0.829000
0.021357 0.015698 0.827000
0.031871 -0.000653 0.844000
-0.037350 0.011558 0.823000
0.013627 0.006212 0.833000
-0.002138 0.005165 0.830000
0.020992 0.020439 0.826000
0.040940 -0.024154 0.852000
-0.049421 -0.012902 0.850000
0.004147 -0.016202 0.858000
0.005906 -0.013009 0.857000
0.025845 0.025631 0.829000
0.016723 -0.005912 0.851000
0.001671 -0.020392 0.856000
0.016933 -0.000653 0.844000
0.021068 0.026313 0.829000
-0.040734 -0.009337 0.844000
-0.023746 0.002784 0.833000
-0.026928 -0.002367 0.836000
0.005164 -0.027628 0.851000
0.015617 -0.030672 0.848000
0.023032 0.021799 0.826000
-0.005200 0.018784 0.828000
0.006222 -0.025907 0.852000
-0.029397 0.006857 0.828000
0.013953 0.008944 0.832000
-0.044500 0.009606 0.830000
0.020727 0.025972 0.829000
-0.006785 -0.021449 0.856000
0.029404 -0.000652 0.843000
-0.009251 -0.014755 0.856000
-0.034978 0.010880 0.823000
0.043508 0.013772 0.834000
0.015340 -0.006971 0.852000
-0.038489 0.000727 0.833000
-0.019729 -0.012933 0.852000
-0.045436 -0.003766 0.841000
-0.001110 0.010946 0.828000
0.010566 0.003134 0.835000
0.022184 -0.013039 0.859000
0.039294 0.020245 0.832000
-0.011704 -0.023183 0.855000
0.017214 -0.011964 0.858000
0.013127 -0.004479 0.845000
0.001310 -0.028995 0.850000
0.013065 -0.001689 0.841000
0.012270 -0.015143 0.858000
-0.030456 0.003112 0.829000
0.021068 0.025972 0.829000
0.042644 -0.025877 0.851000
-0.049943 -0.008673 0.847000
-0.031338 -0.015405 0.853000
-0.029060 -0.033464 0.848000
0.039684 0.013755 0.833000
-0.028277 -0.021801 0.856000
0.018405 0.010999 0.832000
0.035266 -0.011978 0.859000
-0.008497 -0.010466 0.851000
-0.020801 0.011246 0.825000
-0.041918 0.000727 0.833000
-0.038232 -0.031034 0.858000
-0.030356 -0.024591 0.855000
-0.000438 -0.008673 0.847000
0.020852 0.009652 0.834000
-0.035509 -0.015037 0.852000
-0.028244 -0.023535 0.855000
0.008985 -0.031719 0.848000
-0.022111 0.001074 0.836000
-0.039081 0.002093 0.831000
-0.024049 -0.021449 0.856000
0.002379 -0.013714 0.857000
-0.003231 -0.033813 0.848000
-0.037350 0.013590 0.823000
0.014019 -0.011598 0.857000
-0.014802 -0.029379 0.851000
-0.028779 -0.030744 0.850000
0.018040 0.029455 0.831000
-0.037118 0.001070 0.833000
-0.034267 -0.022153 0.856000
0.001957 0.017762 0.828000
-0.041906 0.007860 0.826000
-0.015187 -0.012948 0.853000
0.037866 0.002131 0.846000
0.038699 -0.000308 0.849000
-0.027827 -0.014703 0.853000
0.018493 0.035138 0.836000
-0.008785 -0.009001 0.845000
-0.010961 -0.011179 0.852000
0.040762 0.013085 0.834000
-0.003952 -0.025938 0.853000
-0.039081 0.002435 0.831000
-0.032268 0.012235 0.823000
-0.003250 -0.011192 0.853000
0.042244 -0.025846 0.850000
-0.048320 -0.007245 0.843000
0.031267 -0.019335 0.856000
0.025830 -0.004511 0.851000
0.038426 0.004899 0.843000
0.039955 0.002479 0.846000
0.034732 0.001086 0.846000
-0.010743 -0.000646 0.835000
0.040322 0.015108 0.832000
0.010151 -0.017614 0.858000
0.015230 0.014677 0.827000
-0.013444 0.001753 0.832000
0.017571 0.020414 0.825000
-0.008774 -0.008295 0.844000
-0.015138 0.002777 0.831000
0.027341 0.011355 0.833000
-0.029337 -0.004432 0.836000
0.031023 -0.011271 0.859000
0.006230 -0.025236 0.853000
0.035537 -0.007718 0.857000
-0.027484 0.000726 0.832000
0.035827 0.015090 0.831000
-0.015852 -0.028679 0.851000
0.012583 0.007575 0.832000
0.038973 -0.020016 0.855000
-0.014575 -0.003753 0.838000
0.021332 0.022479 0.826000
0.027102 -0.010199 0.858000
-0.004513 0.010593 0.827000
0.042821 0.020980 0.834000
-0.012536 -0.005144 0.840000
0.034628 -0.003815 0.852000
-0.007096 -0.028329 0.851000
-0.001481 -0.007262 0.845000
-0.024461 0.001757 0.834000
-0.014854 -0.024562 0.854000
0.014550 0.023187 0.827000
-0.033186 0.004477 0.829000
0.012270 -0.016202 0.858000
0.037119 0.010032 0.837000
0.015378 0.006915 0.835000
0.020016 -0.018652 0.857000
0.034375 0.016760 0.829000
-0.010272 -0.011895 0.853000
0.021652 -0.005569 0.852000
0.016079 -0.008042 0.854000
0.021025 -0.021072 0.855000
0.033553 0.011369 0.834000
-0.023208 -0.012567 0.851000
-0.024494 -0.036562 0.847000
-0.024596 0.008210 0.827000
-0.021115 0.013946 0.824000
0.013666 -0.018652 0.857000
-0.049595 -0.015756 0.853000
-0.033796 -0.027693 0.853000
-0.018514 0.007206 0.829000
-0.026485 -0.016497 0.855000
-0.037758 0.002096 0.832000
0.028868 -0.010199 0.858000
0.007760 0.009936 0.829000
0.008708 -0.021776 0.855000
-0.039138 0.008190 0.825000
-0.010980 0.009571 0.827000
0.034759 0.021221 0.830000
0.019273 0.004536 0.840000
-0.012379 -0.025236 0.853000
-0.031763 -0.017553 0.855000
0.032913 -0.022427 0.853000
0.018929 0.019735 0.825000
-0.027716 -0.005484 0.839000
-0.007860 -0.035271 0.858000
-0.027865 0.014945 0.823000
0.029299 -0.027246 0.850000
-0.021423 0.001074 0.836000
0.004808 -0.028295 0.850000
-0.014593 -0.004448 0.839000
-0.016611 -0.024562 0.854000
-0.045436 -0.006189 0.841000
-0.037219 -0.029730 0.851000
0.028881 0.016058 0.828000
-0.008938 0.009912 0.827000
0.004500 -0.018321 0.858000
-0.006059 -0.024884 0.853000
-0.020126 -0.024562 0.854000
-0.018348 -0.000303 0.837000
-0.004507 0.014999 0.826000
-0.042270 -0.005836 0.840000
-0.009619 0.008550 0.827000
0.003790 -0.014067 0.857000
-0.010573 -0.030708 0.849000
0.017954 0.001083 0.843000
0.023338 0.035869 0.837000
0.023712 0.018399 0.826000
0.017214 -0.016202 0.858000
-0.015852 -0.010816 0.851000
-0.021205 -0.003766 0.841000
0.038350 -0.000657 0.849000
-0.012713 0.005159 0.829000
-0.036041 -0.033813 0.848000
-0.034892 0.005159 0.829000
-0.015259 -0.017594 0.857000
-0.007567 0.012280 0.826000
0.049474 0.004579 0.848000
0.015672 -0.005912 0.851000
0.000615 -0.013361 0.857000
-0.021480 0.016679 0.825000
-0.038893 -0.023238 0.857000
0.000596 0.004829 0.831000
-0.012697 0.006857 0.828000
0.022891 -0.013392 0.859000
-0.016546 0.001413 0.833000
-0.017314 -0.014017 0.854000
-0.019446 -0.023183 0.855000
-0.015174 0.001413 0.833000
-0.015259 -0.020416 0.857000
0.027031 0.031964 0.834000
0.003776 -0.022805 0.854000
0.038244 0.008329 0.839000
0.019948 0.019735 0.825000
0.029645 0.002116 0.840000
-0.009781 -0.005497 0.841000
0.043113 0.018555 0.833000
-0.011321 0.009231 0.827000
0.012507 0.015358 0.827000
0.033024 0.006939 0.838000
-0.046695 -0.010392 0.845000
-0.038397 0.002093 0.831000
0.018301 0.001776 0.843000
-0.017500 -0.007619 0.846000
-0.007104 -0.010829 0.852000
-0.042371 -0.007929 0.842000
0.041291 -0.000309 0.852000
-0.016764 -0.006558 0.844000
0.037537 0.018852 0.831000
-0.012836 -0.002715 0.837000
0.016994 0.027028 0.830000
0.008943 -0.002737 0.844000
0.038179 -0.003469 0.853000
0.037924 0.021272 0.832000
-0.025888 -0.034819 0.847000
0.015691 -0.024855 0.852000
-0.019310 -0.031756 0.849000
0.038448 -0.008796 0.859000
-0.007769 -0.032068 0.848000
0.015034 0.006227 0.835000
0.003088 -0.016555 0.858000
0.008092 0.018784 0.828000
-0.005382 -0.015830 0.857000
0.023543 -0.017947 0.857000
0.039352 0.000391 0.848000
0.024657 0.008289 0.835000
0.000262 -0.012641 0.856000
-0.025106 -0.016869 0.856000
-0.013670 0.012944 0.825000
-0.013395 0.006865 0.829000
-0.010349 0.002777 0.831000
0.007078 0.009595 0.829000
0.039509 -0.013039 0.859000
-0.040397 -0.003404 0.837000
-0.005721 -0.023183 0.855000
0.026804 0.016719 0.827000
-0.016848 0.004829 0.831000
0.028262 0.001770 0.840000
0.001300 -0.004822 0.844000
0.015095 -0.013730 0.858000
0.031636 -0.002050 0.847000
-0.020903 -0.019005 0.857000
0.001655 -0.032068 0.848000
0.005495 -0.031021 0.848000
-0.002913 -0.015830 0.857000
-0.043185 0.004145 0.831000
-0.017375 -0.016888 0.857000
0.028951 0.015072 0.830000
-0.041024 -0.014651 0.850000
-0.022811 0.013946 0.824000
-0.028443 0.003116 0.830000
0.019479 0.009996 0.834000
-0.016883 -0.010803 0.850000
-0.011663 -0.026609 0.852000
-0.006777 -0.023183 0.855000
-0.030320 -0.025968 0.854000
0.003429 -0.022128 0.855000
0.025132 0.024578 0.828000
0.039909 -0.011284 0.860000
-0.000769 0.008901 0.828000
-0.026680 -0.031444 0.850000
0.003675 0.005513 0.831000
0.025314 0.031964 0.834000
-0.038495 -0.019687 0.856000
0.046682 0.023077 0.848000
-0.040546 0.014659 0.826000
-0.033210 -0.019335 0.856000
0.021882 0.009996 0.834000
-0.043946 -0.003757 0.839000
0.023055 -0.024154 0.852000
0.008022 -0.018299 0.857000
0.032046 -0.009845 0.858000
0.016212 0.019735 0.825000
-0.027352 0.006516 0.828000
0.023598 -0.012685 0.859000
-0.030860 -0.008256 0.840000
0.001648 -0.006211 0.844000
-0.033445 -0.026640 0.853000
-0.011718 -0.015107 0.856000
-0.019726 0.000041 0.837000
0.030662 -0.002754 0.849000
-0.030356 -0.017553 0.855000
-0.016300 -0.002373 0.838000
-0.005534 0.016719 0.827000
0.042084 0.014098 0.833000
-0.026671 0.007197 0.828000
0.013790 -0.003081 0.843000
-0.034301 0.011219 0.823000
-0.018326 0.000385 0.836000
0.049823 0.005277 0.848000
-0.043423 0.006524 0.829000
0.023136 -0.008403 0.855000
-0.042971 -0.012508 0.847000
0.010173 0.006540 0.831000
-0.013337 -0.009022 0.847000
0.037853 0.009354 0.838000
0.040475 -0.017241 0.857000
0.009729 -0.032570 0.852000
-0.011444 -0.000991 0.836000
0.005560 -0.015496 0.858000
0.035039 0.002476 0.845000
-0.037326 0.003457 0.830000
0.002295 0.013316 0.827000
-0.019161 -0.028562 0.858000
-0.000087 0.016379 0.827000
-0.021923 -0.004117 0.842000
-0.023614 -0.014352 0.853000
-0.008165 -0.011895 0.853000
-0.002882 -0.032417 0.848000
-0.024291 -0.003070 0.840000
-0.016990 -0.001683 0.838000
0.019869 0.007611 0.836000
-0.007227 0.014319 0.826000
-0.011013 -0.015107 0.856000
-0.038847 -0.021097 0.856000
-0.030860 -0.007910 0.840000
0.042770 0.019926 0.833000
0.018084 0.010327 0.833000
-0.006038 -0.030045 0.850000
0.029085 -0.030186 0.854000
-0.051059 -0.007339 0.854000
-0.028102 0.003457 0.830000
-0.009230 -0.012963 0.854000
-0.010320 -0.020768 0.857000
-0.004278 -0.032417 0.848000
0.027859 0.016399 0.828000
-0.031251 -0.001329 0.832000
-0.049244 -0.015756 0.853000
0.030670 -0.013039 0.859000
0.023323 -0.002754 0.849000
-0.035403 0.000384 0.833000
0.017294 0.014354 0.828000
0.028161 0.004520 0.837000
0.003052 -0.032417 0.848000
-0.026298 0.007870 0.827000
0.029741 0.009984 0.833000
-0.015908 -0.014017 0.854000
-0.000786 -0.008315 0.846000
0.033473 0.014081 0.832000
0.038448 -0.010918 0.859000
0.027177 0.016058 0.828000
-0.001802 0.004155 0.833000
0.017403 -0.028645 0.850000
-0.034267 -0.018983 0.856000
-0.035426 -0.031794 0.850000
-0.006418 -0.024211 0.854000
-0.028914 -0.025968 0.854000
0.035870 0.014423 0.832000
-0.048667 -0.003775 0.843000
0.038090 -0.002060 0.851000
-0.036690 -0.017905 0.855000
0.010124 0.016379 0.827000
0.024851 0.014047 0.830000
-0.031289 -0.002359 0.833000
0.011200 0.006882 0.831000
0.032791 -0.013392 0.859000
-0.050002 -0.009382 0.848000
0.027308 0.012369 0.832000
-0.014867 -0.000990 0.835000
0.010467 -0.022128 0.855000
0.040569 -0.012685 0.859000
0.018475 -0.026227 0.851000
-0.028711 -0.033115 0.848000
-0.033249 -0.011127 0.848000
-0.030346 0.008540 0.826000
0.001314 -0.009788 0.853000
0.011472 0.019759 0.826000
-0.005867 0.013979 0.826000
0.010503 0.011314 0.830000
0.045984 0.001787 0.848000
-0.010820 -0.005843 0.841000
0.019751 0.012012 0.831000
0.028851 0.004175 0.837000
0.038034 0.005933 0.842000
0.028915 -0.028612 0.849000
0.032218 0.000042 0.844000
-0.015484 -0.030045 0.850000
0.029893 -0.008776 0.857000
0.011792 -0.031756 0.849000
0.017954 0.000736 0.843000
0.040075 0.022010 0.834000
0.027290 0.001081 0.842000
-0.007851 -0.017594 0.857000
-0.025042 -0.005157 0.842000
-0.018283 -0.030744 0.850000
0.012490 -0.031756 0.849000
-0.036912 -0.029063 0.852000
0.007643 -0.009448 0.854000
-0.023558 -0.012217 0.851000
-0.004187 0.005507 0.830000
-0.022717 0.003470 0.833000
-0.000769 0.010605 0.828000
0.041251 0.004905 0.844000
0.046989 0.008695 0.841000
-0.020958 -0.006566 0.845000
0.007437 0.006540 0.831000
-0.028643 -0.036519 0.846000
0.002706 -0.031058 0.849000
-0.043601 -0.003412 0.839000
-0.013050 -0.010816 0.851000
-0.024846 0.010893 0.824000
-0.024316 -0.014352 0.853000
-0.024813 -0.036171 0.846000
-0.039391 -0.010044 0.845000
0.047729 0.002485 0.848000
-0.031927 -0.012902 0.850000
0.042792 0.001785 0.847000
0.022856 0.029491 0.832000
0.044591 0.020318 0.835000
-0.015120 0.005848 0.830000
0.005913 -0.015496 0.858000
0.002639 0.010265 0.828000
-0.011430 -0.000646 0.835000
-0.010362 0.002096 0.832000
0.005378 0.019513 0.830000
-0.024077 -0.020063 0.857000
0.017547 -0.018652 0.857000
-0.012697 0.008220 0.828000
0.020992 0.018739 0.826000
0.046517 0.004215 0.845000
0.046021 0.013805 0.836000
0.020656 0.004536 0.840000
-0.006215 0.009571 0.827000
0.032797 -0.027246 0.850000
-0.010287 0.016699 0.826000
0.025783 0.016719 0.827000
-0.019566 -0.006218 0.845000
-0.024745 0.003808 0.832000
-0.007907 0.013299 0.826000
-0.047569 -0.002731 0.842000
0.030554 -0.002396 0.846000
0.033420 -0.029587 0.857000
0.021551 -0.002401 0.848000
-0.043359 -0.006535 0.841000
-0.017624 -0.026959 0.852000
-0.014101 -0.028679 0.851000
0.048893 0.008031 0.844000
-0.028027 -0.005477 0.838000
0.023400 0.016039 0.827000
0.025720 -0.014807 0.859000
0.012961 -0.018299 0.857000
-0.022374 0.003127 0.833000
-0.042717 -0.007929 0.842000
-0.002189 0.003890 0.850000
0.027791 0.020099 0.826000
-0.036554 0.005153 0.828000
0.008092 0.012650 0.828000
0.020484 0.030897 0.833000
0.018496 -0.006621 0.852000
-0.033016 -0.030430 0.851000
0.023561 0.000390 0.845000
0.004007 0.007889 0.829000
-0.043946 -0.003066 0.839000
-0.027109 0.004145 0.831000
0.005706 0.013672 0.828000
0.011483 -0.025907 0.852000
0.009784 0.015698 0.827000
0.037697 -0.008786 0.858000
0.018634 0.015698 0.827000
-0.030178 -0.031794 0.850000
-0.044743 -0.005843 0.841000
0.045179 0.003176 0.846000
0.018272 0.017379 0.826000
-0.002138 0.019171 0.830000
0.000606 -0.006558 0.844000
0.010333 -0.004822 0.844000
0.009378 -0.025907 0.852000
-0.036733 -0.019335 0.856000
0.041399 0.014784 0.833000
-0.015860 0.001070 0.833000
0.037034 -0.014807 0.859000
0.018975 0.015698 0.827000
0.028846 0.017400 0.827000
0.038313 0.021983 0.833000
-0.039671 -0.015019 0.851000
-0.034210 0.005159 0.829000
-0.024813 -0.035823 0.846000
0.033458 -0.001705 0.849000
0.040075 -0.005947 0.856000
0.033978 0.010364 0.836000
0.043095 -0.021725 0.853000
0.022651 -0.003806 0.850000
-0.028145 -0.027661 0.852000
-0.030143 -0.012188 0.849000
0.020582 0.007276 0.837000
-0.010923 -0.031756 0.849000
-0.035734 -0.033504 0.849000
-0.001144 -0.010841 0.853000
0.042591 -0.017241 0.857000
0.014622 -0.005912 0.851000
-0.004859 0.008901 0.828000
-0.026868 -0.022858 0.856000
-0.037734 0.015302 0.824000
0.017231 0.017698 0.825000
-0.038009 -0.026991 0.853000
0.028027 0.029869 0.833000
-0.000429 0.007206 0.829000
-0.035018 0.001068 0.832000
0.039463 -0.015496 0.858000
0.018736 -0.002050 0.847000
0.035904 -0.028262 0.849000
-0.011987 0.016699 0.826000
-0.016514 -0.032106 0.849000
-0.015447 -0.032766 0.848000
0.007553 -0.003779 0.844000
0.016065 0.034408 0.835000
-0.019806 0.017719 0.826000
0.038531 -0.022076 0.853000
0.008773 0.020147 0.828000
-0.044523 -0.015001 0.850000
0.015077 -0.011598 0.857000
0.012863 0.014013 0.828000
0.037537 0.015090 0.831000
-0.039091 0.009198 0.824000
0.003037 -0.005169 0.844000
-0.023019 -0.019005 0.857000
0.023199 0.029491 0.832000
0.046765 0.012443 0.837000
-0.002467 0.014659 0.826000
-0.030249 -0.027661 0.852000
-0.016824 -0.034819 0.847000
-0.034267 -0.021449 0.856000
-0.009921 -0.025938 0.853000
-0.040419 -0.016089 0.852000
0.004453 -0.030359 0.849000
-0.021884 -0.036864 0.854000
0.002359 -0.028995 0.850000
-0.032162 0.004818 0.829000
-0.043370 0.007879 0.828000
-0.040397 -0.003059 0.837000
0.000612 -0.025587 0.853000
-0.037219 -0.030780 0.851000
-0.026516 -0.018983 0.856000
0.015654 -0.004856 0.850000
0.008346 -0.009448 0.854000
-0.015205 -0.014017 0.854000
0.018316 0.024578 0.828000
0.006200 -0.008344 0.849000
0.004021 0.004835 0.832000
-0.018514 0.007547 0.829000
0.037039 -0.025877 0.851000
-0.005244 0.003822 0.835000
0.022352 0.017719 0.826000
-0.021583 -0.022153 0.856000
0.030027 0.001080 0.841000
-0.026934 -0.036911 0.847000
-0.006059 -0.011543 0.853000
0.025783 0.017740 0.827000
0.035931 -0.016202 0.858000
0.015969 0.028395 0.830000
0.021750 0.014713 0.829000
0.025596 0.029148 0.832000
0.006550 -0.029660 0.849000
0.016411 -0.024533 0.853000
0.029021 0.012711 0.832000
0.009038 -0.023831 0.853000
-0.004676 -0.015830 0.857000
-0.026516 -0.018630 0.856000
-0.035229 -0.003404 0.837000
-0.039813 0.001753 0.832000
-0.035818 -0.030780 0.851000
0.031972 -0.020392 0.856000
0.040713 0.020612 0.833000
-0.034972 -0.022858 0.856000
-0.034931 -0.018257 0.855000
0.031340 -0.015496 0.858000
0.035722 -0.022427 0.853000
0.015665 0.030860 0.832000
0.035266 -0.012332 0.859000
0.035946 -0.028645 0.850000
0.041180 -0.016536 0.857000
-0.024233 -0.001338 0.838000
0.009706 -0.027946 0.850000
0.014254 -0.027596 0.850000
-0.033962 0.010541 0.823000
0.003052 -0.032766 0.848000
-0.007129 -0.013330 0.855000
-0.025630 -0.031444 0.850000
0.011429 -0.030672 0.848000
0.027549 -0.027946 0.850000
-0.023503 -0.010441 0.849000
0.026655 0.030212 0.833000
0.033693 0.016760 0.829000
0.025411 0.019759 0.826000
-0.014044 0.010252 0.827000
-0.037350 -0.025968 0.854000
0.015341 0.031583 0.833000
-0.006045 -0.028679 0.851000
0.032328 0.023243 0.829000
-0.037474 -0.005843 0.841000
-0.004853 0.018081 0.827000
0.026719 0.033721 0.835000
0.004684 0.011969 0.828000
-0.021181 -0.014369 0.854000
0.034036 0.000738 0.846000
0.025450 -0.027246 0.850000
0.028515 -0.016908 0.858000
0.020189 0.034065 0.835000
0.020131 -0.001701 0.847000
0.025366 -0.013392 0.859000
-0.032938 -0.012188 0.849000
-0.014061 0.008220 0.828000
0.026313 0.011012 0.833000
0.025420 -0.028961 0.849000
-0.000772 0.004829 0.831000
0.017465 -0.023831 0.853000
-0.003572 -0.009011 0.846000
0.043372 0.010389 0.838000
-0.017745 0.014981 0.825000
-0.018038 -0.014738 0.855000
-0.012437 -0.019710 0.857000
0.040097 -0.000308 0.849000
0.010357 -0.006226 0.846000
-0.036604 -0.016459 0.853000
-0.010987 -0.024914 0.854000
0.046278 0.002831 0.847000
0.019996 0.023867 0.827000
-0.009653 0.004140 0.830000
-0.005193 0.017740 0.827000
-0.037040 -0.004102 0.839000
0.038179 -0.022076 0.853000
0.035185 0.013739 0.832000
-0.034509 0.005494 0.828000
-0.028750 0.005159 0.829000
-0.016923 -0.026959 0.852000
0.016252 0.015017 0.827000
0.022170 0.000737 0.845000
0.034237 -0.026227 0.851000
-0.003962 -0.012626 0.855000
0.038045 -0.001357 0.850000
-0.015205 -0.024914 0.854000
0.038169 0.002824 0.845000
0.000609 -0.030708 0.849000
0.034156 -0.028612 0.849000
-0.005017 -0.022831 0.855000
0.026344 -0.000654 0.845000
0.037989 0.006618 0.841000
-0.049479 -0.013618 0.851000
0.011375 -0.004474 0.844000
-0.013054 0.006524 0.829000
-0.029774 0.004477 0.829000
0.022225 0.010339 0.834000
0.033011 0.022219 0.829000
-0.024432 0.002784 0.833000
0.036157 -0.020016 0.855000
0.045966 0.016881 0.835000
0.039748 -0.000308 0.849000
0.029504 0.005203 0.836000
0.036200 -0.007004 0.856000
-0.039430 0.013946 0.824000
-0.014849 0.000041 0.834000
-0.006410 -0.025587 0.853000
-0.045840 -0.018257 0.855000
-0.013573 -0.005144 0.840000
-0.012042 -0.024211 0.854000
-0.009851 -0.034471 0.847000
0.029867 0.020464 0.827000
0.019130 -0.029660 0.849000
-0.033664 0.016320 0.824000
0.017774 -0.026577 0.851000
-0.008981 0.018852 0.831000
0.024107 -0.005218 0.852000
-0.031927 -0.031094 0.850000
0.012402 -0.003775 0.843000
0.024081 0.017060 0.827000
-0.011100 -0.000991 0.836000
-0.016164 0.004487 0.831000
0.010044 -0.032106 0.849000
-0.030492 -0.033154 0.849000
-0.048492 -0.010404 0.846000
0.043044 -0.023102 0.852000
0.041399 0.021298 0.833000
0.020952 0.006595 0.838000
0.002980 0.011628 0.828000
-0.009604 -0.015107 0.856000
0.022651 -0.030744 0.850000
-0.029969 -0.025265 0.854000
-0.029126 0.001749 0.830000
-0.000428 0.013316 0.827000
0.027859 0.024237 0.828000
0.034832 0.006956 0.840000
0.027549 -0.027596 0.850000
-0.020511 0.018081 0.827000
-0.024609 -0.012567 0.851000
0.014187 -0.004485 0.846000
0.021177 -0.001701 0.847000
-0.029774 0.005500 0.829000
0.035058 0.019831 0.829000
-0.043370 0.007538 0.828000
-0.039091 0.009537 0.824000
-0.013070 0.004482 0.830000
-0.003487 0.013979 0.826000
0.039027 0.006618 0.841000
0.036861 -0.019664 0.855000
-0.031726 -0.025617 0.854000
-0.008194 -0.020744 0.856000
0.016592 0.015358 0.827000
0.008687 -0.024182 0.853000
-0.044470 -0.014634 0.849000
-0.028677 -0.035516 0.847000
-0.028295 -0.035823 0.846000
0.001279 0.005848 0.830000
-0.049244 -0.016459 0.853000
-0.037251 -0.001679 0.836000
0.031619 -0.018630 0.856000
0.010115 -0.021072 0.855000
0.002295 0.016379 0.827000
-0.012775 -0.014755 0.856000
0.048603 0.005954 0.845000
0.042393 -0.022778 0.853000
0.019479 -0.003103 0.849000
-0.006222 0.006857 0.828000
-0.038146 0.001070 0.833000
-0.029060 -0.011127 0.848000
0.017523 0.004185 0.839000
0.006178 -0.006922 0.846000
0.016252 0.023867 0.827000
-0.031968 0.010215 0.824000
0.019988 0.003503 0.841000
-0.042246 0.008540 0.826000
0.036759 0.075423 1.760000
-0.025811 -0.017926 0.856000
-0.002132 0.008901 0.828000
0.004464 -0.033232 0.851000
-0.015708 0.012604 0.825000
0.024081 0.016039 0.827000
-0.023475 -0.033464 0.848000
-0.037307 -0.027693 0.853000
-0.012682 0.010252 0.827000
0.036327 -0.010918 0.859000
-0.039457 -0.004793 0.839000
-0.021269 0.005848 0.830000
-0.008204 -0.020416 0.857000
0.019876 -0.026577 0.851000
-0.021206 -0.025999 0.855000
0.018604 0.003157 0.841000
-0.017274 -0.027661 0.852000
0.033432 0.014748 0.831000
-0.035200 -0.027342 0.853000
-0.036333 0.010541 0.823000
0.043682 0.004905 0.844000
-0.023915 0.008210 0.827000
-0.017827 -0.006914 0.845000
-0.030769 -0.035516 0.847000
0.010819 -0.010515 0.855000
0.010743 -0.029660 0.849000
-0.035617 0.003457 0.830000
0.018891 -0.022102 0.854000
-0.027508 -0.015775 0.854000
0.009301 -0.005871 0.845000
-0.027187 0.014945 0.823000
0.011509 -0.009448 0.854000
-0.001498 -0.012274 0.855000
-0.005654 -0.008653 0.845000
0.046421 0.012099 0.837000
-0.015727 0.010580 0.826000
-0.037955 -0.008643 0.844000
0.048084 0.009052 0.842000
-0.032162 0.002771 0.829000
-0.018260 0.003127 0.833000
-0.012016 0.007538 0.828000
0.003337 0.004835 0.832000
0.029579 -0.002750 0.848000
-0.020958 -0.006914 0.845000
-0.025863 0.010554 0.824000
-0.009665 0.003119 0.831000
-0.028750 0.004818 0.829000
0.047447 0.007328 0.843000
0.018171 0.006242 0.837000
-0.016183 0.003123 0.832000
-0.021975 -0.005864 0.844000
-0.000794 -0.022128 0.855000
0.001319 -0.012289 0.856000
0.006737 0.008230 0.829000
-0.021910 -0.023535 0.855000
0.012098 -0.005878 0.846000
-0.050411 0.002139 0.849000
0.023082 -0.023831 0.853000
-0.002194 -0.026959 0.852000
0.031472 -0.024505 0.852000
-0.017912 -0.031407 0.849000
0.025596 0.029833 0.832000
0.026944 -0.005926 0.853000
-0.012655 -0.032068 0.848000
0.039417 -0.007012 0.857000
0.006076 0.005178 0.832000
0.008365 -0.020392 0.856000
-0.046512 -0.013570 0.848000
0.047100 0.019819 0.843000
0.024430 0.005567 0.839000
-0.036717 0.009537 0.824000
-0.031801 -0.019335 0.856000
0.033449 0.005573 0.840000
-0.004994 -0.027628 0.851000
0.002005 -0.032766 0.848000
0.005207 -0.014083 0.858000
0.033409 0.006257 0.839000
-0.019335 0.001416 0.835000
0.036996 -0.026896 0.850000
0.016861 -0.016555 0.858000
0.040267 0.010044 0.838000
0.010161 0.007898 0.830000
0.043113 0.018898 0.833000
0.010124 0.015358 0.827000
0.035266 -0.010564 0.859000
0.025159 -0.024855 0.852000
-0.006207 0.014659 0.826000
0.034506 -0.028612 0.849000
0.017398 0.031926 0.833000
0.031730 -0.011978 0.859000
0.044231 -0.017539 0.890000
0.040664 0.018533 0.832000
0.017178 0.004531 0.839000
0.039325 -0.019312 0.855000
-0.018435 -0.003420 0.841000
0.019292 0.022139 0.826000
0.012492 0.020099 0.826000
0.023461 -0.021750 0.854000
0.025336 -0.011258 0.858000
0.027322 -0.000305 0.843000
-0.050470 -0.008004 0.850000
-0.004877 0.004487 0.831000
0.016932 0.024208 0.827000
0.026094 0.005898 0.837000
-0.012292 -0.034471 0.847000
0.002342 -0.004822 0.844000
-0.016844 -0.009033 0.848000
-0.026082 -0.006543 0.842000
-0.024507 0.012250 0.824000
0.031608 0.023215 0.828000
0.033615 -0.004522 0.853000
0.040664 0.019218 0.832000
-0.048428 -0.015369 0.851000
-0.045836 0.000388 0.842000
0.047856 0.013838 0.838000
-0.005874 0.017400 0.827000
-0.035317 0.013590 0.823000
-0.005881 0.018784 0.828000
-0.009968 -0.015830 0.857000
0.020459 0.011684 0.832000
0.036031 -0.003465 0.852000
0.025535 0.027028 0.830000
-0.012321 -0.031058 0.849000
-0.019103 0.017018 0.825000
0.021729 -0.020720 0.855000
0.004842 -0.020744 0.856000
-0.008477 -0.031058 0.849000
0.036897 0.014423 0.832000
0.004089 -0.007270 0.846000
-0.014151 -0.013314 0.854000
-0.025949 -0.032455 0.849000
0.028199 0.016399 0.828000
-0.011661 0.009571 0.827000
0.018471 0.008977 0.835000
-0.034333 0.000726 0.832000
-0.005382 -0.019005 0.857000
-0.017745 0.015660 0.825000
-0.040157 0.009209 0.825000
-0.021793 0.000041 0.837000
-0.036433 -0.033154 0.849000
0.021352 -0.022805 0.854000
0.000963 -0.025587 0.853000
0.041582 -0.015849 0.858000
-0.034682 0.016998 0.824000
-0.003155 0.010265 0.828000
-0.001149 -0.018652 0.857000
0.038269 -0.005236 0.855000
-0.047973 -0.000999 0.843000
-0.034227 -0.017905 0.855000
-0.031154 -0.034162 0.848000
0.012240 0.007232 0.832000
-0.014419 0.005841 0.829000
0.041792 0.013772 0.834000
0.018338 0.026655 0.829000
-0.019938 -0.007967 0.846000
-0.013985 -0.007948 0.844000
0.029057 -0.000305 0.843000
0.011536 -0.020392 0.856000
-0.000090 -0.031719 0.848000
-0.014068 -0.032106 0.849000
-0.036392 -0.005144 0.840000
-0.023045 -0.007262 0.845000
-0.045836 0.000042 0.842000
0.013189 -0.030009 0.849000
0.006596 -0.010515 0.855000
0.045267 -0.021714 0.896000
-0.001502 -0.019005 0.857000
-0.028745 -0.011839 0.849000
-0.015241 -0.016164 0.856000
-0.036519 -0.030780 0.851000
0.018958 -0.010187 0.857000
0.011941 0.003822 0.835000
0.037252 0.007648 0.840000
0.039305 0.001785 0.847000
0.009798 -0.016908 0.858000
0.021777 0.013022 0.830000
-0.020197 -0.019005 0.857000
-0.001496 -0.011206 0.854000
-0.035660 0.002093 0.831000
-0.022724 -0.035474 0.846000
0.009422 -0.020744 0.856000
-0.001498 -0.021776 0.855000
-0.044397 -0.007227 0.841000
0.019632 0.021459 0.826000
-0.003618 -0.019358 0.857000
-0.017384 0.013606 0.824000
0.001316 -0.024211 0.854000
0.034937 -0.002760 0.851000
-0.035692 -0.033813 0.848000
0.016389 0.033681 0.834000
-0.034645 -0.036954 0.848000
-0.024842 -0.034471 0.847000
0.010161 0.010973 0.830000
-0.010661 -0.014403 0.856000
0.034628 -0.003465 0.852000
-0.036253 -0.016459 0.853000
0.016841 -0.019005 0.857000
-0.019844 -0.021121 0.857000
-0.002202 -0.012626 0.855000
0.021780 -0.017947 0.857000
-0.010910 -0.032068 0.848000
0.016041 -0.025206 0.852000
0.008657 -0.028645 0.850000
-0.048371 -0.013952 0.850000
0.029716 0.000735 0.842000
0.024136 -0.023831 0.853000
-0.005363 -0.011909 0.854000
-0.028820 -0.008266 0.841000
-0.033851 -0.004093 0.837000
0.033734 0.015414 0.830000
0.046753 0.006287 0.843000
-0.022670 -0.006558 0.844000
0.007670 -0.019005 0.857000
-0.036132 -0.000302 0.834000
-0.036694 -0.004448 0.839000
-0.040840 0.001068 0.832000
-0.004324 -0.014772 0.857000
-0.011872 -0.006889 0.842000
0.009997 -0.005871 0.845000
0.016311 0.012339 0.830000
0.002295 0.015358 0.827000
0.039187 -0.023453 0.852000
0.028747 0.007593 0.834000
0.027684 0.009641 0.833000
0.020250 -0.006270 0.852000
0.017014 0.012012 0.831000
-0.022455 -0.032106 0.849000
0.021402 -0.019687 0.856000
-0.024842 -0.009371 0.847000
-0.022717 0.003127 0.833000
-0.036029 -0.020040 0.856000
-0.014231 -0.003408 0.838000
-0.028914 -0.016126 0.854000
0.044935 0.013444 0.835000
0.008738 -0.016908 0.858000
0.019782 -0.002050 0.847000
-0.015443 0.007206 0.829000
-0.017469 0.008220 0.828000
0.019876 -0.005212 0.851000
0.020977 0.005567 0.839000
-0.030356 -0.023887 0.855000
-0.040243 -0.006535 0.841000
-0.015593 -0.021097 0.856000
-0.027994 -0.004782 0.837000
-0.019492 -0.020063 0.857000
0.038485 -0.024154 0.852000
0.001319 -0.021097 0.856000
0.021252 -0.028295 0.850000
-0.029897 0.015284 0.823000
0.029610 0.002804 0.839000
0.028540 0.024237 0.828000
-0.036562 -0.028713 0.852000
-0.027760 0.004824 0.830000
-0.013173 -0.036020 0.859000
-0.042123 -0.016070 0.851000
-0.041956 0.006508 0.827000
0.023488 -0.008052 0.855000
0.019355 -0.013746 0.859000
-0.023945 -0.003416 0.840000
0.010743 -0.029310 0.849000
0.018581 0.004190 0.840000
0.030951 -0.017594 0.857000
-0.026052 0.005165 0.830000
-0.001453 0.006865 0.829000
0.026591 0.027403 0.831000
0.032046 -0.009139 0.858000
0.016813 0.004525 0.838000
-0.028993 -0.003744 0.836000
0.017816 -0.024533 0.853000
0.040923 -0.009503 0.859000
-0.008417 -0.005857 0.843000
0.015257 0.030379 0.888000
-0.019659 -0.010092 0.849000
-0.000088 0.017762 0.828000
-0.012176 -0.003757 0.839000
-0.035918 -0.002370 0.837000
-0.005388 -0.017614 0.858000
-0.032391 -0.026640 0.853000
-0.016486 0.006873 0.830000
0.012213 -0.022805 0.854000
0.029504 0.005891 0.836000
-0.013832 -0.022153 0.856000
-0.000768 0.017060 0.827000
-0.000088 0.005507 0.830000
-0.030575 0.015622 0.823000
0.010897 0.004504 0.834000
0.025307 -0.009834 0.857000
0.034458 0.015090 0.831000
-0.036333 0.012235 0.823000
-0.042246 0.011260 0.826000
-0.000441 -0.025907 0.852000
-0.008487 -0.028995 0.850000
0.016821 -0.020040 0.856000
0.037553 0.008329 0.839000
-0.014134 -0.012948 0.853000
0.014655 0.008269 0.833000
0.015007 -0.023480 0.853000
0.047391 0.019448 0.842000
0.009466 0.011983 0.829000
0.021099 -0.012317 0.858000
0.018702 0.013364 0.830000
0.025982 -0.018630 0.856000
-0.030951 -0.014686 0.852000
-0.016764 -0.006211 0.844000
0.022678 -0.025877 0.851000
0.002703 -0.031370 0.848000
0.003325 0.008230 0.829000
-0.033405 -0.028713 0.852000
0.039780 0.011726 0.835000
-0.002882 -0.031719 0.848000
0.023683 0.006931 0.837000
-0.035276 0.003457 0.830000
-0.017003 -0.021449 0.856000
0.041544 -0.026546 0.850000
0.028195 -0.014453 0.859000
-0.043217 -0.010392 0.845000
0.006230 -0.009437 0.853000
-0.033171 -0.023887 0.855000
-0.029162 0.000383 0.831000
0.037240 0.014081 0.832000
-0.018633 -0.030045 0.850000
0.048313 0.004568 0.846000
-0.007567 0.011940 0.826000
0.007580 0.004225 0.847000
-0.007917 0.010252 0.827000
-0.002470 0.015698 0.827000
0.029858 -0.030257 0.856000
0.034872 -0.008786 0.858000
0.018250 0.020414 0.825000
-0.041282 -0.000645 0.834000
-0.049071 -0.013602 0.850000
0.015654 -0.005206 0.850000
-0.000428 0.017400 0.827000
0.039155 -0.013039 0.859000
-0.024953 -0.002721 0.839000
0.015709 -0.007331 0.853000
0.004701 0.005855 0.831000
0.000960 -0.028645 0.850000
-0.038859 -0.006189 0.841000
0.007553 -0.004127 0.844000
-0.046030 -0.017141 0.852000
-0.012651 0.014302 0.825000
-0.007420 -0.032068 0.848000
0.029527 0.020804 0.827000
0.004002 0.011969 0.828000
-0.018603 0.003812 0.833000
0.040027 0.014441 0.833000
0.032289 0.019125 0.828000
-0.024494 -0.036214 0.847000
0.015488 -0.000305 0.841000
-0.021637 0.004829 0.831000
-0.034640 0.013251 0.823000
0.000968 -0.019005 0.857000
-0.024551 -0.032455 0.849000
0.046296 0.008695 0.841000
0.048021 0.003179 0.847000
0.023655 0.035482 0.836000
-0.014468 -0.026609 0.852000
0.004007 0.019148 0.829000
0.014872 0.021799 0.826000
0.005176 -0.009788 0.853000
0.014053 0.001076 0.838000
-0.015368 0.016339 0.825000
-0.011971 -0.031756 0.849000
-0.017728 -0.020768 0.857000
-0.028145 -0.028713 0.852000
-0.039624 -0.014651 0.850000
0.047504 0.005947 0.844000
0.033369 0.007284 0.838000
-0.039478 0.014981 0.825000
0.040256 0.003172 0.845000
-0.030733 -0.036519 0.846000
-0.030913 0.014606 0.823000
-0.012655 -0.032417 0.848000
-0.035650 -0.010765 0.847000
-0.030946 -0.002359 0.833000
-0.026010 -0.012917 0.851000
0.025876 0.014389 0.830000
-0.039186 0.007180 0.826000
-0.040467 -0.017161 0.853000
0.005372 0.019148 0.829000
0.005540 -0.022128 0.855000
0.029187 0.017740 0.827000
0.012623 -0.012317 0.858000
0.016861 -0.011964 0.858000
0.035058 0.019148 0.829000
0.038094 -0.013039 0.859000
0.023533 0.001779 0.844000
-0.023993 -0.015072 0.854000
0.018127 0.008289 0.835000
0.015322 0.030518 0.832000
-0.052663 -0.001023 0.863000
-0.025459 -0.022153 0.856000
-0.016475 -0.007976 0.847000
-0.038833 -0.012523 0.848000
-0.028178 -0.026991 0.853000
0.008964 -0.006922 0.846000
0.000254 0.004493 0.832000
-0.020610 0.005513 0.831000
-0.021583 -0.022858 0.856000
-0.037746 -0.024943 0.855000
-0.005741 -0.017261 0.858000
-0.034808 -0.015037 0.852000
0.019774 0.029491 0.832000
-0.018081 -0.021121 0.857000
0.016291 0.013348 0.829000
0.017997 0.025972 0.829000
0.018427 0.010669 0.833000
-0.033716 -0.013968 0.851000
0.013329 -0.014789 0.858000
-0.040445 -0.004097 0.838000
0.022380 -0.023831 0.853000
-0.029933 0.010554 0.824000
-0.038506 0.016019 0.826000
-0.049771 0.002841 0.850000
-0.037652 -0.009696 0.845000
0.026313 0.000042 0.844000
0.039155 -0.014807 0.859000
-0.028677 -0.037259 0.847000
0.000615 -0.014419 0.857000
-0.006207 0.012620 0.826000
0.001655 -0.033115 0.848000
0.014690 -0.009811 0.855000
0.041593 -0.024826 0.851000
-0.011985 -0.030394 0.850000
-0.043913 -0.010740 0.845000
0.009378 -0.025557 0.852000
0.041647 0.010044 0.838000
-0.011704 -0.013682 0.855000
0.036560 0.007302 0.840000
-0.028846 -0.027661 0.852000
-0.004273 -0.033076 0.847000
0.000260 -0.030708 0.849000
0.015684 0.031240 0.833000
0.017231 0.020754 0.825000
-0.015575 -0.014386 0.855000
-0.042689 0.006175 0.828000
-0.004177 0.008901 0.828000
0.010794 -0.024884 0.853000
-0.028993 -0.004432 0.836000
0.026155 0.015717 0.828000
-0.049771 0.002491 0.850000
0.017013 -0.003099 0.848000
0.041894 -0.026546 0.850000
-0.030133 -0.007556 0.839000
0.028282 -0.003461 0.851000
-0.010993 0.006175 0.828000
-0.019443 0.010907 0.825000
0.004133 -0.022128 0.855000
-0.003971 -0.016183 0.857000
0.006395 0.011642 0.829000
0.024372 -0.029660 0.849000
0.019525 0.035138 0.836000
-0.035403 0.000041 0.833000
-0.048667 -0.006204 0.843000
-0.035076 -0.030744 0.850000
0.035061 -0.020696 0.854000
-0.042977 0.009571 0.827000
-0.042616 -0.006182 0.840000
-0.013919 -0.005490 0.840000
0.001310 -0.028645 0.850000
-0.014010 0.011925 0.825000
0.002007 -0.031058 0.849000
0.003413 -0.026928 0.851000
-0.031852 -0.033464 0.848000
-0.026547 -0.020768 0.857000
0.021960 0.007620 0.837000
-0.027749 -0.006873 0.840000
-0.016184 -0.030744 0.850000
-0.020512 -0.003420 0.841000
-0.022804 -0.032106 0.849000
0.031693 -0.009845 0.858000
-0.018060 -0.022506 0.856000
0.027243 0.027028 0.830000
0.008032 -0.016202 0.858000
-0.035384 -0.036649 0.849000
-0.016495 -0.032417 0.848000
-0.000442 -0.023156 0.854000
0.023143 0.027028 0.830000
0.033926 -0.024154 0.852000
0.016238 -0.001000 0.844000
0.027679 -0.006636 0.854000
-0.015241 -0.015460 0.856000
0.007938 -0.031370 0.848000
0.030770 -0.004166 0.852000
-0.007146 -0.016183 0.857000
-0.047682 0.000042 0.844000
0.006395 0.007889 0.829000
0.023186 0.001431 0.844000
0.017424 -0.005562 0.851000
-0.032666 -0.030430 0.851000
-0.028112 -0.029379 0.851000
-0.011661 0.018081 0.827000
-0.031591 0.014945 0.823000
0.037374 0.011382 0.835000
-0.019961 -0.034471 0.847000
0.030281 -0.009845 0.858000
0.000618 -0.034371 0.862000
0.008763 0.015017 0.827000
0.032324 -0.007709 0.856000
0.038094 -0.014100 0.859000
0.026181 -0.025527 0.851000
0.019153 -0.028295 0.850000
-0.017022 -0.019358 0.857000
-0.039962 0.004471 0.828000
-0.039765 0.002435 0.831000
-0.018514 0.007889 0.829000
0.002356 -0.030359 0.849000
0.001659 -0.029695 0.850000
0.038359 -0.017594 0.857000
-0.004676 -0.016183 0.857000
0.033264 -0.022427 0.853000
0.029904 0.017421 0.828000
-0.048667 -0.006898 0.843000
-0.000439 -0.033115 0.848000
-0.015611 -0.019005 0.857000
-0.013127 -0.021097 0.856000
-0.008070 -0.006551 0.843000
-0.001841 -0.027978 0.851000
0.015322 0.010657 0.832000
-0.034640 0.009864 0.823000
-0.009197 -0.010466 0.851000
-0.027827 0.000041 0.832000
0.018360 0.028053 0.830000
-0.029723 -0.034819 0.847000
-0.039992 -0.008285 0.843000
0.025411 0.017719 0.826000
-0.008108 -0.033425 0.847000
0.014329 0.006563 0.834000
0.028846 0.018762 0.827000
-0.029201 -0.009315 0.842000
-0.020776 0.014624 0.824000
-0.008888 -0.023183 0.855000
-0.050297 0.005308 0.853000
-0.000090 -0.024533 0.853000
0.000608 -0.032417 0.848000
0.012432 -0.005175 0.845000
-0.019752 -0.013299 0.853000
-0.025888 -0.009719 0.847000
0.015709 -0.024182 0.853000
0.020677 0.023187 0.827000
0.024780 -0.026227 0.851000
-0.024637 -0.003070 0.840000
-0.046916 -0.014285 0.849000
-0.032858 -0.018983 0.856000
0.038471 0.003863 0.844000
-0.024936 0.008210 0.827000
-0.010260 -0.027661 0.852000
-0.022508 -0.012567 0.851000
0.038699 0.000042 0.849000
0.019852 -0.004156 0.850000
0.023001 -0.027946 0.850000
0.034790 -0.018278 0.856000
0.019502 -0.027596 0.850000
0.020385 0.025290 0.829000
-0.010212 -0.032417 0.848000
-0.027444 -0.027661 0.852000
-0.033562 -0.021449 0.856000
-0.028178 -0.015405 0.853000
-0.001495 -0.010490 0.853000
-0.038459 0.007851 0.825000
-0.007907 0.011940 0.826000
-0.034640 0.012235 0.823000
-0.038270 -0.014669 0.851000
0.034404 0.008319 0.838000
-0.013832 -0.015107 0.856000
-0.018283 -0.010453 0.850000
-0.027573 -0.021449 0.856000
0.019525 -0.005562 0.851000
0.023740 0.016379 0.827000
-0.004859 0.009583 0.828000
-0.016407 0.010580 0.826000
0.029434 0.007936 0.834000
-0.009262 -0.017947 0.857000
-0.037044 -0.011114 0.847000
0.013823 -0.004479 0.845000
-0.030249 -0.014686 0.852000
0.019571 -0.023129 0.853000
0.023952 -0.011978 0.859000
-0.003915 -0.008305 0.845000
0.003062 -0.027278 0.851000
-0.029898 -0.014335 0.852000
0.016672 0.011670 0.831000
0.023115 0.014713 0.829000
-0.020293 0.004493 0.832000
0.018952 0.021459 0.826000
-0.005874 0.008550 0.827000
-0.039769 0.010215 0.824000
-0.047840 -0.017512 0.853000
0.011826 0.014337 0.827000
0.042094 0.001785 0.847000
-0.039531 -0.012523 0.848000
-0.012437 -0.020768 0.857000
-0.022288 -0.022506 0.856000
0.004469 -0.025907 0.852000
0.032718 0.005567 0.839000
-0.029409 -0.033813 0.848000
0.029614 -0.027913 0.849000
0.022774 0.014713 0.829000
-0.033106 0.006508 0.827000
0.017315 0.026313 0.829000
-0.003920 -0.008663 0.846000
-0.031965 -0.030080 0.851000
-0.050351 0.001089 0.848000
0.042094 0.002133 0.847000
0.026527 0.014713 0.829000
-0.030420 -0.034819 0.847000
0.017878 -0.009470 0.856000
-0.023518 0.009888 0.825000
0.005146 -0.032068 0.848000
0.018316 0.024919 0.828000
-0.035635 -0.023887 0.855000
-0.004976 -0.032068 0.848000
0.048951 0.006997 0.845000
-0.028429 -0.030744 0.850000
-0.026194 -0.019358 0.857000
-0.022616 -0.004464 0.842000
0.013676 0.003138 0.836000
0.002719 -0.024884 0.853000
-0.018154 -0.006211 0.844000
0.039589 0.017142 0.831000
-0.008247 0.012620 0.826000
0.027717 0.006906 0.834000
-0.032660 -0.001673 0.833000
0.013220 -0.027278 0.851000
0.046021 0.012772 0.836000
0.034317 -0.004171 0.853000
-0.018893 -0.007270 0.846000
0.006259 -0.018652 0.857000
-0.042585 0.008880 0.826000
0.030281 -0.016555 0.858000
0.017252 0.017039 0.826000
-0.015611 -0.017594 0.857000
0.034759 0.015755 0.830000
0.040508 0.005246 0.843000
-0.017406 0.012604 0.825000
0.022758 -0.021750 0.854000
0.019608 0.019395 0.825000
-0.021506 0.009900 0.826000
-0.039783 -0.019802 0.861000
-0.040674 -0.014651 0.850000
0.040940 -0.023803 0.852000
-0.049014 -0.004469 0.843000
-0.044133 -0.000303 0.836000
-0.000428 0.007879 0.828000
-0.030249 -0.028362 0.852000
0.024971 0.010339 0.834000
-0.036261 -0.009348 0.845000
-0.032268 0.010203 0.823000
0.002642 0.008912 0.829000
-0.012306 -0.009382 0.848000
0.006388 0.012650 0.828000
0.003425 -0.010503 0.854000
-0.046183 -0.000998 0.842000
0.004338 0.014677 0.827000
0.034181 0.005580 0.841000
0.005540 -0.021424 0.855000
-0.037576 0.004812 0.828000
0.024821 0.014713 0.829000
-0.009959 0.010252 0.827000
-0.003948 -0.026959 0.852000
0.040381 -0.020016 0.855000
0.025071 -0.028961 0.849000
-0.031936 -0.000644 0.832000
0.033210 0.012055 0.834000
0.004099 -0.031021 0.848000
0.005043 0.005513 0.831000
0.030084 0.011012 0.833000
0.027993 0.028463 0.832000
0.008326 -0.025206 0.852000
-0.031503 -0.033464 0.848000
0.021729 -0.021424 0.855000
0.045604 0.007657 0.841000
0.011563 -0.014789 0.858000
0.040144 -0.026546 0.850000
0.003052 -0.031021 0.848000
0.026749 -0.015849 0.858000
-0.007446 -0.027978 0.851000
0.019479 -0.029660 0.849000
0.027684 0.029869 0.833000
-0.043999 -0.005490 0.840000
-0.027573 -0.018278 0.856000
-0.003605 -0.023508 0.854000
0.039719 0.006618 0.841000
0.035619 -0.011271 0.859000
0.020334 0.003849 0.841000
0.016712 0.010327 0.833000
-0.015028 0.016000 0.825000
-0.023060 0.003470 0.833000
0.009007 -0.028295 0.850000
0.020062 -0.013746 0.859000
-0.030951 0.016320 0.824000
-0.041478 -0.010392 0.845000
0.008297 -0.030359 0.849000
0.001319 -0.012993 0.856000
-0.014367 0.017039 0.826000
-0.030214 -0.029730 0.851000
0.020383 0.001776 0.843000
0.025939 0.012369 0.832000
0.012240 0.007917 0.832000
0.019594 -0.022102 0.854000
0.028063 -0.006996 0.855000
0.001277 0.007889 0.829000
0.017239 0.001428 0.842000
0.020745 -0.016908 0.858000
0.025420 -0.002404 0.849000
-0.037307 -0.016810 0.853000
-0.016767 0.009912 0.827000
0.031946 -0.001699 0.846000
-0.020660 0.003470 0.833000
0.018634 0.023867 0.827000
0.031785 -0.026227 0.851000
-0.000090 -0.021776 0.855000
-0.040531 -0.012160 0.847000
0.012832 0.017719 0.826000
0.027455 -0.030681 0.858000
-0.004859 0.006857 0.828000
0.032084 -0.010918 0.859000
-0.036642 0.003116 0.830000
-0.038366 0.012235 0.823000
-0.040886 0.007180 0.826000
-0.006547 0.014319 0.826000
0.009626 -0.001693 0.843000
-0.038439 -0.011811 0.847000
0.039584 -0.023129 0.853000
-0.032512 -0.034819 0.847000
0.033459 -0.015496 0.858000
0.020093 0.028429 0.831000
-0.001109 0.013656 0.827000
0.020214 0.035482 0.836000
-0.042819 -0.009685 0.844000
-0.045031 -0.017863 0.853000
0.011917 -0.012671 0.858000
0.006237 -0.023859 0.854000
-0.041628 -0.006535 0.841000
-0.014197 -0.002023 0.836000
0.042717 -0.013626 0.874000
0.008297 -0.032455 0.849000
0.045966 0.017912 0.835000
-0.025735 -0.005503 0.842000
0.018627 -0.013024 0.858000
0.034018 0.008654 0.837000
-0.014061 0.009242 0.828000
-0.043575 -0.016439 0.852000
-0.023150 0.011572 0.824000
-0.025106 -0.017221 0.856000
0.027111 0.019419 0.826000
-0.002130 0.011954 0.827000
-0.010019 0.002438 0.832000
-0.005735 -0.020063 0.857000
0.034417 0.015414 0.830000
-0.019561 0.006532 0.830000
-0.039621 0.004812 0.828000
0.030548 0.020123 0.827000
0.026186 0.025290 0.829000
0.034086 -0.018630 0.856000
-0.042924 -0.017161 0.853000
-0.020462 0.016000 0.825000
-0.013968 -0.007245 0.843000
-0.048667 -0.005857 0.843000
0.044195 0.018577 0.834000
-0.023656 -0.004464 0.842000
-0.008497 -0.027978 0.851000
0.025159 -0.004867 0.852000
-0.023005 0.004829 0.831000
-0.003262 -0.021449 0.856000
0.021500 -0.000655 0.846000
-0.005527 0.013979 0.826000
-0.023796 -0.008673 0.847000
-0.000090 -0.027978 0.851000
0.022491 0.001084 0.844000
-0.034267 -0.023563 0.856000
0.027374 0.007250 0.834000
-0.004665 -0.022480 0.855000
-0.016358 -0.005151 0.841000
-0.045836 -0.007929 0.842000
0.023032 0.019419 0.826000
0.015816 0.001424 0.840000
-0.031402 -0.004776 0.836000
0.018294 0.023187 0.827000
0.005872 -0.026258 0.852000
-0.008267 0.006516 0.828000
-0.032201 -0.034511 0.848000
-0.033756 -0.029063 0.852000
-0.022314 -0.018652 0.857000
0.007994 -0.022453 0.854000
0.014972 -0.006263 0.851000
0.016219 -0.000652 0.843000
0.043165 0.014115 0.834000
0.010127 -0.020744 0.856000
0.008317 -0.026577 0.851000
0.001313 -0.026959 0.852000
-0.040935 0.005827 0.827000
-0.026574 0.017358 0.825000
-0.036046 0.001411 0.832000
-0.037826 0.006500 0.826000
0.023970 0.034065 0.835000
-0.002521 -0.006906 0.844000
-0.020032 -0.010803 0.850000
-0.023459 0.001416 0.835000
-0.032040 -0.027342 0.853000
-0.032467 -0.023887 0.855000
-0.008927 0.013299 0.826000
-0.010461 -0.005144 0.840000
-0.026523 -0.008653 0.845000
-0.040836 0.010907 0.825000
-0.031439 -0.005471 0.837000
-0.023045 -0.007610 0.845000
-0.038212 -0.007236 0.842000
0.026407 0.006579 0.836000
-0.028443 0.002774 0.830000
-0.010320 -0.020063 0.857000
0.016291 0.026996 0.829000
0.003661 0.012650 0.828000
-0.039044 -0.010044 0.845000
0.023255 0.032308 0.834000
0.011903 -0.019358 0.857000
0.047268 0.020934 0.846000
-0.012070 -0.014755 0.856000
-0.020610 -0.006914 0.845000
0.017301 -0.000654 0.845000
0.004458 -0.028295 0.850000
0.011653 0.000041 0.839000
0.046709 0.016557 0.836000
0.009114 0.013672 0.828000
0.032562 0.010008 0.835000
-0.021961 -0.018652 0.857000
0.006200 -0.030708 0.849000
0.040811 0.012413 0.835000
0.029670 0.013722 0.831000
0.020697 -0.018983 0.856000
-0.012306 -0.032766 0.848000
0.030244 0.023215 0.828000
-0.022133 0.014285 0.824000
-0.018720 -0.024211 0.854000
-0.037175 -0.013602 0.850000
0.014620 0.029113 0.831000
0.022692 0.019759 0.826000
-0.000788 -0.031719 0.848000
-0.030515 -0.007910 0.840000
-0.010349 0.003461 0.831000
0.036909 0.000740 0.848000
0.012916 -0.022102 0.854000
0.021477 -0.015514 0.859000
0.021564 0.034408 0.835000
0.020312 0.017719 0.826000
0.038169 0.003520 0.845000
-0.019759 0.013946 0.824000
-0.023603 0.007879 0.828000
-0.001109 0.012975 0.827000
-0.004293 -0.028329 0.851000
-0.036850 0.006508 0.827000
0.034417 0.022929 0.830000
-0.021457 -0.011867 0.851000
0.017294 0.014695 0.828000
0.004819 -0.025907 0.852000
0.031113 0.011698 0.833000
-0.047414 -0.018321 0.858000
-0.042895 0.002781 0.832000
0.033459 -0.009492 0.858000
0.029609 -0.012685 0.859000
-0.010461 -0.003416 0.840000
-0.028630 -0.019335 0.856000
-0.009262 -0.018652 0.857000
-0.005017 -0.022480 0.855000
-0.040595 0.006508 0.827000
0.022352 0.020099 0.826000
0.003088 -0.017261 0.858000
0.015684 0.009641 0.833000
-0.029793 -0.012188 0.849000
-0.052541 0.001106 0.861000
-0.041666 0.005153 0.828000
0.036948 -0.007365 0.857000
-0.012715 -0.011881 0.852000
0.021377 -0.008403 0.855000
-0.013331 0.014981 0.825000
-0.018413 -0.002379 0.840000
-0.000090 -0.010854 0.854000
-0.025208 0.000385 0.836000
-0.032153 -0.018630 0.856000
0.026188 0.003153 0.840000
0.038050 -0.008080 0.858000
-0.029255 0.015980 0.824000
0.031267 0.016740 0.828000
-0.003246 -0.026959 0.852000
-0.047671 -0.014302 0.850000
0.039970 0.008329 0.839000
0.033693 0.020172 0.829000
0.030208 0.019783 0.827000
0.020039 -0.011964 0.858000
0.008004 -0.022128 0.855000
0.005488 -0.004141 0.847000
-0.028512 0.000041 0.832000
-0.000090 -0.011922 0.855000
-0.006087 -0.019358 0.857000
0.028846 0.021485 0.827000
-0.029548 -0.014686 0.852000
0.006581 -0.024884 0.853000
0.001274 0.012975 0.827000
-0.029409 -0.033464 0.848000
0.032180 0.011369 0.834000
0.005734 0.004835 0.832000
-0.040021 -0.015369 0.851000
-0.010320 -0.018299 0.857000
0.031608 0.017080 0.828000
0.019893 0.007276 0.837000
-0.017604 -0.011516 0.851000
-0.029617 -0.025265 0.854000
-0.039880 -0.012523 0.848000
-0.034682 0.009198 0.824000
0.010139 -0.012303 0.857000
-0.050760 -0.001705 0.849000
-0.026330 0.006857 0.828000
0.010465 0.021144 0.827000
0.030548 0.021485 0.827000
0.043956 0.011740 0.836000
-0.000768 0.012294 0.827000
-0.035426 -0.013952 0.850000
-0.002551 -0.011206 0.854000
-0.019443 0.011925 0.825000
0.038244 0.008674 0.839000
0.002642 0.018807 0.829000
0.037741 -0.010210 0.859000
-0.004513 0.011273 0.827000
0.032373 0.005221 0.839000
0.029300 0.002116 0.840000
-0.004319 -0.013346 0.856000
-0.024936 0.007870 0.827000
-0.035103 -0.000645 0.834000
0.016065 0.034065 0.835000
0.025825 0.043265 1.000000
0.026850 -0.030045 0.850000
0.022459 -0.020040 0.856000
-0.027352 0.007197 0.828000
0.011875 -0.021776 0.855000
0.033170 0.012384 0.833000
-0.025958 0.007870 0.827000
0.009070 -0.019687 0.856000
-0.007236 0.007870 0.827000
-0.002205 -0.020744 0.856000
0.033807 -0.028612 0.849000
-0.035446 0.007520 0.826000
-0.024507 0.013267 0.824000
-0.000428 0.018103 0.828000
0.046572 0.003524 0.846000
0.027926 0.014730 0.830000
0.020250 -0.005919 0.852000
-0.038997 -0.008990 0.844000
0.016813 0.004870 0.838000
-0.003938 -0.030045 0.850000
