0.014573 -0.026782 0.869000
0.008125 -0.000314 0.868000
-0.010154 -0.020078 0.873000
-0.040595 -0.006137 0.834000
-0.026743 -0.010343 0.841000
-0.002158 0.011423 0.838000
-0.041331 -0.006145 0.835000
-0.016566 0.005877 0.834000
-0.033280 -0.026363 0.867000
0.022852 -0.022900 0.871000
-0.013385 -0.007305 0.850000
-0.046138 -0.020344 0.854000
0.022758 0.023233 0.841000
0.029509 0.022326 0.846000
0.006875 0.005613 0.846000
-0.034593 0.002774 0.830000
-0.020527 -0.026127 0.871000
0.033955 -0.003216 0.880000
-0.000092 -0.017224 0.874000
-0.011950 -0.020797 0.873000
-0.046570 -0.025147 0.862000
0.023845 0.005402 0.868000
-0.041822 -0.021349 0.852000
-0.006180 -0.026813 0.870000
0.025588 0.030227 0.843000
0.015429 -0.010785 0.877000
-0.034416 -0.006481 0.834000
-0.019651 -0.040141 0.864000
-0.004026 -0.029643 0.869000
0.009672 0.006665 0.847000
0.001293 0.011437 0.839000
0.013969 -0.012215 0.876000
0.035041 -0.001767 0.880000
-0.027862 -0.021674 0.865000
-0.032778 -0.006840 0.836000
-0.023946 -0.019538 0.865000
0.009488 -0.002796 0.862000
0.009400 0.003206 0.854000
-0.039657 -0.027759 0.866000
0.003369 0.011796 0.840000
0.016373 0.011600 0.851000
-0.018983 -0.035600 0.866000
-0.021936 -0.022516 0.870000
0.006361 -0.024334 0.871000
0.034465 0.028662 0.848000
0.037292 0.033508 0.865000
0.002334 0.010426 0.841000
0.032432 0.004380 0.878000
-0.004409 -0.017224 0.874000
0.004579 -0.019000 0.873000
-0.032023 -0.021954 0.862000
-0.023037 -0.024693 0.871000
-0.034968 -0.009973 0.839000
-0.047248 -0.018609 0.855000
-0.011232 -0.004833 0.846000
-0.043276 -0.026151 0.860000
-0.015526 -0.021850 0.872000
-0.029745 -0.032467 0.868000
0.026288 -0.007907 0.878000
0.005109 0.011131 0.842000
-0.002217 -0.008817 0.861000
-0.012566 -0.002038 0.842000
0.011917 0.001102 0.858000
-0.026767 0.001067 0.831000
0.000622 -0.032430 0.867000
-0.043377 -0.022831 0.855000
0.021932 0.007502 0.863000
0.033930 0.015635 0.861000
-0.052834 -0.008099 0.860000
-0.024002 -0.006196 0.842000
0.006368 -0.021850 0.872000
0.022065 0.021848 0.841000
0.002782 -0.009299 0.873000
0.020036 0.030921 0.843000
0.027199 0.016135 0.850000
-0.023375 0.003123 0.832000
0.001317 0.002506 0.855000
0.004210 -0.023976 0.871000
0.006750 -0.014362 0.875000
0.025100 0.014386 0.850000
-0.015211 0.005196 0.835000
-0.001531 -0.015425 0.874000
-0.007204 -0.001380 0.864000
0.016873 0.018387 0.841000
-0.032358 -0.034730 0.871000
0.037257 -0.000319 0.881000
0.033966 0.030937 0.853000
-0.035403 -0.006130 0.833000
-0.038045 -0.015279 0.846000
-0.037608 -0.013853 0.844000
0.008606 0.035168 0.845000
0.014070 0.018343 0.839000
0.013842 -0.000314 0.868000
0.022494 -0.022900 0.871000
-0.034350 -0.026363 0.867000
0.005663 -0.017583 0.874000
0.004763 0.009745 0.842000
-0.025796 -0.011422 0.844000
0.014640 -0.027624 0.873000
0.012902 -0.010424 0.877000
-0.032744 -0.012116 0.844000
-0.007952 -0.031753 0.868000
0.021830 0.009588 0.859000
0.029153 0.012021 0.856000
0.033839 -0.008259 0.877000
-0.021049 -0.041870 0.863000
-0.041036 -0.007529 0.836000
-0.013385 -0.007655 0.850000
0.009282 -0.012576 0.876000
-0.029422 -0.026067 0.869000
0.012704 0.016636 0.840000
0.004558 -0.028213 0.869000
0.025557 0.022567 0.842000
0.029013 -0.019000 0.873000
0.040245 -0.012922 0.875000
0.001642 0.007657 0.841000
-0.028061 -0.006865 0.839000
0.040239 0.025290 0.852000
-0.029575 -0.003044 0.833000
-0.014523 0.005196 0.835000
-0.041282 -0.004078 0.834000
0.020392 0.009577 0.858000
-0.010103 0.002804 0.839000
-0.019117 -0.011232 0.856000
0.014778 0.025280 0.840000
-0.032582 0.004145 0.831000
0.012858 -0.004274 0.874000
-0.013686 -0.005536 0.847000
0.029246 -0.002492 0.880000
-0.008347 -0.022926 0.872000
0.003026 0.017695 0.841000
-0.046707 -0.022205 0.858000
0.024730 0.002202 0.874000
0.020725 -0.019696 0.872000
-0.026334 -0.005484 0.839000
-0.017997 -0.028603 0.870000
-0.002158 0.013148 0.838000
-0.044173 -0.012552 0.850000
-0.015338 -0.001345 0.842000
-0.015898 0.008633 0.835000
-0.017436 -0.012700 0.860000
-0.004953 0.000389 0.844000
-0.018017 -0.023259 0.871000
-0.039518 -0.005444 0.833000
-0.019974 0.003470 0.833000
-0.043926 -0.020647 0.852000
-0.031926 -0.027855 0.869000
-0.032153 -0.018630 0.856000
0.044159 0.018599 0.867000
0.039524 -0.012561 0.875000
-0.045275 -0.017471 0.851000
0.018581 0.023551 0.840000
0.028621 -0.020055 0.872000
-0.037713 -0.003379 0.831000
-0.025487 -0.029643 0.869000
-0.012117 0.007258 0.835000
-0.040578 -0.015664 0.848000
0.010967 0.027516 0.927000
-0.051539 -0.017463 0.868000
-0.024494 -0.011462 0.847000
-0.001166 -0.026813 0.870000
0.011060 -0.004993 0.874000
-0.025430 0.005863 0.832000
0.033230 -0.002854 0.880000
0.015324 -0.023976 0.871000
0.000983 -0.024693 0.871000
-0.044925 -0.012917 0.851000
-0.013836 0.008633 0.835000
0.011793 -0.014002 0.875000
0.012858 -0.017943 0.874000
0.025602 0.006109 0.867000
0.037917 0.032365 0.863000
0.025566 -0.000318 0.878000
0.027373 -0.007545 0.878000
0.013953 -0.004278 0.875000
0.029440 0.004725 0.875000
-0.014723 -0.015658 0.867000
-0.036686 -0.004405 0.831000
-0.009435 -0.018641 0.873000
0.026498 0.003996 0.873000
-0.006173 -0.028213 0.869000
-0.027895 -0.035600 0.866000
-0.036636 -0.024792 0.862000
0.031057 -0.002492 0.880000
0.035964 0.007615 0.876000
0.012719 0.015618 0.841000
0.026488 0.007839 0.861000
-0.015167 -0.022209 0.872000
-0.018961 -0.039119 0.865000
0.033536 0.021057 0.851000
-0.032474 -0.013190 0.846000
0.029092 0.024011 0.844000
-0.027307 -0.025739 0.870000
0.028818 0.001850 0.878000
0.011694 0.014597 0.842000
-0.009693 -0.011692 0.864000
-0.013621 -0.038763 0.865000
0.032447 0.021382 0.850000
0.032284 -0.016504 0.874000
-0.012219 -0.001691 0.842000
0.029868 0.003292 0.877000
-0.011591 -0.020797 0.873000
0.039520 0.014673 0.867000
0.029036 0.007857 0.863000
-0.027991 -0.024636 0.869000
0.021777 0.002552 0.871000
0.005631 -0.027497 0.869000
0.043345 0.018912 0.865000
-0.025539 -0.013205 0.847000
0.016777 -0.021850 0.872000
0.017178 0.022142 0.839000
-0.035446 -0.007167 0.834000
-0.017161 -0.039785 0.864000
-0.025875 -0.025739 0.870000
-0.036652 -0.014583 0.846000
0.026597 0.024993 0.842000
-0.009044 -0.014280 0.870000
0.000948 0.009722 0.840000
0.011348 0.030192 0.842000
0.025566 -0.008268 0.878000
-0.049168 -0.020583 0.864000
-0.028061 -0.008591 0.839000
-0.018376 -0.023617 0.871000
0.026318 -0.003213 0.879000
-0.039644 -0.023971 0.858000
0.020506 -0.003570 0.878000
-0.019295 -0.042630 0.864000
0.011778 0.007022 0.848000
-0.005035 -0.008433 0.858000
0.014743 0.021770 0.838000
0.026850 0.014735 0.850000
-0.035944 -0.019290 0.854000
0.024692 0.018191 0.848000
-0.014523 0.004853 0.835000
-0.032543 -0.001667 0.830000
-0.020951 -0.013746 0.859000
0.015985 0.012971 0.849000
0.020366 -0.020055 0.872000
0.003485 -0.027855 0.869000
-0.030144 -0.019049 0.859000
0.033773 0.017679 0.857000
-0.004918 0.012803 0.838000
0.042189 0.024704 0.856000
-0.009046 0.012443 0.837000
0.011354 -0.027140 0.869000
-0.021885 -0.032824 0.868000
0.030695 -0.002854 0.880000
-0.002243 -0.023259 0.871000
0.038488 -0.011855 0.876000
0.016242 0.062212 1.735000
0.012947 -0.028932 0.880000
-0.042717 -0.008969 0.842000
-0.022243 -0.004112 0.841000
0.019712 0.032695 0.844000
0.019040 0.017083 0.845000
-0.031822 -0.036732 0.876000
0.023186 0.031653 0.844000
0.000625 -0.023259 0.871000
-0.033484 -0.017884 0.854000
-0.020574 -0.013377 0.858000
0.019852 0.014036 0.850000
0.021590 -0.007184 0.878000
0.032308 0.011791 0.865000
-0.012805 0.007258 0.835000
0.011348 0.029845 0.842000
0.019525 0.013702 0.851000
-0.010107 -0.028928 0.869000
0.015340 0.010211 0.852000
-0.006194 -0.022568 0.872000
-0.033932 -0.009282 0.839000
-0.025328 -0.005490 0.840000
-0.016942 -0.025768 0.871000
0.032247 -0.017204 0.873000
0.038672 0.016401 0.864000
-0.039520 -0.026597 0.863000
-0.027665 -0.027171 0.870000
0.020701 0.001835 0.871000
0.002766 -0.029609 0.868000
0.012041 0.014597 0.842000
-0.007341 0.005567 0.839000
0.023705 -0.012215 0.876000
0.014937 0.011923 0.849000
-0.023454 -0.015886 0.860000
0.018257 0.018733 0.841000
-0.017639 -0.027887 0.870000
0.036509 0.020453 0.855000
-0.025875 -0.027171 0.870000
-0.029388 -0.032467 0.868000
-0.003330 -0.013986 0.874000
-0.000807 -0.027855 0.869000
-0.010200 -0.004490 0.847000
-0.020951 -0.014100 0.859000
0.009950 0.014926 0.841000
0.001704 -0.020438 0.873000
0.017595 -0.003566 0.877000
-0.024145 -0.011114 0.847000
0.031767 0.014909 0.860000
0.013158 0.012243 0.847000
0.010688 -0.018282 0.873000
0.014707 -0.010785 0.877000
-0.012924 -0.035957 0.866000
-0.021057 -0.007995 0.849000
-0.018326 -0.008374 0.852000
-0.032621 -0.003726 0.832000
-0.010142 -0.021850 0.872000
0.002066 -0.017943 0.874000
-0.030178 -0.015351 0.850000
0.006989 -0.002081 0.860000
-0.028203 -0.002016 0.833000
0.009581 0.023523 0.839000
-0.019628 -0.015941 0.863000
-0.027793 0.003119 0.831000
0.031486 0.012815 0.862000
0.032135 0.020357 0.851000
0.003843 -0.027855 0.869000
0.028814 0.006823 0.867000
-0.043326 -0.022102 0.854000
0.011722 0.034084 0.844000
0.034709 0.020429 0.854000
-0.032201 -0.001667 0.830000
0.021052 0.029152 0.842000
0.009282 -0.008610 0.876000
0.026139 -0.018641 0.873000
-0.045894 -0.022153 0.856000
-0.014432 -0.025768 0.871000
0.010015 -0.010063 0.877000
0.040067 -0.004298 0.879000
-0.023699 -0.028928 0.869000
0.005103 0.019079 0.841000
0.024509 -0.002851 0.879000
-0.025282 -0.018406 0.862000
0.037724 -0.013282 0.875000
0.016853 0.024588 0.840000
-0.009122 -0.002390 0.844000
0.035910 0.013587 0.866000
0.014884 0.013622 0.846000
0.015718 -0.018282 0.873000
-0.018852 -0.013762 0.860000
0.025957 -0.005745 0.879000
-0.012805 0.009320 0.835000
-0.038535 -0.007511 0.834000
-0.026949 -0.028603 0.870000
0.030057 -0.020055 0.872000
0.032966 0.007589 0.873000
-0.047082 -0.014335 0.852000
0.038532 -0.008620 0.877000
0.032644 -0.016144 0.874000
-0.024744 -0.033182 0.868000
-0.020046 0.009332 0.836000
-0.039908 -0.006137 0.834000
-0.016132 -0.036313 0.866000
-0.025875 -0.026813 0.870000
-0.035226 -0.027919 0.871000
-0.001530 -0.020438 0.873000
-0.031058 -0.005808 0.836000
0.016527 0.027040 0.841000
0.013395 0.025971 0.840000
-0.013492 0.005196 0.835000
0.017239 0.029498 0.842000
-0.000092 -0.026097 0.870000
-0.022428 -0.008335 0.848000
0.020678 0.002550 0.870000
0.018103 0.012986 0.850000
0.026318 -0.000318 0.879000
-0.003631 -0.008807 0.860000
-0.010411 0.009332 0.836000
0.005450 0.013195 0.841000
0.003026 0.017349 0.841000
-0.030600 -0.038359 0.872000
0.000268 -0.013282 0.875000
0.029339 0.006144 0.872000
0.005109 0.008012 0.842000
-0.010411 0.010020 0.836000
0.041485 0.022943 0.856000
0.022354 0.013367 0.852000
-0.007279 -0.021156 0.873000
-0.018376 -0.023259 0.871000
-0.025087 0.002781 0.832000
-0.029031 -0.023893 0.868000
0.041828 -0.006100 0.878000
0.030333 -0.001767 0.880000
0.017977 -0.007184 0.878000
-0.015229 0.010708 0.836000
-0.025117 0.007241 0.833000
-0.023628 -0.004804 0.841000
0.011944 0.000042 0.860000
-0.048304 -0.015793 0.855000
-0.029681 -0.004776 0.836000
0.015051 -0.012215 0.876000
0.018550 -0.023259 0.871000
0.031782 0.001130 0.880000
0.015232 0.036603 0.846000
-0.016909 0.007250 0.834000
0.020431 0.033777 0.845000
0.026827 -0.019337 0.872000
-0.029422 -0.029286 0.869000
-0.009761 -0.027171 0.870000
0.036996 0.024531 0.850000
-0.007851 -0.009129 0.857000
-0.013164 0.011396 0.836000
0.036296 0.030478 0.850000
-0.008701 0.011065 0.837000
0.033878 -0.007184 0.878000
0.006281 -0.002789 0.860000
-0.007933 -0.034531 0.866000
0.011667 0.016291 0.840000
-0.024801 -0.026813 0.870000
0.037740 0.023509 0.851000
0.032966 -0.018282 0.873000
0.005103 0.012156 0.841000
-0.023617 -0.035600 0.866000
0.023955 -0.020773 0.872000
-0.043831 -0.023943 0.857000
0.007197 0.011144 0.843000
-0.009758 0.003840 0.839000
-0.007988 -0.015031 0.872000
-0.011895 -0.028213 0.869000
0.008789 -0.003509 0.863000
0.044668 -0.008259 0.877000
-0.023503 -0.010441 0.849000
0.002059 -0.008202 0.871000
0.029541 0.002934 0.878000
-0.033043 -0.005794 0.834000
-0.027716 -0.007556 0.839000
0.041229 0.021584 0.858000
0.012499 -0.004274 0.874000
0.012513 -0.004999 0.875000
-0.005959 0.005567 0.839000
0.011563 0.000749 0.858000
-0.022032 0.002784 0.833000
0.040002 0.018491 0.862000
-0.023726 -0.028245 0.870000
-0.034579 -0.018960 0.855000
0.031276 0.005091 0.876000
0.004553 -0.029252 0.868000
-0.022984 -0.030716 0.869000
-0.024637 -0.004453 0.840000
0.013937 -0.017943 0.874000
-0.023180 -0.041870 0.863000
0.022465 0.029187 0.843000
-0.022904 -0.037026 0.866000
-0.012640 -0.025410 0.871000
0.007901 0.035127 0.844000
-0.022032 0.006212 0.833000
-0.016113 -0.038407 0.865000
0.011736 0.012910 0.845000
0.016142 0.021106 0.839000
-0.020409 -0.017779 0.866000
-0.046980 -0.024821 0.863000
0.037724 -0.014002 0.875000
0.031782 -0.002130 0.880000
0.021900 0.016446 0.848000
0.002738 -0.004907 0.859000
0.026975 0.022594 0.843000
0.038227 0.033037 0.862000
0.010316 -0.021491 0.872000
0.012343 0.018343 0.839000
0.014948 -0.026097 0.870000
0.022971 0.008203 0.862000
0.023824 0.027419 0.842000
0.005670 -0.009680 0.875000
0.020249 0.003968 0.867000
0.031419 0.001854 0.880000
-0.005952 0.014183 0.838000
0.004927 -0.024334 0.871000
0.038395 0.026630 0.850000
0.031804 0.013863 0.861000
0.011393 -0.020414 0.872000
-0.025772 -0.000301 0.832000
0.030660 -0.007554 0.879000
0.025868 -0.011494 0.876000
0.020701 -0.023617 0.871000
0.027071 0.020585 0.846000
-0.013977 -0.040187 0.865000
-0.013637 -0.035244 0.866000
0.015543 0.015326 0.844000
-0.012190 0.001079 0.840000
-0.025159 -0.028603 0.870000
-0.022294 -0.026813 0.870000
-0.049879 -0.018449 0.864000
-0.028923 -0.012464 0.844000
-0.029478 -0.016051 0.850000
0.023159 0.030227 0.843000
-0.002950 -0.030324 0.868000
-0.014432 -0.024334 0.871000
-0.032378 -0.021954 0.862000
-0.042922 -0.026151 0.860000
0.030195 0.004009 0.876000
-0.020574 -0.013024 0.858000
0.008943 0.033390 0.844000
-0.020339 -0.016296 0.863000
-0.032543 0.003116 0.830000
-0.018355 -0.028245 0.870000
0.037249 0.032047 0.864000
0.023424 -0.006107 0.879000
-0.023699 -0.030716 0.869000
-0.021195 -0.029286 0.869000
-0.004040 -0.021850 0.872000
0.032437 0.015599 0.859000
-0.000092 -0.010365 0.872000
0.024673 -0.020773 0.872000
-0.050766 -0.018513 0.867000
-0.024407 -0.009337 0.844000
-0.017659 -0.020391 0.871000
-0.024956 -0.042226 0.863000
0.012749 0.014614 0.843000
0.025061 0.003277 0.873000
-0.049409 -0.018051 0.862000
-0.020862 -0.021800 0.870000
0.014052 0.001810 0.859000
-0.017293 0.002106 0.836000
-0.002163 0.006610 0.840000
0.004950 -0.015803 0.875000
-0.020838 -0.029286 0.869000
0.035861 0.027266 0.848000
-0.025772 0.004150 0.832000
-0.023341 -0.029643 0.869000
-0.022878 -0.018470 0.865000
-0.038443 -0.004753 0.832000
0.025965 0.030263 0.844000
0.011307 0.018689 0.839000
0.022212 -0.016864 0.874000
0.011171 0.002506 0.855000
0.028687 0.004360 0.874000
-0.049764 -0.017342 0.862000
0.016833 0.023178 0.839000
-0.009348 -0.011706 0.865000
0.018927 0.020094 0.840000
0.038045 0.027330 0.850000
0.027103 0.020261 0.847000
-0.032240 0.004487 0.831000
-0.013993 -0.036669 0.866000
-0.022616 -0.004810 0.842000
0.029579 0.020983 0.848000
0.015359 -0.019360 0.873000
-0.023531 -0.011153 0.850000
0.001706 -0.018662 0.874000
0.030351 0.011369 0.860000
-0.002243 -0.023617 0.871000
0.009676 -0.030346 0.879000
0.020868 -0.005739 0.878000
0.021418 -0.022900 0.871000
0.002680 0.010772 0.841000
0.010284 0.027008 0.840000
-0.013836 0.009320 0.835000
-0.013492 0.010008 0.835000
-0.029016 -0.018299 0.857000
-0.032604 -0.026394 0.868000
-0.018896 -0.014504 0.862000
0.020039 0.009577 0.858000
-0.028474 -0.011035 0.841000
0.025211 0.025686 0.842000
0.011249 -0.001021 0.861000
0.024843 -0.000679 0.878000
-0.032771 -0.023045 0.863000
0.003449 -0.004913 0.860000
-0.003300 -0.034887 0.866000
-0.015211 0.005884 0.835000
0.003501 -0.020078 0.873000
-0.022957 -0.032110 0.868000
-0.026115 0.005178 0.832000
0.014154 0.033042 0.844000
0.016200 0.028459 0.842000
0.036685 0.032853 0.876000
0.006480 0.014908 0.840000
-0.000779 0.012473 0.839000
0.019626 -0.022183 0.871000
0.022518 0.018822 0.845000
-0.021810 -0.018114 0.865000
-0.036642 -0.002350 0.830000
-0.025517 -0.026097 0.870000
0.003719 0.010426 0.841000
-0.003887 0.007293 0.839000
0.032681 -0.014362 0.875000
-0.029575 -0.003387 0.833000
-0.014941 -0.011271 0.859000
-0.049359 -0.012978 0.855000
-0.011591 -0.020438 0.873000
-0.017161 -0.040852 0.864000
0.018475 0.013001 0.851000
-0.019385 -0.018534 0.868000
0.023317 -0.015082 0.875000
-0.009772 -0.024693 0.871000
-0.000452 -0.017943 0.874000
0.019342 0.031268 0.843000
-0.000092 -0.033500 0.867000
0.004944 -0.016504 0.874000
-0.001170 -0.019360 0.873000
0.010009 0.037299 0.846000
-0.051302 -0.014893 0.864000
-0.026993 -0.005132 0.838000
0.030298 0.002214 0.879000
0.018996 -0.013642 0.875000
-0.028641 -0.034214 0.867000
0.028464 0.021282 0.846000
0.020773 -0.017224 0.874000
0.006398 -0.013657 0.876000
0.022571 0.017821 0.847000
-0.050946 -0.015960 0.864000
-0.006634 0.008654 0.837000
0.041533 0.022264 0.857000
0.037321 -0.015065 0.874000
0.041969 0.017151 0.866000
0.008258 0.006650 0.845000
0.010271 0.016962 0.839000
0.003377 0.009398 0.842000
0.044312 0.016514 0.870000
-0.005129 -0.016144 0.874000
0.037565 0.021156 0.855000
-0.037910 -0.013143 0.843000
-0.010773 -0.037695 0.865000
-0.003665 -0.031753 0.868000
0.007102 -0.016864 0.874000
-0.014058 -0.027171 0.870000
0.039114 0.002222 0.882000
-0.027088 -0.020203 0.863000
0.000951 0.005240 0.842000
0.012167 -0.005725 0.876000
-0.009435 -0.020078 0.873000
-0.000434 0.013854 0.839000
-0.028145 -0.017141 0.852000
-0.004031 -0.025739 0.870000
-0.012567 -0.036313 0.866000
-0.005099 -0.029643 0.869000
0.015538 0.003239 0.863000
-0.041282 -0.005108 0.834000
-0.043072 -0.028018 0.863000
0.015160 0.016676 0.842000
-0.009794 -0.019000 0.873000
-0.016583 -0.018957 0.871000
0.037172 -0.005383 0.879000
-0.024202 -0.012538 0.849000
-0.048191 -0.012597 0.853000
0.017920 0.008165 0.858000
0.007437 -0.022900 0.871000
-0.031860 -0.008246 0.839000
0.010781 0.004250 0.852000
0.024923 0.030611 0.844000
0.039839 -0.015065 0.874000
-0.026896 -0.002708 0.835000
0.003860 -0.008580 0.873000
0.023881 0.019842 0.844000
-0.021961 -0.025410 0.871000
-0.036775 -0.006130 0.833000
0.031205 -0.016504 0.874000
0.013491 0.012925 0.846000
0.008759 -0.001727 0.860000
0.027011 -0.006461 0.878000
-0.027182 -0.036313 0.866000
-0.000449 -0.031038 0.868000
0.009649 0.035168 0.845000
-0.002506 0.009020 0.839000
0.008551 -0.015082 0.875000
0.024398 -0.012922 0.875000
-0.035860 -0.018193 0.852000
0.014450 0.027733 0.841000
0.015451 0.021796 0.839000
0.029255 0.010649 0.859000
0.016117 0.008145 0.856000
-0.021578 -0.026455 0.870000
-0.001887 -0.021132 0.872000
-0.006912 -0.022568 0.872000
-0.004736 -0.030681 0.868000
0.009455 -0.000311 0.859000
-0.034013 -0.010689 0.841000
0.007206 0.034779 0.844000
-0.022157 -0.009765 0.851000
0.018581 0.022168 0.840000
0.040790 -0.005022 0.879000
-0.030277 -0.011755 0.843000
-0.029064 -0.025709 0.869000
0.006704 -0.027855 0.869000
-0.019937 -0.014841 0.861000
0.033993 -0.000319 0.881000
0.029575 0.002214 0.879000
-0.010449 0.001768 0.839000
-0.041725 -0.006152 0.836000
0.019759 0.036254 0.846000
-0.045626 -0.013968 0.851000
0.032060 0.021707 0.849000
0.010667 0.032309 0.843000
0.010455 0.002854 0.854000
0.017899 0.008860 0.857000
0.031057 0.001130 0.880000
0.030865 0.025778 0.845000
0.004763 0.010092 0.842000
-0.041675 -0.004426 0.835000
0.035644 -0.008981 0.877000
-0.029132 -0.010330 0.840000
-0.028135 0.002093 0.831000
0.012870 0.005996 0.851000
0.042781 0.016119 0.868000
0.010259 0.020736 0.838000
0.016041 0.010562 0.852000
0.025648 0.020213 0.845000
0.025934 0.029534 0.843000
-0.030872 0.004487 0.831000
0.036224 0.035645 0.865000
-0.006888 -0.012475 0.869000
-0.040277 -0.017779 0.849000
-0.034507 -0.023373 0.862000
-0.049302 -0.012260 0.854000
0.010271 0.022487 0.839000
-0.026233 -0.025022 0.870000
-0.009390 0.011410 0.837000
-0.016339 0.000041 0.840000
0.027797 -0.008287 0.880000
0.028096 0.011669 0.856000
-0.011100 0.008987 0.836000
-0.025517 -0.027529 0.870000
-0.023672 -0.031395 0.868000
0.015376 -0.017224 0.874000
-0.006880 -0.031395 0.868000
0.016151 -0.005010 0.877000
-0.029999 -0.022742 0.865000
0.026139 -0.022234 0.873000
-0.011525 -0.014247 0.868000
0.013158 0.011197 0.847000
0.029936 -0.004298 0.879000
-0.044627 -0.020297 0.852000
-0.041179 -0.013886 0.846000
0.023078 0.006102 0.866000
-0.012998 -0.016806 0.871000
0.014450 0.017002 0.841000
-0.050590 -0.017026 0.864000
0.036894 0.002582 0.881000
-0.018282 0.007936 0.834000
0.019061 -0.003932 0.878000
-0.044240 -0.028439 0.865000
-0.024414 -0.028928 0.869000
-0.044545 -0.009914 0.864000
-0.000812 -0.012547 0.874000
0.006727 -0.021491 0.872000
0.025032 -0.020414 0.872000
0.019988 0.026694 0.841000
-0.040203 -0.002016 0.833000
-0.034215 -0.013538 0.846000
0.012432 0.034820 0.845000
0.016238 0.016021 0.844000
-0.008696 -0.025051 0.871000
-0.013372 -0.020055 0.872000
0.015232 0.036951 0.846000
-0.021845 -0.002721 0.839000
0.018972 0.028112 0.842000
-0.028023 -0.027529 0.870000
-0.023060 0.006898 0.833000
-0.029162 0.002777 0.831000
-0.030835 0.003116 0.830000
-0.007682 -0.038262 0.878000
-0.008012 0.011065 0.837000
-0.017722 -0.000996 0.840000
0.027322 0.024329 0.843000
0.009950 0.028079 0.841000
-0.031860 0.000724 0.830000
0.005789 0.014908 0.840000
-0.010513 -0.020078 0.873000
0.011680 0.027387 0.841000
-0.043524 -0.019572 0.851000
0.019689 0.030574 0.843000
0.031925 -0.016144 0.874000
-0.006530 -0.029643 0.869000
-0.012219 -0.002384 0.842000
0.038084 -0.012201 0.875000
0.009649 0.008389 0.845000
0.029608 0.000043 0.880000
0.035444 -0.000319 0.881000
-0.004589 0.002811 0.841000
-0.045626 -0.017121 0.851000
-0.025989 -0.005138 0.839000
0.004070 0.009745 0.842000
0.038804 -0.013642 0.875000
-0.002960 -0.023259 0.871000
0.029718 0.016874 0.852000
0.019273 0.023205 0.840000
0.012499 -0.017224 0.874000
0.037363 -0.014002 0.875000
-0.017300 -0.020391 0.871000
0.012689 0.018689 0.839000
0.035596 0.023132 0.850000
0.018296 -0.011855 0.876000
0.029970 -0.000319 0.880000
0.027576 -0.017204 0.873000
0.021181 -0.011494 0.876000
0.010305 -0.023617 0.871000
0.038711 0.020853 0.857000
0.012810 0.038737 0.847000
-0.032733 -0.022309 0.862000
-0.040467 -0.021374 0.853000
0.033193 -0.005745 0.879000
0.003142 -0.020438 0.873000
0.027797 -0.000681 0.880000
-0.018334 -0.018556 0.869000
0.038488 -0.010052 0.876000
0.012916 0.003909 0.854000
0.033418 0.027964 0.848000
-0.040134 -0.014583 0.846000
-0.003197 0.014890 0.839000
-0.030872 -0.001669 0.831000
-0.020878 -0.012289 0.856000
0.038345 -0.000319 0.881000
-0.030348 -0.012826 0.845000
0.031565 0.006158 0.874000
0.011793 -0.015443 0.875000
0.029474 0.028212 0.845000
0.043274 -0.006461 0.878000
0.018927 0.020785 0.840000
-0.019655 0.007593 0.834000
0.038847 0.031899 0.860000
-0.003315 -0.025739 0.870000
0.004558 -0.028570 0.869000
-0.022374 0.005870 0.833000
0.010340 -0.016504 0.874000
0.024342 -0.018641 0.873000
0.027073 -0.001767 0.880000
0.041514 -0.004660 0.879000
0.034200 -0.009703 0.877000
-0.030853 -0.030716 0.869000
-0.021961 -0.023617 0.871000
-0.028477 0.002093 0.831000
0.032457 0.009700 0.869000
-0.003197 0.008329 0.839000
-0.025042 -0.008969 0.842000
0.017175 -0.017224 0.874000
-0.027025 -0.006174 0.839000
0.003389 0.004215 0.845000
-0.009100 -0.000998 0.842000
-0.033954 -0.020063 0.857000
0.005796 0.013195 0.841000
-0.049706 -0.016613 0.861000
-0.022693 -0.014789 0.858000
0.020343 -0.022183 0.871000
0.041733 -0.011134 0.876000
0.013263 -0.006454 0.877000
0.029928 0.020983 0.848000
-0.024358 -0.033143 0.867000
-0.047433 -0.015037 0.852000
0.032506 0.001854 0.880000
0.005670 -0.014362 0.875000
0.031022 -0.005745 0.879000
-0.025491 -0.001332 0.834000
0.026857 -0.018641 0.873000
-0.021689 0.004498 0.833000
0.043946 -0.008620 0.877000
-0.034390 -0.028180 0.868000
-0.029846 -0.002011 0.831000
0.022571 -0.015785 0.874000
0.012825 0.009465 0.848000
0.000626 -0.019000 0.873000
0.028522 0.000043 0.880000
-0.020169 -0.023976 0.871000
0.013112 0.033390 0.844000
-0.006888 -0.028928 0.869000
0.035246 0.023132 0.850000
0.023397 -0.001402 0.878000
-0.008319 -0.013191 0.869000
-0.011887 -0.002734 0.843000
-0.013326 -0.028570 0.869000
-0.018271 -0.035600 0.866000
-0.027701 -0.018717 0.860000
0.019716 -0.013642 0.875000
0.011321 0.026663 0.840000
0.000267 -0.021850 0.872000
-0.022825 -0.017717 0.863000
-0.023918 -0.041208 0.864000
0.006850 0.008022 0.843000
0.014338 0.005321 0.855000
-0.008338 -0.025410 0.871000
0.012734 0.029498 0.842000
0.024645 -0.021825 0.871000
0.021719 0.027040 0.841000
0.023881 0.020189 0.844000
0.013874 -0.024664 0.870000
0.027167 0.018212 0.849000
-0.013372 -0.022926 0.872000
0.036076 0.011143 0.870000
-0.027570 -0.035284 0.867000
0.032447 0.021033 0.850000
-0.028316 -0.031395 0.868000
-0.032884 -0.001667 0.830000
-0.009359 -0.036313 0.866000
-0.006872 -0.032430 0.867000
-0.030442 -0.006512 0.838000
-0.034522 -0.013174 0.845000
0.018192 -0.022542 0.871000
0.020359 0.028112 0.842000
0.026250 0.027766 0.842000
0.020036 0.018431 0.843000
0.025904 0.027073 0.842000
-0.012132 0.009676 0.836000
-0.037955 -0.013853 0.844000
-0.048530 -0.018342 0.859000
0.030590 0.004014 0.877000
-0.010411 0.008299 0.836000
0.038045 0.028030 0.850000
-0.021923 -0.004464 0.842000
-0.009046 0.007276 0.837000
-0.044575 -0.013268 0.851000
0.013491 0.037299 0.846000
0.008932 0.032656 0.843000
-0.023208 -0.011516 0.851000
-0.003315 -0.010699 0.870000
0.018518 0.011628 0.853000
0.018273 0.008518 0.858000
0.033839 0.005458 0.877000
-0.000779 0.012818 0.839000
0.008522 -0.005340 0.872000
-0.029354 -0.023866 0.867000
0.023651 -0.015785 0.874000
0.034356 0.000044 0.881000
0.013158 0.039435 0.847000
0.017465 0.011277 0.853000
-0.015320 -0.000651 0.841000
-0.019590 -0.005181 0.846000
0.041805 0.014724 0.870000
-0.034251 -0.001325 0.830000
0.009661 0.037995 0.846000
0.004568 -0.022900 0.871000
0.018275 -0.013642 0.875000
0.036894 0.034892 0.864000
-0.011854 -0.034531 0.866000
-0.043823 -0.018850 0.850000
0.015051 -0.013297 0.876000
0.030625 -0.006461 0.878000
0.039862 0.031508 0.859000
0.034763 -0.017922 0.873000
-0.005482 -0.020797 0.873000
0.015429 -0.010063 0.877000
0.017813 -0.025022 0.870000
-0.040300 -0.006832 0.835000
0.004882 -0.005640 0.863000
-0.031176 0.001749 0.830000
-0.019452 -0.025051 0.871000
-0.030817 -0.026037 0.868000
-0.000780 0.016636 0.840000
-0.037345 -0.025147 0.862000
0.031946 0.024764 0.846000
0.017077 0.001116 0.869000
0.003869 -0.012561 0.875000
0.034044 -0.017204 0.873000
-0.017181 -0.037695 0.865000
-0.040865 -0.022102 0.854000
-0.042819 -0.010032 0.844000
-0.012295 -0.018979 0.872000
-0.027150 -0.021318 0.865000
0.016161 0.018365 0.840000
0.024093 -0.009703 0.877000
0.008585 0.032656 0.843000
0.023681 0.007848 0.862000
-0.033954 -0.025620 0.866000
-0.014655 -0.012744 0.863000
-0.022243 -0.031395 0.868000
0.015106 0.020760 0.839000
0.028227 0.009245 0.860000
-0.006642 0.014527 0.838000
-0.022626 -0.030716 0.869000
0.010962 0.017307 0.839000
0.009957 -0.022209 0.872000
-0.006463 -0.010222 0.860000
0.009969 -0.020078 0.873000
0.009632 -0.006439 0.875000
0.015853 0.029498 0.842000
-0.013715 -0.029711 0.871000
-0.021195 -0.030001 0.869000
-0.004731 -0.032787 0.867000
-0.041773 -0.020273 0.851000
0.013682 0.002161 0.858000
0.041199 -0.002130 0.880000
-0.033016 -0.016070 0.851000
0.032286 0.018341 0.855000
-0.001822 0.003161 0.842000
-0.000434 0.014545 0.839000
-0.009749 -0.013906 0.869000
0.017615 -0.005377 0.878000
0.037170 0.021483 0.854000
0.017615 -0.005739 0.878000
0.009334 0.005975 0.848000
0.003449 -0.003143 0.860000
0.007891 0.031615 0.843000
-0.014791 -0.018957 0.871000
0.001644 0.005240 0.842000
-0.025674 -0.007910 0.840000
0.034246 0.010773 0.869000
-0.015554 0.004509 0.835000
0.031205 -0.016144 0.874000
0.034679 0.015298 0.862000
0.039930 -0.010413 0.876000
-0.021975 -0.005516 0.844000
0.015682 -0.023976 0.871000
-0.016450 -0.039074 0.864000
-0.016417 -0.003432 0.844000
0.012373 0.028079 0.841000
-0.025815 -0.022464 0.868000
-0.009727 -0.033143 0.867000
0.037387 0.018427 0.859000
-0.010489 -0.025051 0.871000
-0.020742 -0.038051 0.865000
0.027199 0.015085 0.850000
0.047202 -0.010840 0.912000
0.021677 0.004682 0.867000
0.009290 0.033390 0.844000
0.006826 0.015254 0.840000
-0.010084 -0.033500 0.867000
0.007189 0.011824 0.842000
-0.009013 -0.012090 0.867000
0.023478 0.028805 0.842000
-0.048400 -0.021624 0.863000
0.024065 -0.012215 0.876000
-0.042705 -0.028961 0.870000
-0.032201 -0.000984 0.830000
-0.048288 -0.020511 0.861000
-0.052846 -0.012432 0.866000
-0.006904 -0.025051 0.871000
-0.032429 -0.017532 0.854000
-0.034619 -0.020040 0.856000
-0.002506 0.008329 0.839000
0.008596 0.034432 0.844000
-0.011180 -0.028570 0.869000
0.022065 0.022195 0.841000
-0.006979 0.011754 0.837000
-0.043780 -0.023563 0.856000
0.012814 -0.022900 0.871000
-0.042723 -0.014984 0.849000
0.010305 -0.022542 0.871000
-0.007490 -0.008413 0.856000
0.000257 0.008003 0.841000
0.025218 0.011641 0.854000
0.030590 0.022004 0.847000
0.035725 -0.004298 0.879000
0.024547 0.029880 0.843000
0.026944 0.012330 0.853000
-0.005463 -0.012132 0.870000
-0.039182 -0.016711 0.848000
-0.050122 -0.010527 0.856000
0.035841 -0.016844 0.873000
-0.006173 -0.028928 0.869000
-0.026457 0.004835 0.832000
0.018236 0.025280 0.840000
0.015790 -0.005010 0.877000
0.022186 0.001480 0.873000
-0.002246 -0.021132 0.872000
0.034679 0.003303 0.880000
0.005109 0.010785 0.842000
0.003373 0.010426 0.841000
0.020083 0.034125 0.845000
0.042863 -0.009703 0.877000
-0.008424 -0.038711 0.880000
0.029540 0.012388 0.857000
0.014398 0.020736 0.838000
-0.002950 -0.029966 0.868000
-0.030224 -0.003041 0.832000
0.008492 -0.028213 0.869000
-0.016923 -0.008023 0.852000
-0.046786 -0.018565 0.853000
0.010962 0.016962 0.839000
-0.007279 -0.017204 0.873000
0.029970 -0.002854 0.880000
-0.003681 -0.012160 0.872000
0.007813 -0.019000 0.873000
0.016200 0.017023 0.842000
-0.037371 -0.001327 0.831000
-0.011538 -0.029286 0.869000
0.029213 -0.005745 0.879000
-0.002865 0.001776 0.843000
0.020133 0.007138 0.862000
-0.031214 0.004829 0.831000
0.018822 0.003611 0.867000
0.032793 -0.007184 0.878000
-0.044575 -0.012217 0.851000
-0.040203 -0.004073 0.833000
-0.005822 -0.012132 0.870000
-0.042975 -0.022102 0.854000
0.019017 -0.001759 0.876000
0.023596 -0.021491 0.872000
0.040067 -0.005022 0.879000
0.020796 -0.014002 0.875000
0.016625 0.036951 0.846000
-0.025674 -0.008256 0.840000
0.030316 0.012417 0.859000
-0.033320 0.004541 0.841000
-0.007952 -0.030681 0.868000
-0.031386 -0.023072 0.864000
0.028327 -0.015065 0.874000
-0.012253 -0.014979 0.869000
0.024843 -0.000318 0.878000
0.012417 0.013589 0.844000
-0.010798 -0.032430 0.867000
0.012329 0.021081 0.838000
-0.006165 -0.031753 0.868000
-0.023888 -0.003063 0.838000
-0.025720 -0.017161 0.853000
0.032333 0.023399 0.847000
0.009985 0.010810 0.844000
-0.048191 -0.014001 0.853000
0.034356 -0.000682 0.881000
0.042045 -0.014722 0.875000
-0.027109 0.002093 0.831000
-0.022243 -0.031753 0.868000
0.001642 0.009041 0.841000
-0.034934 -0.001667 0.830000
-0.006290 0.008654 0.837000
-0.036984 -0.001325 0.830000
-0.036593 -0.024055 0.861000
-0.028372 -0.006167 0.838000
0.021320 0.004682 0.867000
0.030695 -0.002492 0.880000
0.029608 -0.002492 0.880000
-0.047193 -0.011909 0.854000
0.015068 -0.007537 0.877000
-0.005601 0.012099 0.837000
-0.036347 -0.015646 0.847000
-0.032695 -0.021574 0.861000
-0.028316 -0.023893 0.868000
0.014622 0.009149 0.851000
0.035512 0.026567 0.848000
0.034561 -0.018726 0.877000
-0.030493 0.001407 0.830000
0.038882 0.030937 0.853000
-0.009727 -0.032787 0.867000
0.012358 0.026317 0.840000
0.034116 0.027266 0.848000
0.013985 -0.009342 0.877000
-0.015741 -0.003784 0.845000
-0.009055 -0.025768 0.871000
0.015872 0.030227 0.843000
-0.033049 -0.021929 0.861000
0.016059 -0.021850 0.872000
0.039233 0.030235 0.853000
0.001704 -0.019719 0.873000
-0.040277 -0.027695 0.864000
0.034341 -0.013143 0.890000
-0.011272 -0.006597 0.849000
0.042045 -0.014002 0.875000
-0.023045 -0.007262 0.845000
-0.023699 -0.030001 0.869000
0.016913 0.016696 0.843000
0.028016 0.027799 0.843000
0.005469 0.006294 0.844000
0.018529 0.001475 0.870000
0.011034 -0.021491 0.872000
0.005219 -0.003497 0.860000
0.010675 -0.021491 0.872000
-0.037432 -0.026272 0.864000
0.011027 0.034084 0.844000
-0.039470 -0.004068 0.832000
-0.045084 -0.021399 0.854000
0.012825 0.008069 0.848000
-0.043926 -0.020998 0.852000
0.024871 -0.005022 0.879000
0.028522 -0.001043 0.880000
0.022597 0.000763 0.875000
-0.034759 -0.006481 0.834000
-0.030224 -0.002698 0.832000
-0.008764 -0.001346 0.843000
0.005292 -0.031899 0.872000
0.014204 0.039086 0.847000
0.022411 0.026694 0.841000
-0.023431 0.000041 0.834000
0.008541 -0.006792 0.874000
-0.025341 -0.041563 0.864000
0.019736 0.017431 0.845000
0.031782 -0.000681 0.880000
-0.017707 -0.010527 0.856000
0.001640 0.010759 0.840000
-0.014264 0.000733 0.840000
-0.007323 0.008309 0.837000
0.014215 -0.026782 0.869000
0.021852 -0.015785 0.874000
0.028127 0.000043 0.879000
0.033155 -0.007545 0.878000
0.017254 -0.005739 0.878000
0.025904 0.026380 0.842000
0.038627 0.016737 0.863000
-0.045136 -0.021776 0.855000
-0.032283 -0.028213 0.869000
0.040067 -0.004660 0.879000
0.024164 0.011993 0.854000
0.019693 -0.017583 0.874000
0.022957 -0.014002 0.875000
-0.026918 -0.029286 0.869000
-0.009761 -0.026097 0.870000
-0.023531 -0.011853 0.850000
-0.027631 -0.014251 0.847000
-0.023032 0.002438 0.832000
-0.017659 -0.020749 0.871000
-0.050886 -0.011245 0.857000
-0.013654 -0.004479 0.845000
0.025898 -0.010063 0.877000
-0.004918 0.013148 0.838000
0.018561 0.010247 0.855000
0.039027 0.016401 0.864000
0.020012 0.028112 0.842000
-0.022690 0.004150 0.832000
0.040309 0.019179 0.861000
0.032952 0.019023 0.854000
0.030333 0.001492 0.880000
0.015178 0.031268 0.843000
-0.013589 -0.000651 0.841000
-0.003690 -0.015425 0.874000
0.012373 0.027040 0.841000
0.002429 -0.016523 0.875000
-0.026825 -0.036313 0.866000
-0.006116 -0.010589 0.861000
0.013018 0.021770 0.838000
-0.023746 0.000041 0.833000
0.031384 -0.005745 0.879000
0.025270 0.030958 0.844000
0.027766 -0.004298 0.879000
-0.013020 -0.006597 0.849000
-0.006523 -0.029966 0.868000
0.013143 0.036254 0.846000
0.026680 -0.004660 0.879000
0.018388 0.015032 0.847000
0.016487 0.023868 0.839000
0.034522 -0.011494 0.876000
0.005796 0.012156 0.841000
0.002776 -0.023976 0.871000
-0.007323 0.007276 0.837000
0.004916 -0.028570 0.869000
0.022262 -0.012936 0.876000
0.030264 -0.006823 0.878000
0.011375 0.032695 0.844000
-0.015383 -0.013826 0.864000
0.039164 -0.014002 0.875000
0.025449 -0.015785 0.874000
0.017280 0.016368 0.844000
0.041036 0.028864 0.854000
-0.043823 -0.016051 0.850000
0.019876 0.013702 0.851000
0.017073 0.012301 0.851000
-0.034469 -0.029677 0.870000
-0.016300 0.001421 0.838000
-0.009219 -0.007682 0.853000
-0.030835 0.001066 0.830000
-0.018355 -0.027887 0.870000
-0.026617 -0.014617 0.848000
-0.025458 -0.033182 0.868000
-0.029711 -0.034928 0.867000
0.031745 0.002576 0.879000
-0.005099 -0.029286 0.869000
0.011445 -0.011855 0.876000
-0.032279 -0.003726 0.832000
-0.016317 -0.010539 0.857000
-0.025159 -0.023948 0.870000
0.008921 -0.012215 0.876000
-0.022717 0.001413 0.833000
0.020506 -0.006461 0.878000
0.008248 0.009073 0.844000
-0.004747 -0.026097 0.870000
0.035806 0.001494 0.881000
0.015394 -0.014002 0.875000
-0.025359 -0.008266 0.841000
-0.010154 -0.018282 0.873000
0.019342 0.018084 0.843000
0.027135 0.019238 0.848000
0.010629 0.026317 0.840000
-0.015393 -0.003784 0.845000
0.034317 -0.002130 0.880000
-0.032209 -0.025293 0.867000
-0.014740 -0.016034 0.868000
0.020695 0.069516 2.032000
0.032345 0.011449 0.866000
-0.006912 -0.013954 0.872000
0.025557 0.027073 0.842000
-0.017477 -0.013794 0.862000
-0.020169 -0.024693 0.871000
0.014982 -0.002110 0.872000
-0.043933 -0.025413 0.859000
0.038048 0.015013 0.866000
-0.003201 0.005573 0.840000
0.041828 -0.007184 0.878000
-0.029788 -0.008937 0.839000
-0.010477 -0.014638 0.870000
0.013379 0.024214 0.839000
0.024843 -0.008629 0.878000
-0.021503 -0.034571 0.867000
0.035061 0.020429 0.854000
-0.031095 -0.006504 0.837000
-0.029582 -0.017512 0.853000
0.015178 0.015655 0.843000
-0.015721 -0.013455 0.863000
0.000987 -0.012187 0.874000
0.005810 0.008369 0.843000
0.007553 0.033390 0.844000
-0.011219 -0.023285 0.872000
-0.019295 -0.039430 0.864000
-0.011841 -0.012418 0.865000
-0.038055 -0.000985 0.831000
0.004553 -0.031395 0.868000
0.009938 0.015254 0.840000
0.011014 0.031962 0.843000
0.007479 -0.013657 0.876000
0.025952 0.010951 0.855000
-0.021689 0.007241 0.833000
0.031952 0.011435 0.865000
-0.020009 -0.007296 0.849000
-0.041471 -0.020998 0.852000
-0.040879 -0.015297 0.847000
0.021108 0.000762 0.873000
0.021827 0.001121 0.873000
0.018995 0.018084 0.843000
-0.010152 -0.002040 0.843000
0.003860 -0.020078 0.873000
0.035946 0.030129 0.850000
-0.042723 -0.016032 0.849000
0.009235 0.018343 0.839000
0.017219 0.027040 0.841000
-0.024190 -0.017322 0.861000
-0.026856 -0.022438 0.867000
-0.033327 -0.015351 0.850000
-0.006165 -0.030681 0.868000
-0.023726 -0.022874 0.870000
-0.003892 0.003845 0.840000
-0.015526 -0.021491 0.872000
0.013609 -0.013657 0.876000
-0.031532 -0.026751 0.868000
-0.016244 -0.022568 0.872000
0.036424 0.021809 0.853000
-0.052247 -0.011310 0.862000
0.013376 0.000397 0.861000
-0.012864 -0.011665 0.862000
-0.025043 -0.036669 0.866000
0.024815 -0.010424 0.877000
-0.000779 0.011437 0.839000
-0.019655 0.007250 0.834000
-0.022401 0.008279 0.834000
-0.028169 0.005178 0.832000
0.009356 0.004590 0.850000
-0.015536 0.007250 0.834000
0.014215 -0.000672 0.869000
-0.013164 0.004514 0.836000
-0.008712 0.013493 0.838000
-0.006290 0.011754 0.837000
0.016380 0.000043 0.870000
-0.019451 -0.001687 0.840000
0.015891 0.033042 0.844000
0.019090 0.005726 0.863000
0.036224 0.014283 0.865000
0.027248 -0.016144 0.874000
0.034116 0.028313 0.848000
0.003509 -0.014362 0.875000
-0.009390 0.013132 0.837000
-0.033426 -0.006489 0.835000
-0.035703 -0.005095 0.832000
0.003714 0.013525 0.840000
-0.038188 -0.027015 0.865000
-0.028061 -0.008246 0.839000
-0.027370 -0.006520 0.839000
-0.027793 0.001409 0.831000
-0.010835 -0.026813 0.870000
0.005219 -0.003143 0.860000
0.034600 0.005464 0.878000
-0.038076 -0.010663 0.839000
-0.025781 -0.017553 0.855000
0.015324 -0.022542 0.871000
-0.020550 -0.012656 0.857000
0.037321 -0.016504 0.874000
0.010316 -0.021132 0.872000
0.012527 -0.012576 0.876000
0.043445 0.017528 0.867000
0.031673 0.004375 0.877000
-0.042074 -0.011061 0.843000
0.085905 0.281624 8.435000
-0.036999 -0.019993 0.854000
0.020506 -0.004293 0.878000
-0.019059 0.000041 0.838000
-0.014058 -0.027887 0.870000
-0.001123 0.012458 0.838000
0.039930 -0.011134 0.876000
0.010724 -0.007528 0.876000
-0.009747 0.005215 0.838000
0.011047 -0.019000 0.873000
-0.041724 -0.019199 0.850000
0.028392 0.003288 0.876000
0.016475 -0.014002 0.875000
0.015412 -0.004644 0.876000
0.005316 -0.012215 0.876000
0.005789 0.017328 0.840000
0.015430 0.006391 0.857000
0.034122 -0.013282 0.875000
0.035904 0.029045 0.849000
0.021590 -0.006461 0.878000
0.000950 0.006964 0.841000
0.022700 -0.005383 0.879000
0.004416 0.008705 0.842000
-0.011219 -0.016825 0.872000
-0.031801 -0.018278 0.856000
-0.028382 -0.028245 0.870000
0.026850 0.016135 0.850000
0.030170 0.025778 0.845000
0.020770 0.009235 0.859000
0.022135 -0.022542 0.871000
-0.000092 -0.025380 0.870000
0.030879 0.016934 0.855000
-0.017604 -0.007313 0.851000
-0.028957 -0.013174 0.845000
-0.028284 -0.034571 0.867000
-0.023403 0.001413 0.833000
-0.034318 -0.009985 0.840000
-0.035737 -0.026333 0.866000
-0.017537 -0.038407 0.865000
-0.005822 -0.026813 0.870000
-0.011142 -0.036313 0.866000
0.021229 -0.003209 0.878000
-0.002599 -0.010341 0.870000
-0.004026 -0.029286 0.869000
0.002677 0.012142 0.840000
-0.015739 -0.039074 0.864000
0.016023 0.011600 0.851000
-0.022166 -0.038763 0.865000
-0.001131 0.002473 0.844000
-0.001479 0.002126 0.844000
-0.012476 0.011396 0.836000
0.023955 0.003273 0.872000
-0.001528 -0.021850 0.872000
0.013609 -0.005725 0.876000
-0.021479 -0.043798 0.866000
-0.039205 -0.011727 0.841000
0.009282 -0.010052 0.876000
0.027279 -0.014722 0.875000
0.023542 0.003982 0.870000
-0.028349 -0.024994 0.869000
-0.011788 0.005547 0.836000
0.041059 -0.008259 0.877000
-0.037550 -0.008207 0.835000
-0.051591 -0.009129 0.857000
0.010882 -0.001019 0.860000
0.035061 0.020077 0.854000
-0.039210 -0.027339 0.864000
0.007840 -0.009691 0.876000
0.033916 -0.019131 0.879000
0.007831 -0.016163 0.875000
-0.023288 -0.034214 0.867000
0.014587 0.011573 0.849000
0.038893 -0.008620 0.877000
0.005456 0.010092 0.842000
-0.033568 0.000041 0.830000
0.039884 -0.012561 0.875000
0.027935 -0.019000 0.873000
-0.018782 -0.002035 0.841000
0.025391 -0.020055 0.872000
0.029180 -0.006461 0.878000
-0.000091 -0.004570 0.862000
-0.020046 0.000385 0.836000
0.019400 -0.002844 0.877000
0.038400 -0.014346 0.874000
-0.039707 -0.009260 0.837000
0.045840 -0.007734 0.900000
0.031598 0.027201 0.846000
0.033646 0.008657 0.872000
-0.028683 -0.005126 0.837000
0.039491 0.026661 0.851000
0.038751 0.002222 0.882000
-0.005967 0.003153 0.840000
0.022144 0.030958 0.844000
0.004752 0.016291 0.840000
-0.018376 -0.025410 0.871000
0.038751 0.001496 0.882000
-0.009348 -0.036983 0.865000
0.039955 0.031936 0.861000
-0.028707 -0.031074 0.869000
-0.027830 -0.041208 0.864000
-0.040184 -0.026566 0.862000
-0.005967 0.002807 0.840000
0.006368 -0.020773 0.872000
-0.021961 -0.013714 0.857000
0.009246 0.016636 0.840000
-0.014910 -0.029589 0.878000
-0.045626 -0.016420 0.851000
0.036952 0.027997 0.849000
0.000983 -0.024334 0.871000
0.001638 0.014545 0.839000
0.007804 -0.005699 0.872000
-0.008899 -0.009118 0.856000
-0.028964 -0.037382 0.866000
0.017455 -0.025380 0.870000
0.037605 0.034892 0.864000
0.019112 0.005377 0.864000
0.034881 0.012175 0.867000
-0.001168 -0.009995 0.871000
0.019273 0.020439 0.840000
0.024730 -0.016144 0.874000
-0.022496 -0.040496 0.864000
0.011752 -0.021850 0.872000
-0.012820 0.010708 0.836000
-0.008012 0.012443 0.837000
0.022091 0.028805 0.842000
0.018323 0.032000 0.844000
-0.004747 -0.026455 0.870000
0.041685 -0.015082 0.875000
-0.004731 -0.033500 0.867000
0.003869 -0.012201 0.875000
0.026199 -0.014362 0.875000
-0.012295 -0.022926 0.872000
-0.004758 -0.022568 0.872000
-0.025613 -0.003753 0.838000
-0.008656 -0.032430 0.867000
-0.034934 0.001749 0.830000
0.004553 -0.029966 0.868000
-0.014416 -0.027529 0.870000
-0.018735 -0.021108 0.871000
-0.035608 -0.014583 0.846000
-0.003311 -0.029286 0.869000
-0.029477 -0.010330 0.840000
-0.003999 -0.009903 0.863000
-0.005815 -0.028570 0.869000
-0.026082 -0.038051 0.865000
-0.011471 0.003490 0.838000
-0.039880 -0.016362 0.848000
0.035904 0.027997 0.849000
-0.024901 -0.013935 0.849000
0.028063 0.012007 0.855000
-0.041529 -0.008937 0.839000
-0.007998 -0.021156 0.873000
-0.016206 -0.017861 0.870000
0.012358 0.025625 0.840000
-0.025359 -0.008612 0.841000
-0.025399 0.002777 0.831000
-0.025582 -0.003404 0.837000
0.020107 0.035558 0.846000
-0.050176 -0.017007 0.863000
-0.031176 -0.000301 0.830000
0.031709 -0.006461 0.878000
-0.017416 -0.011978 0.859000
-0.053806 -0.012848 0.870000
0.004595 -0.012576 0.876000
-0.029618 -0.012464 0.844000
0.028884 -0.000681 0.880000
0.022301 0.015435 0.850000
-0.005035 -0.007727 0.858000
0.016777 -0.020414 0.872000
0.039537 0.025290 0.852000
-0.004912 0.011065 0.837000
-0.049111 -0.019848 0.863000
0.016507 0.025280 0.840000
-0.007961 -0.028213 0.869000
-0.023375 0.003808 0.832000
0.017239 0.028112 0.842000
-0.020958 -0.005871 0.845000
-0.002246 -0.011801 0.872000
0.020754 0.018453 0.844000
-0.007933 -0.035244 0.866000
-0.041678 -0.011048 0.842000
-0.005607 0.007974 0.838000
-0.036566 -0.013853 0.844000
-0.018562 -0.014876 0.863000
0.001323 -0.004554 0.859000
-0.026928 -0.003744 0.836000
0.035644 0.006901 0.877000
0.003091 -0.004554 0.859000
0.015232 0.013970 0.846000
0.040052 -0.018307 0.929000
-0.012712 -0.032406 0.876000
0.010021 0.006665 0.847000
-0.039128 -0.001329 0.832000
0.012795 0.012925 0.846000
0.036643 0.008686 0.875000
0.036996 0.023831 0.850000
0.001706 -0.011108 0.874000
0.014322 0.005666 0.854000
-0.015722 -0.003432 0.844000
-0.010465 -0.030001 0.869000
-0.019752 -0.009437 0.853000
-0.021057 -0.008344 0.849000
0.015857 0.004295 0.861000
-0.043473 -0.018850 0.850000
-0.023853 -0.011839 0.849000
0.006398 -0.010052 0.876000
0.019024 0.007476 0.860000
-0.014383 -0.015676 0.868000
-0.027793 0.004145 0.831000
-0.025430 0.002438 0.832000
0.028249 0.016835 0.850000
-0.026425 0.001067 0.831000
-0.028997 -0.034571 0.867000
0.016305 0.002538 0.866000
0.017214 -0.011494 0.876000
0.029187 0.011682 0.857000
0.024482 -0.006823 0.878000
0.023001 0.015435 0.850000
0.011040 0.035516 0.845000
-0.034359 -0.010343 0.841000
0.005657 -0.019360 0.873000
-0.033909 0.002774 0.830000
-0.010474 -0.000305 0.841000
0.013986 0.004617 0.855000
0.008219 0.013195 0.841000
0.008911 -0.014002 0.875000
0.038025 0.001496 0.882000
0.026597 0.027073 0.842000
0.012652 0.000396 0.860000
0.018233 -0.000316 0.873000
0.029936 -0.005745 0.879000
0.012055 0.031615 0.843000
0.023158 0.004693 0.869000
-0.024029 -0.031753 0.868000
-0.015879 0.006220 0.834000
-0.030384 -0.013538 0.846000
-0.010474 -0.000997 0.841000
0.003026 0.009387 0.841000
0.016173 0.006053 0.859000
-0.023656 -0.005850 0.842000
0.037150 0.032986 0.870000
0.031384 -0.004298 0.879000
0.004060 0.012488 0.840000
-0.021003 0.007241 0.833000
0.018869 0.011979 0.853000
0.016487 0.024214 0.839000
-0.009392 -0.029286 0.869000
-0.037569 -0.023645 0.859000
0.011402 0.038344 0.846000
-0.021715 0.008279 0.834000
0.023478 0.028459 0.842000
-0.026457 -0.000644 0.832000
0.016219 0.031268 0.843000
-0.020742 -0.037695 0.865000
-0.008716 -0.019000 0.873000
-0.045754 -0.024735 0.860000
-0.024029 -0.021035 0.868000
-0.003627 -0.006321 0.859000
-0.019295 -0.016315 0.864000
-0.014197 0.011052 0.836000
0.010604 0.021081 0.838000
-0.032416 -0.023045 0.863000
-0.023563 -0.018804 0.864000
0.026199 -0.014722 0.875000
0.013969 -0.005725 0.876000
0.037215 -0.001767 0.880000
0.020705 0.019448 0.842000
0.014052 0.002164 0.859000
-0.009761 -0.026455 0.870000
0.013203 -0.018282 0.873000
-0.026742 -0.016790 0.852000
-0.022058 0.007936 0.834000
0.019619 0.025625 0.840000
-0.010154 -0.019719 0.873000
-0.017281 -0.026813 0.870000
0.027323 0.006451 0.865000
0.034522 0.006533 0.876000
0.011458 -0.011146 0.877000
0.033402 0.006526 0.875000
0.023010 -0.010063 0.877000
-0.029780 -0.028570 0.869000
-0.015778 -0.005187 0.847000
-0.024175 -0.001679 0.836000
0.001337 -0.031038 0.868000
-0.023656 -0.005503 0.842000
0.025934 0.028840 0.843000
-0.029422 -0.028213 0.869000
-0.020454 -0.010139 0.853000
-0.001156 -0.008472 0.862000
0.012674 0.019701 0.838000
-0.004764 -0.021156 0.873000
0.043896 -0.010413 0.876000
0.000985 -0.022209 0.872000
0.035243 -0.010413 0.876000
0.016546 0.028459 0.842000
0.017670 0.015711 0.846000
-0.036365 -0.025917 0.864000
-0.046707 -0.021852 0.858000
0.018317 -0.011146 0.877000
0.032944 0.013895 0.863000
0.033478 -0.008620 0.877000
0.009279 0.032656 0.843000
-0.018713 -0.027171 0.870000
-0.011154 -0.033500 0.867000
0.013725 0.023178 0.839000
0.000266 -0.024693 0.871000
0.011014 0.013226 0.843000
-0.021500 0.009020 0.839000
0.016892 -0.006461 0.878000
0.010364 -0.008610 0.876000
-0.012805 0.007946 0.835000
0.020582 0.005033 0.866000
-0.013751 -0.007664 0.851000
0.005631 -0.028928 0.869000
-0.014774 -0.027887 0.870000
0.042130 0.019910 0.862000
0.015872 0.030574 0.843000
-0.049994 -0.019917 0.866000
-0.038722 -0.027497 0.869000
0.017690 0.014683 0.847000
0.033693 0.013556 0.864000
-0.003197 0.007638 0.839000
-0.036678 -0.025531 0.863000
0.023729 0.014052 0.851000
-0.011193 -0.027887 0.870000
0.033155 -0.007184 0.878000
-0.015320 -0.000305 0.841000
-0.008347 -0.021491 0.872000
0.024758 -0.014722 0.875000
0.025514 0.006444 0.864000
0.008883 0.023989 0.909000
0.021156 -0.000317 0.875000
0.033554 -0.003936 0.879000
0.023397 -0.001041 0.878000
-0.015757 -0.014910 0.865000
0.033268 0.000406 0.881000
0.009282 -0.007889 0.876000
0.013443 0.030574 0.843000
-0.040068 -0.020647 0.852000
-0.010648 -0.009811 0.855000
-0.001870 -0.005291 0.864000
0.005285 -0.024334 0.871000
-0.005601 0.011410 0.837000
0.040333 0.023592 0.854000
0.006735 -0.019000 0.873000
0.020749 -0.017563 0.873000
0.007419 -0.027140 0.869000
