0.037900 -0.033812 0.914000
0.037392 -0.026082 0.920000
0.006333 -0.015084 0.919000
-0.025136 0.026579 0.908000
0.017739 -0.037143 0.922000
-0.021423 0.028853 0.909000
-0.028469 0.022070 0.907000
-0.015741 0.038410 0.905000
-0.023575 -0.015479 0.920000
0.029187 -0.020871 0.924000
-0.016632 -0.013859 0.913000
-0.004621 -0.019182 0.916000
0.032681 -0.031969 0.926000
-0.011759 -0.017636 0.914000
-0.007260 -0.022198 0.916000
-0.018035 0.036295 0.908000
-0.046439 0.003782 0.908000
0.007821 0.017765 0.916000
0.026525 -0.031519 0.924000
0.008234 0.009890 0.920000
0.034930 -0.006046 0.925000
0.000281 -0.009800 0.920000
0.023811 -0.001852 0.922000
-0.008337 0.034877 0.910000
0.015721 0.015109 0.915000
-0.015029 0.037002 0.907000
-0.021048 0.028104 0.909000
0.020059 -0.023913 0.924000
0.036793 0.000806 0.924000
0.038398 -0.015580 0.926000
0.039033 -0.019329 0.923000
-0.007034 -0.030388 0.936000
0.034131 -0.034942 0.924000
-0.007268 0.007594 0.917000
-0.018845 0.008294 0.911000
0.038017 -0.011007 0.926000
-0.017739 -0.000330 0.912000
-0.031082 0.018337 0.907000
-0.011007 -0.015002 0.914000
-0.022944 -0.002577 0.910000
-0.017383 0.024095 0.913000
0.018498 -0.026138 0.922000
0.005929 0.020381 0.915000
-0.022220 -0.007829 0.911000
0.038315 0.000426 0.924000
0.028457 -0.031553 0.925000
-0.038718 -0.002955 0.911000
0.002113 0.032424 0.894000
-0.006891 0.009103 0.917000
-0.002736 -0.016920 0.916000
-0.038091 0.022766 0.905000
0.034549 -0.021655 0.925000
0.002175 -0.012829 0.920000
-0.029621 0.012751 0.908000
0.019236 0.006869 0.921000
-0.010619 0.013573 0.913000
0.020640 0.012487 0.916000
-0.012295 -0.024727 0.926000
-0.000849 0.026754 0.914000
0.011616 0.014403 0.918000
-0.029215 0.020203 0.907000
0.000656 0.026754 0.914000
0.013944 0.000046 0.922000
0.018079 0.010648 0.920000
-0.038133 0.006384 0.906000
-0.008769 -0.021067 0.916000
0.040086 0.001941 0.921000
0.036453 -0.020132 0.925000
0.034168 -0.009472 0.925000
0.019278 -0.031485 0.923000
0.012426 -0.007544 0.922000
-0.008382 -0.010500 0.915000
-0.032202 0.014230 0.907000
-0.013206 0.034128 0.910000
0.015841 -0.032210 0.922000
0.039520 -0.034711 0.908000
-0.009554 -0.024540 0.919000
0.009716 0.015897 0.917000
0.028457 -0.039168 0.925000
0.007476 0.010269 0.920000
0.012046 -0.001472 0.922000
-0.026602 0.034762 0.907000
0.025820 -0.015961 0.926000
-0.010232 0.029699 0.912000
0.026173 -0.042213 0.925000
-0.026229 0.037002 0.907000
-0.004244 -0.016543 0.916000
-0.029995 0.001166 0.908000
0.003774 -0.039071 0.941000
0.000656 0.022264 0.915000
-0.024015 0.027326 0.908000
0.003681 -0.026781 0.918000
-0.005771 -0.026810 0.919000
0.010825 0.017745 0.915000
0.044683 -0.010959 0.922000
0.037148 -0.035316 0.914000
-0.024121 0.013933 0.912000
-0.005733 0.028980 0.913000
-0.011271 0.037665 0.905000
0.036374 0.001945 0.923000
-0.003035 0.036063 0.893000
0.023052 -0.009062 0.922000
-0.005746 -0.013889 0.915000
-0.021894 -0.018690 0.929000
-0.028594 -0.007454 0.911000
-0.019970 0.001170 0.911000
0.044683 -0.004508 0.922000
0.034930 -0.002239 0.925000
0.003307 -0.028323 0.919000
-0.009481 0.025570 0.912000
-0.014704 0.033004 0.910000
-0.015863 0.025570 0.912000
0.013171 -0.030280 0.921000
0.002481 0.033896 0.894000
0.001038 -0.029836 0.919000
-0.006620 -0.029874 0.932000
0.042544 -0.004904 0.925000
-0.018845 0.009794 0.911000
-0.037796 0.029243 0.898000
0.032265 -0.035361 0.925000
0.004804 0.017765 0.916000
0.036072 -0.030031 0.925000
0.025004 -0.039506 0.924000
-0.015095 0.016168 0.911000
0.012903 -0.042778 0.929000
0.013944 -0.035625 0.922000
0.041021 -0.002619 0.925000
-0.006109 0.028604 0.913000
-0.031150 -0.003322 0.909000
-0.036682 0.005271 0.907000
-0.028469 0.029909 0.907000
-0.012162 0.001553 0.916000
0.020797 -0.032625 0.923000
-0.030397 0.032535 0.887000
-0.029247 0.010883 0.908000
-0.022970 -0.008579 0.911000
-0.042933 0.006004 0.905000
0.013564 0.007256 0.922000
0.003681 -0.018846 0.918000
0.016906 0.013647 0.918000
-0.010288 -0.003351 0.917000
0.019658 -0.029966 0.923000
-0.015708 -0.022036 0.925000
-0.020652 0.036295 0.908000
-0.016613 -0.005210 0.912000
0.007476 0.011026 0.920000
0.014639 0.014025 0.918000
0.008603 -0.015841 0.919000
0.010517 -0.033691 0.921000
0.040844 0.000425 0.921000
-0.010607 0.018813 0.912000
-0.009900 0.001553 0.916000
-0.006891 0.011368 0.917000
0.034549 -0.031553 0.925000
-0.025538 0.021370 0.909000
-0.015195 -0.019581 0.917000
-0.009325 -0.028401 0.934000
0.001792 -0.016579 0.918000
0.033568 0.005341 0.919000
-0.039008 -0.001452 0.909000
0.001413 0.016652 0.917000
0.022317 -0.029586 0.923000
-0.042328 0.001540 0.908000
-0.014688 0.036335 0.909000
0.016600 0.003840 0.922000
0.034168 -0.024701 0.925000
0.031469 -0.003757 0.924000
0.000281 0.013647 0.918000
0.021154 -0.013236 0.922000
0.036793 -0.029998 0.924000
0.004055 0.016652 0.917000
-0.022595 0.012418 0.911000
0.001032 0.026378 0.914000
0.040260 -0.015564 0.925000
0.028838 -0.035741 0.925000
0.016203 -0.012085 0.921000
-0.027753 0.021347 0.908000
-0.021072 0.009034 0.910000
-0.002730 0.024873 0.914000
-0.020697 0.009408 0.910000
-0.023140 0.038697 0.903000
-0.026229 0.034762 0.907000
-0.014769 -0.016507 0.914000
0.024190 -0.001093 0.922000
-0.034815 0.001165 0.907000
0.021913 -0.007165 0.922000
-0.019926 0.029227 0.909000
0.015462 -0.036764 0.922000
0.019658 -0.039843 0.923000
-0.003117 0.011745 0.917000
-0.039227 -0.007242 0.932000
0.024243 -0.029998 0.924000
0.023533 -0.016724 0.926000
-0.004249 0.011368 0.917000
-0.044845 0.004892 0.906000
0.004815 -0.019224 0.918000
0.039285 0.001939 0.920000
0.033026 -0.009091 0.925000
0.004447 -0.032140 0.920000
0.022341 -0.024674 0.924000
-0.035896 0.016452 0.906000
-0.004541 0.034864 0.900000
-0.026200 0.037334 0.906000
-0.015128 -0.003713 0.913000
-0.029763 -0.012124 0.924000
0.034549 -0.006807 0.925000
-0.034442 0.000791 0.907000
0.029219 -0.019371 0.925000
0.043306 -0.006426 0.925000
0.015066 -0.020803 0.921000
-0.009523 0.002684 0.916000
-0.011031 -0.002217 0.916000
0.014308 -0.033312 0.921000
-0.030469 -0.006704 0.911000
0.008631 -0.010580 0.922000
-0.018353 -0.020110 0.924000
0.015445 -0.024594 0.921000
-0.008382 -0.015019 0.915000
0.005210 -0.010189 0.921000
-0.018429 0.031472 0.909000
-0.024121 0.016561 0.912000
0.018734 0.013603 0.915000
0.027696 -0.032315 0.925000
-0.019595 -0.001080 0.911000
-0.015487 0.007928 0.912000
-0.028343 -0.010876 0.915000
-0.039953 0.008984 0.905000
-0.001229 -0.014297 0.917000
0.001414 -0.021491 0.918000
-0.039668 0.001165 0.907000
-0.030101 0.037457 0.900000
-0.032202 0.008631 0.907000
-0.013595 0.028541 0.911000
-0.028157 0.012017 0.909000
0.036072 -0.000716 0.925000
-0.009136 -0.015019 0.915000
-0.008644 0.036839 0.903000
0.023811 -0.002990 0.922000
-0.017739 0.019189 0.912000
0.041286 -0.034940 0.914000
0.029155 0.001565 0.923000
0.012792 -0.027626 0.921000
0.009390 -0.036005 0.922000
0.002168 0.017029 0.917000
-0.032611 0.004156 0.908000
0.000658 -0.021468 0.917000
0.037554 0.001187 0.924000
0.006719 0.009133 0.920000
-0.043306 0.006377 0.905000
-0.016989 0.004174 0.912000
0.001794 0.011771 0.919000
0.009001 -0.012085 0.921000
-0.017364 -0.003709 0.912000
0.008622 0.008764 0.921000
-0.023694 -0.005199 0.910000
0.031122 -0.019751 0.925000
-0.001610 -0.007141 0.919000
0.021557 -0.033765 0.923000
-0.022293 -0.013498 0.914000
-0.001619 -0.031519 0.924000
0.032230 -0.004518 0.924000
0.025384 -0.022012 0.924000
-0.026975 0.034016 0.907000
-0.010254 -0.013121 0.914000
0.030361 -0.031553 0.925000
0.011275 -0.012085 0.921000
0.015445 -0.020424 0.921000
-0.008300 0.035842 0.906000
-0.024790 0.022867 0.909000
-0.022570 0.005663 0.910000
-0.018928 -0.016148 0.915000
-0.024389 0.029942 0.908000
-0.004249 0.012878 0.917000
0.003693 -0.032554 0.921000
0.029948 -0.042168 0.924000
-0.029247 0.013872 0.908000
0.001792 -0.021113 0.918000
0.029337 -0.045267 0.941000
0.025004 -0.029238 0.924000
-0.028842 0.029909 0.907000
0.011642 -0.019645 0.920000
0.036177 -0.034715 0.918000
-0.021845 0.013918 0.911000
0.021581 -0.038745 0.924000
-0.031456 0.031769 0.886000
0.013171 -0.031796 0.921000
-0.013249 -0.013107 0.913000
-0.013670 -0.019559 0.916000
-0.015062 0.036335 0.909000
0.021581 -0.016307 0.924000
0.032645 -0.012518 0.925000
-0.005733 0.022967 0.913000
-0.002356 0.019252 0.915000
0.035310 -0.022036 0.925000
-0.003498 -0.005244 0.918000
0.028488 -0.009864 0.926000
0.020418 -0.028446 0.923000
-0.021869 0.016561 0.912000
0.002551 0.011014 0.919000
0.006333 -0.015463 0.919000
0.029503 -0.043594 0.922000
-0.017478 -0.019224 0.918000
-0.017345 0.012418 0.911000
-0.022220 -0.003705 0.911000
-0.023960 -0.018426 0.935000
0.001419 -0.032175 0.921000
-0.025566 0.010158 0.910000
0.018498 -0.017031 0.922000
0.004778 0.025917 0.911000
-0.025510 0.031437 0.908000
0.012399 -0.024188 0.920000
0.042739 0.000045 0.921000
-0.012845 0.032666 0.911000
0.005210 -0.012464 0.921000
0.018857 0.007627 0.921000
-0.027349 0.031402 0.907000
0.017303 0.010636 0.919000
0.008631 -0.007165 0.922000
0.017359 -0.037902 0.922000
-0.029589 0.025430 0.907000
0.005193 -0.016957 0.918000
0.020752 -0.002987 0.921000
0.024243 -0.028097 0.924000
-0.014736 0.008303 0.912000
-0.008401 -0.001464 0.917000
-0.018511 0.022967 0.913000
0.034703 -0.036644 0.919000
0.042590 -0.006815 0.926000
-0.019509 0.036629 0.907000
-0.014345 0.018793 0.911000
0.029567 -0.006419 0.924000
0.021866 0.009512 0.920000
-0.014361 0.024444 0.912000
0.021913 -0.011339 0.922000
-0.018511 0.022216 0.913000
-0.002010 -0.032455 0.929000
-0.043928 -0.001088 0.918000
0.029219 -0.034980 0.925000
-0.014377 -0.002585 0.913000
-0.004982 0.030859 0.913000
0.037635 -0.009482 0.926000
0.018498 -0.030313 0.922000
-0.048521 0.003799 0.912000
-0.022146 0.031811 0.908000
0.026467 0.000425 0.922000
0.036072 -0.002619 0.925000
0.037635 -0.014818 0.926000
-0.012539 0.003815 0.916000
0.035730 -0.015580 0.926000
-0.006528 -0.025675 0.919000
-0.001986 -0.026025 0.918000
-0.023746 0.018062 0.912000
0.002481 0.032424 0.894000
0.025384 -0.026195 0.924000
-0.029247 0.016115 0.908000
0.003394 -0.039154 0.943000
-0.037718 0.024256 0.905000
0.040685 -0.007577 0.926000
0.024190 0.001943 0.922000
0.000280 0.027131 0.914000
0.005528 0.024042 0.911000
0.004081 -0.034904 0.923000
0.024623 -0.012124 0.924000
0.036413 -0.030759 0.924000
0.003673 0.019273 0.916000
0.017341 -0.005261 0.921000
-0.027783 0.001167 0.909000
0.024949 -0.004508 0.922000
-0.034442 0.009751 0.907000
-0.022944 0.022143 0.910000
-0.035856 0.032823 0.905000
-0.026287 0.000793 0.909000
-0.039512 0.023988 0.895000
-0.009126 -0.011993 0.914000
0.017341 -0.015496 0.921000
-0.000097 -0.027536 0.918000
-0.018429 0.034091 0.909000
-0.034777 0.021673 0.906000
-0.042655 0.002658 0.907000
0.035940 -0.038242 0.912000
0.037134 -0.029966 0.923000
-0.007173 0.035430 0.905000
0.002170 -0.024514 0.918000
0.026905 -0.024294 0.924000
0.013564 -0.003370 0.922000
0.022672 -0.001472 0.922000
-0.017326 0.032630 0.910000
0.018898 -0.023128 0.923000
-0.012470 0.026667 0.911000
-0.005015 -0.027188 0.919000
-0.012511 -0.017259 0.914000
0.025329 -0.000334 0.922000
0.030361 -0.038406 0.925000
0.025764 -0.026575 0.924000
0.004831 -0.011327 0.921000
-0.015863 0.002297 0.912000
0.014703 -0.004508 0.922000
-0.009106 0.018813 0.912000
0.033026 -0.007569 0.925000
-0.000097 -0.030247 0.920000
-0.024068 -0.001453 0.910000
-0.035523 0.010486 0.906000
-0.024333 -0.015101 0.920000
0.011968 0.017011 0.916000
0.023102 -0.037224 0.924000
0.010506 -0.021538 0.920000
0.027696 -0.041452 0.925000
0.001038 -0.028701 0.919000
-0.005746 -0.012759 0.915000
0.012020 -0.015479 0.920000
0.030361 -0.033838 0.925000
0.035112 -0.040405 0.910000
0.029155 -0.001854 0.923000
-0.006513 -0.008258 0.917000
-0.023694 0.010532 0.910000
0.017303 0.011014 0.919000
-0.020697 0.006787 0.910000
-0.039338 0.000419 0.908000
0.033262 0.004594 0.921000
-0.044499 -0.001472 0.922000
-0.032878 0.029548 0.885000
-0.032985 0.000045 0.908000
0.016186 0.009512 0.920000
-0.012525 -0.019161 0.915000
-0.035150 0.019062 0.906000
-0.016577 0.034128 0.910000
-0.025941 -0.001453 0.910000
-0.014361 0.011306 0.912000
-0.024469 -0.008954 0.911000
0.012574 -0.043347 0.933000
-0.035188 0.008257 0.907000
0.020797 -0.038703 0.923000
-0.003483 0.021864 0.914000
0.018438 0.011014 0.919000
0.023431 0.000804 0.922000
0.017720 -0.016254 0.921000
-0.025912 0.009772 0.909000
-0.010654 0.001930 0.916000
-0.007260 0.012864 0.916000
0.009370 -0.015101 0.920000
0.033371 0.001947 0.924000
-0.000475 -0.009032 0.919000
-0.000097 0.027883 0.914000
-0.014016 -0.015755 0.914000
0.023863 -0.033801 0.924000
0.036714 0.002702 0.922000
-0.026373 -0.009339 0.912000
-0.015895 -0.024224 0.936000
0.011929 0.019210 0.913000
0.010884 -0.013207 0.920000
-0.014361 0.025570 0.912000
-0.005903 -0.032065 0.940000
0.043165 -0.001472 0.922000
-0.039600 0.026995 0.897000
-0.026084 0.039025 0.902000
0.043165 -0.013616 0.922000
-0.009106 0.027071 0.912000
0.037976 -0.001096 0.925000
0.000280 0.025250 0.914000
0.004452 -0.032554 0.921000
0.023077 -0.012871 0.923000
0.018158 -0.042168 0.924000
0.002198 -0.035169 0.930000
0.002184 -0.034181 0.924000
0.011287 -0.005267 0.922000
0.001784 0.024497 0.914000
-0.016238 0.002673 0.912000
0.007863 -0.034450 0.921000
-0.005746 0.015862 0.915000
-0.031829 0.014977 0.907000
0.009769 -0.003749 0.922000
0.035158 -0.034829 0.921000
-0.024817 0.009783 0.910000
0.027345 -0.011007 0.926000
-0.020345 -0.000330 0.911000
0.034131 -0.000335 0.924000
0.001413 -0.019958 0.917000
0.005583 0.012162 0.920000
0.016582 -0.021561 0.921000
0.016546 0.012149 0.919000
-0.006129 -0.022198 0.916000
-0.027753 0.024336 0.908000
0.017739 -0.018169 0.922000
-0.011759 0.009450 0.914000
0.004423 0.021135 0.915000
-0.041661 -0.002599 0.918000
-0.025538 0.006779 0.909000
0.032265 -0.018990 0.925000
0.011642 -0.013586 0.920000
0.020462 -0.020894 0.925000
-0.017326 0.028884 0.910000
-0.035523 0.023537 0.906000
0.003304 -0.017335 0.918000
-0.039953 0.010102 0.905000
0.037595 -0.018990 0.925000
-0.031893 0.032572 0.888000
-0.007126 0.036306 0.899000
-0.030709 0.014230 0.907000
0.016600 -0.037143 0.922000
-0.012122 0.010191 0.913000
-0.031490 0.001540 0.908000
-0.026344 -0.008204 0.911000
0.025031 -0.041071 0.925000
-0.001610 -0.007519 0.919000
-0.007980 0.032326 0.912000
-0.015845 0.012418 0.911000
0.036156 -0.042185 0.908000
0.011226 0.015520 0.917000
0.016221 -0.028036 0.922000
-0.027722 0.034389 0.907000
-0.035896 0.016079 0.906000
0.040401 -0.031451 0.911000
-0.003876 -0.025269 0.918000
-0.019970 0.001920 0.911000
-0.042186 -0.001082 0.913000
-0.024443 0.000419 0.910000
-0.041842 -0.003370 0.922000
-0.025109 0.037002 0.907000
-0.009986 -0.025815 0.924000
0.025329 -0.002611 0.922000
-0.013655 0.001928 0.915000
0.013550 -0.023457 0.921000
0.009748 -0.026082 0.920000
0.008659 -0.038406 0.925000
-0.013249 -0.010477 0.913000
-0.008023 -0.004106 0.917000
-0.034404 0.019062 0.906000
0.004064 -0.027945 0.919000
-0.028842 0.025430 0.907000
-0.021869 0.018438 0.912000
0.020462 -0.020513 0.925000
-0.037760 0.012723 0.906000
-0.030135 0.037870 0.901000
0.045872 -0.008692 0.923000
0.038730 -0.038406 0.907000
0.019257 -0.031072 0.922000
-0.015470 0.020667 0.911000
-0.017269 0.036629 0.907000
0.003365 -0.036513 0.935000
0.010517 -0.035587 0.921000
0.001041 -0.032590 0.922000
-0.009523 0.006077 0.916000
0.023431 -0.008303 0.922000
-0.018470 0.014293 0.911000
-0.012122 0.010567 0.913000
0.018857 -0.006020 0.921000
-0.001224 0.029731 0.913000
-0.018845 0.015418 0.911000
0.005825 0.031495 0.899000
0.004815 -0.022625 0.918000
-0.021446 0.006412 0.910000
-0.014345 0.015793 0.911000
-0.007268 -0.007503 0.917000
-0.029247 0.016488 0.908000
-0.003120 -0.025647 0.918000
-0.002739 -0.013542 0.917000
-0.011759 -0.005221 0.914000
-0.032004 -0.007462 0.912000
0.018898 -0.036044 0.923000
0.022648 -0.000334 0.921000
-0.015128 -0.010852 0.913000
0.016980 -0.003749 0.922000
0.002926 -0.021113 0.918000
0.026381 0.008745 0.919000
-0.044994 0.002290 0.909000
0.003318 0.009532 0.922000
0.021890 0.003078 0.921000
0.005955 -0.026432 0.919000
-0.018896 -0.021435 0.932000
0.017182 -0.044115 0.933000
-0.025912 0.000045 0.909000
0.006712 -0.018867 0.919000
0.023431 -0.005647 0.922000
-0.029962 0.020203 0.907000
-0.026661 0.005283 0.909000
0.004815 -0.021869 0.918000
-0.015863 -0.004835 0.912000
0.003304 -0.026781 0.918000
-0.027905 -0.010477 0.913000
0.013550 -0.025731 0.921000
0.008622 -0.013222 0.921000
-0.012539 0.003061 0.916000
-0.022171 0.025860 0.909000
-0.031455 0.019457 0.907000
-0.003871 0.015897 0.917000
-0.027722 0.025430 0.907000
0.001036 0.014403 0.918000
0.019215 0.008376 0.920000
-0.030689 -0.012572 0.929000
-0.024015 0.033306 0.908000
0.006313 0.018896 0.916000
0.045442 -0.005267 0.922000
0.019257 -0.028036 0.922000
-0.002362 -0.013542 0.917000
0.024623 -0.025815 0.924000
0.007915 -0.038871 0.927000
-0.030226 -0.009746 0.915000
0.041066 -0.005671 0.926000
0.002926 -0.018468 0.918000
0.020418 -0.038703 0.923000
-0.008355 0.024444 0.912000
0.005074 0.030318 0.897000
0.015824 -0.006778 0.921000
-0.012826 -0.026564 0.937000
-0.016989 0.021816 0.912000
0.006361 0.007643 0.923000
-0.029621 0.002287 0.908000
0.003645 0.028853 0.909000
0.001790 0.016652 0.917000
-0.012874 0.010191 0.913000
-0.009106 0.026696 0.912000
-0.014393 -0.016883 0.914000
0.011642 -0.027596 0.920000
-0.003486 0.017745 0.915000
-0.008382 -0.015395 0.915000
-0.042561 0.007122 0.905000
-0.010642 0.009460 0.915000
0.007492 -0.006406 0.922000
0.012020 -0.020781 0.920000
0.008242 0.007248 0.921000
0.028046 -0.028097 0.924000
-0.035188 0.003031 0.907000
-0.028280 0.037499 0.901000
0.032299 -0.010626 0.926000
-0.020145 -0.017732 0.919000
0.019994 -0.000334 0.921000
0.021370 0.012849 0.915000
0.036413 0.001567 0.924000
-0.008711 0.034877 0.910000
-0.000852 -0.021845 0.917000
0.013550 -0.029143 0.921000
0.025411 -0.040310 0.925000
0.039541 -0.015199 0.926000
0.029282 -0.011019 0.927000
-0.004244 -0.022575 0.916000
0.028426 -0.019730 0.924000
0.024016 -0.041959 0.945000
-0.036682 0.004898 0.907000
-0.034442 0.013857 0.907000
0.031884 -0.037264 0.925000
-0.016595 0.015418 0.911000
0.039707 0.002699 0.921000
0.017739 0.005358 0.922000
0.031122 -0.026224 0.925000
0.027197 0.007248 0.921000
-0.024443 0.010532 0.910000
-0.020389 0.021464 0.913000
-0.028095 0.023563 0.907000
0.022672 -0.002231 0.922000
-0.004677 -0.030096 0.927000
-0.021072 0.025888 0.910000
-0.001637 -0.033783 0.934000
-0.005746 -0.016902 0.915000
-0.028874 0.019104 0.908000
-0.029022 0.037499 0.901000
-0.016595 0.012418 0.911000
0.015066 -0.021940 0.921000
0.028807 -0.019730 0.924000
0.016203 -0.007157 0.921000
0.028426 -0.043309 0.924000
0.030675 -0.041742 0.923000
0.042164 -0.012137 0.925000
-0.014013 -0.026234 0.939000
0.029631 -0.008339 0.926000
0.029980 -0.037264 0.925000
-0.006109 0.028980 0.913000
0.007484 0.007248 0.921000
0.027315 -0.031934 0.925000
0.032847 -0.045015 0.920000
0.009759 0.008006 0.921000
-0.041071 0.022021 0.905000
-0.033285 0.026893 0.906000
-0.017707 -0.021772 0.930000
-0.003871 0.015142 0.917000
-0.000097 -0.023355 0.917000
-0.010983 0.022942 0.912000
0.008981 -0.022271 0.919000
-0.021821 0.010907 0.910000
-0.015845 0.014668 0.911000
-0.003871 -0.011277 0.917000
-0.038091 0.020904 0.905000
-0.024121 0.015810 0.912000
0.026088 0.001184 0.922000
0.003304 -0.018846 0.918000
0.001417 -0.011693 0.920000
0.004815 -0.018091 0.918000
-0.009126 -0.012369 0.914000
0.005210 -0.009810 0.921000
0.028457 -0.028508 0.925000
0.003681 -0.021869 0.918000
-0.034442 0.006018 0.907000
0.009370 -0.014722 0.920000
-0.007237 0.024846 0.913000
0.016080 0.016597 0.914000
0.018118 -0.032969 0.922000
-0.017345 0.010169 0.911000
0.012736 0.015520 0.917000
0.012046 -0.008682 0.922000
-0.022146 0.036295 0.908000
-0.025623 0.015060 0.912000
0.021890 0.002699 0.921000
-0.008845 -0.026575 0.924000
-0.032949 0.017963 0.907000
0.040303 -0.013675 0.926000
-0.005031 -0.028795 0.922000
0.023127 -0.023559 0.925000
-0.024469 -0.007454 0.911000
0.035994 -0.023887 0.923000
0.016980 -0.037143 0.922000
-0.036803 0.018023 0.910000
0.007476 -0.031762 0.920000
-0.016989 0.020315 0.912000
0.028776 -0.002234 0.923000
0.040129 0.000804 0.922000
-0.007629 -0.010123 0.915000
0.005210 -0.009052 0.921000
-0.000474 -0.024487 0.917000
-0.021470 -0.008954 0.911000
0.027696 -0.019751 0.925000
0.002170 -0.023002 0.918000
-0.007253 -0.013889 0.915000
0.004064 0.012527 0.919000
-0.015880 -0.011980 0.913000
0.029850 -0.043926 0.921000
0.017720 -0.015496 0.921000
-0.001565 0.034593 0.893000
-0.032575 0.010124 0.907000
0.015841 -0.037143 0.922000
-0.007260 -0.008626 0.916000
0.012033 -0.032933 0.921000
0.024243 -0.038745 0.924000
-0.025594 0.016918 0.911000
0.035614 0.002705 0.923000
0.032610 0.000426 0.924000
0.019278 -0.018569 0.923000
0.028137 -0.012545 0.927000
0.016582 0.007248 0.921000
-0.006876 -0.014642 0.915000
-0.026315 -0.004824 0.910000
0.008234 -0.027218 0.920000
-0.016202 0.032630 0.910000
-0.015487 -0.002582 0.912000
-0.000850 0.018875 0.915000
-0.015145 -0.015378 0.914000
-0.019970 -0.005954 0.911000
-0.008355 0.031951 0.912000
-0.012902 0.003435 0.915000
0.013944 -0.004508 0.922000
0.022365 -0.018229 0.925000
-0.020345 0.001170 0.911000
-0.006883 -0.009757 0.916000
0.004846 -0.035703 0.924000
-0.011031 -0.001086 0.916000
-0.000854 -0.027945 0.919000
-0.009533 -0.000710 0.917000
-0.035305 -0.003326 0.910000
-0.040412 -0.004518 0.924000
0.036863 -0.038779 0.907000
-0.002300 0.036063 0.893000
0.031884 -0.006807 0.925000
-0.030369 0.009014 0.908000
-0.034815 0.001911 0.907000
-0.036810 0.031195 0.901000
0.010528 -0.005647 0.922000
0.026554 -0.038787 0.925000
0.013185 -0.003370 0.922000
-0.022195 0.000794 0.910000
0.030742 -0.033076 0.925000
-0.028500 0.016115 0.908000
0.039922 -0.007958 0.926000
0.014687 -0.029143 0.921000
-0.020389 -0.013859 0.913000
-0.049212 0.001188 0.925000
-0.044473 0.004147 0.906000
-0.029589 0.022443 0.907000
-0.006109 0.022216 0.913000
-0.016650 -0.015755 0.914000
-0.004982 0.028604 0.913000
0.037934 0.001187 0.924000
-0.001609 -0.027159 0.918000
0.003786 -0.039584 0.944000
-0.006183 -0.028477 0.924000
0.020373 -0.000334 0.921000
-0.006116 0.016973 0.914000
0.022293 -0.004888 0.922000
0.032645 -0.016706 0.925000
0.019972 0.007619 0.920000
-0.023345 0.021042 0.911000
0.004019 0.029227 0.909000
-0.019724 -0.017316 0.917000
0.002926 -0.016957 0.918000
-0.025192 -0.001828 0.910000
0.028107 -0.014437 0.926000
0.015445 -0.015496 0.921000
0.039103 -0.036912 0.907000
-0.027439 -0.006322 0.910000
-0.026344 0.016168 0.911000
-0.029215 0.032522 0.907000
0.016221 0.004979 0.922000
-0.009481 0.029699 0.912000
-0.037760 0.005638 0.906000
-0.024228 0.039025 0.902000
-0.012845 0.033791 0.911000
0.004073 -0.009431 0.921000
0.002170 -0.016201 0.918000
-0.030536 -0.008598 0.913000
-0.009932 -0.024540 0.919000
0.010204 -0.040397 0.927000
-0.006506 -0.022575 0.916000
0.013564 0.002702 0.922000
0.035310 -0.022797 0.925000
0.035310 -0.007949 0.925000
0.027666 -0.007180 0.924000
0.029187 -0.020110 0.924000
-0.017364 -0.004459 0.912000
0.019236 -0.011327 0.921000
-0.003110 0.018122 0.915000
-0.014345 0.020292 0.911000
-0.015863 -0.002207 0.912000
-0.034556 -0.004075 0.910000
0.026088 0.003081 0.922000
-0.036308 0.016843 0.907000
-0.009900 0.002307 0.916000
0.026905 -0.032280 0.924000
0.037254 -0.009101 0.926000
0.003304 -0.023002 0.918000
0.019994 0.000045 0.921000
-0.001231 -0.026781 0.918000
0.023863 -0.037985 0.924000
0.019215 0.009133 0.920000
0.012359 0.015142 0.917000
0.020797 -0.035664 0.923000
0.005589 -0.013222 0.921000
0.027606 0.002322 0.922000
0.002545 0.017029 0.917000
-0.024253 -0.014297 0.917000
-0.035150 0.022418 0.906000
0.034512 -0.034562 0.924000
0.023152 -0.019392 0.926000
0.021890 0.003836 0.921000
-0.006513 0.012500 0.917000
0.029599 -0.026985 0.925000
0.024243 -0.023533 0.924000
-0.000097 0.016274 0.917000
-0.029621 0.016862 0.908000
-0.032575 0.014977 0.907000
0.044304 -0.005267 0.922000
-0.031082 0.017963 0.907000
0.011349 -0.041160 0.927000
-0.005375 -0.011265 0.916000
0.017720 0.005731 0.921000
0.001827 -0.036552 0.936000
0.037188 -0.034602 0.915000
0.008234 -0.028354 0.920000
0.039118 -0.002239 0.925000
0.037214 -0.000716 0.925000
-0.038135 0.019628 0.915000
0.021131 -0.001471 0.921000
-0.013625 -0.004464 0.913000
-0.002362 0.016652 0.917000
-0.004244 -0.019559 0.916000
-0.000473 0.019628 0.915000
-0.023667 0.023615 0.909000
-0.016220 0.012793 0.911000
0.044304 -0.001852 0.922000
0.006763 -0.037686 0.926000
0.037053 -0.023457 0.921000
0.015859 0.001185 0.923000
-0.020720 -0.008204 0.911000
-0.011223 -0.026806 0.932000
0.013171 -0.023836 0.921000
-0.025164 0.019874 0.909000
0.027315 -0.039168 0.925000
0.027666 -0.029238 0.924000
0.016582 -0.006399 0.921000
0.015445 -0.020045 0.921000
-0.019552 0.029975 0.909000
-0.021470 -0.008579 0.911000
0.030775 -0.008720 0.926000
0.016833 0.015093 0.914000
-0.006868 0.016221 0.914000
-0.021423 0.031846 0.909000
-0.037014 0.019435 0.906000
-0.009146 0.010978 0.916000
-0.035150 0.011604 0.906000
0.038017 -0.009482 0.926000
0.013535 -0.014722 0.920000
0.035344 -0.036902 0.916000
-0.015470 0.018043 0.911000
-0.008769 -0.007118 0.916000
-0.012484 0.023693 0.912000
0.036111 -0.019392 0.926000
-0.026315 0.011656 0.910000
0.009288 0.019189 0.912000
0.022722 -0.037604 0.924000
0.022317 -0.033005 0.923000
-0.020345 -0.005954 0.911000
-0.030094 -0.006704 0.911000
-0.039953 0.021276 0.905000
-0.018815 -0.020579 0.928000
0.017739 -0.026518 0.922000
0.020752 -0.001471 0.921000
-0.011333 0.035252 0.910000
-0.036603 0.025234 0.887000
-0.027379 0.025831 0.908000
0.017739 -0.031072 0.922000
0.016274 -0.042594 0.925000
0.005204 0.008755 0.920000
0.015462 -0.005647 0.922000
-0.012498 -0.008973 0.913000
-0.035188 0.009751 0.907000
0.004831 -0.009052 0.921000
-0.005633 0.035856 0.897000
0.018498 0.000804 0.922000
0.002172 0.014419 0.919000
0.039160 -0.012150 0.926000
-0.008401 -0.004861 0.917000
0.028457 -0.007949 0.925000
-0.027035 -0.001826 0.909000
-0.035523 0.022045 0.906000
0.011553 0.019210 0.913000
-0.004510 0.036840 0.894000
-0.036851 0.028712 0.893000
-0.000854 -0.006385 0.919000
-0.006876 -0.012759 0.915000
-0.032575 0.015724 0.907000
0.024783 -0.041676 0.930000
-0.005009 -0.004111 0.918000
-0.019220 0.007919 0.911000
0.004068 -0.012829 0.920000
0.029375 0.009113 0.918000
-0.030335 0.026176 0.907000
0.008991 -0.029490 0.920000
-0.000474 -0.017316 0.917000
0.026144 -0.023533 0.924000
0.030675 0.000425 0.923000
0.026934 -0.035741 0.925000
-0.033836 -0.008673 0.921000
-0.011007 -0.008231 0.914000
-0.036973 0.023139 0.905000
-0.021821 0.005288 0.910000
0.039075 -0.018589 0.924000
-0.006793 0.035391 0.904000
-0.032202 0.012737 0.907000
0.008287 -0.038829 0.926000
0.027516 0.007989 0.919000
-0.042405 -0.003766 0.926000
0.037635 -0.008720 0.926000
0.028396 -0.003753 0.923000
0.029915 -0.001474 0.923000
-0.009878 -0.008231 0.914000
0.039707 0.001183 0.921000
-0.045268 0.003778 0.907000
-0.037387 0.012723 0.906000
-0.037333 0.025964 0.887000
-0.023667 0.023989 0.909000
-0.026661 -0.002948 0.909000
0.003217 0.032424 0.894000
0.032645 -0.020894 0.925000
-0.011733 0.023318 0.912000
-0.007629 -0.015019 0.915000
-0.030742 0.002287 0.908000
0.028076 -0.031173 0.925000
0.034930 -0.013279 0.925000
-0.018866 0.018438 0.912000
-0.013640 -0.000707 0.914000
-0.027005 0.022094 0.908000
0.011275 -0.033691 0.921000
0.033605 0.004589 0.920000
-0.004244 -0.018805 0.916000
-0.028281 -0.009725 0.913000
-0.014016 0.001926 0.914000
0.037351 -0.032484 0.919000
0.025439 -0.017867 0.926000
-0.000852 -0.019581 0.917000
0.012399 -0.014343 0.920000
0.021154 -0.007544 0.922000
-0.025164 0.003038 0.909000
0.021985 -0.017848 0.925000
0.018478 0.005352 0.921000
0.029187 -0.006800 0.924000
-0.041539 0.023725 0.899000
-0.037137 -0.001826 0.909000
0.014687 -0.022699 0.921000
-0.042188 0.007494 0.905000
-0.025247 0.015435 0.912000
0.032681 -0.009101 0.926000
0.000281 0.014403 0.918000
-0.006103 0.030825 0.912000
-0.013789 -0.023153 0.924000
0.008981 -0.021136 0.919000
0.033787 -0.032696 0.925000
-0.007284 -0.025297 0.919000
-0.030727 0.031040 0.886000
-0.025623 -0.010465 0.912000
-0.009856 0.029323 0.912000
-0.011383 -0.013498 0.914000
0.040685 -0.007196 0.926000
0.037254 -0.009482 0.926000
-0.013625 -0.014610 0.913000
-0.039625 0.003774 0.906000
-0.034442 0.005271 0.907000
0.026582 -0.014818 0.926000
-0.017326 0.029259 0.910000
-0.020389 0.020337 0.913000
-0.000097 -0.018071 0.917000
-0.009126 0.013964 0.914000
-0.009491 0.013949 0.913000
-0.040718 -0.006085 0.931000
-0.000097 -0.021468 0.917000
-0.029034 -0.012899 0.925000
-0.025941 -0.005948 0.910000
0.022648 0.000425 0.921000
-0.010277 0.006831 0.916000
-0.024763 0.028447 0.908000
0.024623 -0.038745 0.924000
0.004064 -0.029458 0.919000
-0.023319 0.001543 0.910000
-0.032367 0.033049 0.891000
0.031503 -0.036122 0.925000
-0.034898 -0.007519 0.919000
0.004773 0.028510 0.910000
-0.012470 0.029291 0.911000
-0.019616 -0.011216 0.912000
0.000664 -0.033457 0.925000
-0.016989 -0.006336 0.912000
-0.013955 0.035252 0.910000
-0.022195 0.002667 0.910000
-0.027783 -0.004071 0.909000
0.010471 0.016652 0.917000
-0.030979 -0.009370 0.915000
-0.006129 -0.021821 0.916000
0.036873 -0.015961 0.926000
-0.016613 0.025945 0.912000
-0.031864 0.005651 0.908000
-0.012539 -0.019936 0.916000
-0.025594 0.016543 0.911000
0.028744 0.005358 0.922000
-0.006513 0.010236 0.917000
-0.029962 0.021323 0.907000
0.001410 0.023394 0.915000
-0.001231 0.014403 0.918000
-0.022944 0.010532 0.910000
0.015824 -0.009431 0.921000
0.027456 0.008726 0.917000
-0.015863 0.007552 0.912000
-0.000852 0.017029 0.917000
-0.022220 -0.002205 0.911000
-0.001984 -0.013919 0.917000
0.003962 0.031022 0.896000
-0.008050 -0.026082 0.920000
0.032955 -0.037943 0.923000
0.018857 -0.008673 0.921000
-0.015360 -0.022846 0.927000
0.026554 -0.010614 0.925000
0.029599 -0.019371 0.925000
0.002501 0.030824 0.901000
-0.034404 0.024283 0.906000
-0.030742 0.009014 0.908000
0.012426 -0.009062 0.922000
-0.011720 0.030791 0.911000
0.001792 -0.022625 0.918000
-0.038510 -0.004898 0.924000
-0.018115 -0.004459 0.912000
-0.020583 0.037665 0.905000
0.025384 -0.036844 0.924000
0.026201 -0.018248 0.926000
-0.028157 0.012765 0.909000
-0.009575 -0.025352 0.921000
0.023482 -0.023533 0.924000
0.012778 -0.016994 0.920000
-0.031589 -0.012626 0.933000
0.040731 -0.032540 0.910000
0.011566 0.017726 0.914000
0.034205 -0.029301 0.926000
0.030742 -0.034980 0.925000
0.016851 0.014732 0.915000
0.042209 -0.007577 0.926000
-0.017720 0.006419 0.911000
0.007863 -0.008673 0.921000
-0.015863 0.001171 0.912000
0.039498 -0.000716 0.925000
0.003689 -0.012450 0.920000
-0.032180 0.034709 0.896000
-0.019904 0.036669 0.908000
0.029219 -0.025081 0.925000
0.015807 0.009890 0.920000
-0.031583 0.030419 0.900000
-0.043598 -0.001468 0.919000
-0.004244 -0.012019 0.916000
0.005546 0.021112 0.914000
0.000281 -0.027536 0.918000
0.015824 -0.016633 0.921000
0.015082 0.006117 0.922000
0.006278 0.024417 0.911000
0.000281 -0.010557 0.920000
-0.021118 -0.011216 0.912000
-0.041535 0.001911 0.907000
-0.002727 0.030483 0.913000
-0.003035 0.035696 0.893000
0.041268 -0.015893 0.922000
0.011654 0.009901 0.921000
-0.030369 0.010509 0.908000
-0.025510 0.031811 0.908000
0.006326 0.015159 0.918000
0.014671 -0.013586 0.920000
0.024269 -0.013279 0.925000
0.027666 -0.006419 0.924000
-0.026690 0.017274 0.910000
0.002213 -0.036552 0.936000
-0.019948 0.027761 0.910000
0.020775 -0.009441 0.922000
0.040844 0.001183 0.921000
0.022771 -0.020535 0.926000
-0.009910 -0.001842 0.917000
0.033407 -0.007188 0.925000
-0.024496 0.016561 0.912000
0.006333 -0.015841 0.919000
0.018857 -0.014738 0.921000
0.021866 0.009890 0.920000
0.013550 -0.024973 0.921000
-0.004230 0.024846 0.913000
-0.014736 0.006802 0.912000
-0.013610 0.025194 0.912000
0.024243 -0.036844 0.924000
-0.029719 -0.006704 0.911000
0.002172 -0.013571 0.919000
-0.021025 0.036669 0.908000
0.010884 -0.020402 0.920000
-0.025164 0.006779 0.909000
-0.031490 0.003782 0.908000
0.005528 0.022542 0.911000
0.000656 0.027131 0.914000
0.025329 0.003461 0.922000
-0.032237 0.002661 0.908000
-0.016613 0.001546 0.912000
0.020241 0.013603 0.915000
0.029753 0.007602 0.918000
0.002884 0.029843 0.905000
0.028396 0.002705 0.923000
0.035310 -0.012137 0.925000
0.009359 -0.020380 0.919000
0.021131 0.006869 0.921000
0.031469 -0.002236 0.924000
0.011629 0.012906 0.919000
0.033443 -0.010245 0.926000
-0.024817 0.009408 0.910000
-0.005759 0.010613 0.917000
-0.038591 0.000045 0.908000
0.026173 -0.011376 0.925000
-0.021446 0.024765 0.910000
-0.035227 0.000419 0.908000
-0.018511 -0.014234 0.913000
-0.031829 0.017217 0.907000
0.015066 -0.029901 0.921000
-0.014720 0.016168 0.911000
0.031401 -0.040559 0.922000
-0.017063 -0.018051 0.916000
-0.006492 0.016973 0.914000
0.011263 -0.014343 0.920000
-0.022495 0.037002 0.907000
0.002910 0.025598 0.913000
-0.013278 0.005318 0.915000
-0.007596 0.033041 0.911000
0.023102 -0.036083 0.924000
0.014323 0.001563 0.922000
0.022390 -0.021297 0.926000
-0.023293 0.023989 0.909000
0.029631 -0.014056 0.926000
0.001800 -0.032590 0.922000
0.017758 -0.040983 0.923000
0.035310 -0.030411 0.925000
-0.027005 0.025458 0.908000
0.016582 -0.008673 0.921000
-0.016577 0.028884 0.910000
0.032265 -0.023178 0.925000
-0.011759 -0.015002 0.914000
0.008537 0.021441 0.912000
-0.025912 0.008276 0.909000
-0.028188 -0.006697 0.910000
-0.016238 0.001922 0.912000
0.026088 0.000804 0.922000
-0.022146 0.035548 0.908000
0.024922 0.008006 0.921000
-0.023370 0.013933 0.912000
-0.024790 0.023241 0.909000
-0.027332 -0.012815 0.919000
-0.026975 0.031029 0.907000
0.029915 0.004224 0.923000
-0.006838 0.034128 0.910000
-0.021118 0.021816 0.912000
0.016203 -0.023457 0.921000
-0.032949 0.008631 0.907000
-0.021797 0.030349 0.909000
0.033334 -0.037184 0.923000
0.013564 0.003081 0.922000
-0.024068 0.001543 0.910000
-0.016220 0.007544 0.911000
-0.003855 0.028980 0.913000
0.024976 -0.009452 0.923000
-0.023041 -0.017925 0.929000
-0.009523 -0.020690 0.916000
0.012046 -0.036005 0.922000
-0.018155 -0.015002 0.914000
-0.028500 0.020226 0.908000
-0.011408 0.006454 0.916000
0.015082 -0.033349 0.922000
-0.033322 0.007511 0.907000
-0.034777 0.013469 0.906000
0.030742 -0.024701 0.925000
0.033026 -0.016325 0.925000
-0.029247 0.018357 0.908000
-0.029589 0.020577 0.907000
-0.035679 -0.003700 0.910000
0.034205 -0.028920 0.926000
0.039189 -0.034375 0.909000
-0.031082 0.016470 0.907000
0.012412 -0.011327 0.921000
0.025329 0.005738 0.922000
0.010861 0.014403 0.918000
-0.033695 0.014977 0.907000
0.020373 -0.008294 0.921000
-0.010254 -0.009359 0.914000
-0.011031 0.004569 0.916000
0.003685 0.012149 0.919000
-0.003855 0.026349 0.913000
0.020373 -0.004124 0.921000
0.026144 -0.025435 0.924000
-0.030742 -0.001076 0.908000
0.027636 -0.004513 0.923000
0.031122 -0.016706 0.925000
-0.023319 0.008659 0.910000
-0.008711 0.035252 0.910000
0.034854 -0.034524 0.923000
-0.015606 -0.020758 0.919000
-0.009136 -0.018785 0.915000
-0.017720 0.001920 0.911000
-0.004982 0.024470 0.913000
0.021557 -0.035284 0.923000
0.030013 -0.012150 0.926000
0.021177 -0.016670 0.923000
0.022269 0.006490 0.921000
0.019257 0.002702 0.922000
0.034131 -0.001476 0.924000
-0.020322 0.011656 0.910000
-0.027349 0.027669 0.907000
-0.024763 0.032558 0.908000
-0.018095 0.001170 0.911000
0.008622 -0.034450 0.921000
0.025708 -0.005267 0.922000
0.028076 -0.038787 0.925000
0.001036 -0.024136 0.918000
-0.018490 0.019189 0.912000
-0.021470 0.000045 0.911000
-0.012109 0.013933 0.912000
0.036691 -0.036740 0.912000
0.036072 0.000046 0.925000
0.004437 -0.016579 0.918000
0.024269 -0.021274 0.925000
0.002540 0.021511 0.915000
-0.011370 0.011318 0.913000
-0.014393 0.000798 0.914000
0.019615 -0.013222 0.921000
-0.028469 0.025430 0.907000
-0.011759 -0.013874 0.914000
0.010248 -0.041338 0.931000
-0.024496 0.017312 0.912000
0.034512 -0.001856 0.924000
-0.037055 0.001911 0.907000
0.024787 0.010601 0.916000
-0.039252 0.005638 0.906000
0.011654 0.006111 0.921000
-0.012498 -0.010852 0.913000
-0.014720 0.020667 0.911000
-0.028906 0.013888 0.909000
0.007098 -0.014722 0.920000
-0.016220 0.016918 0.911000
0.023052 -0.010580 0.922000
-0.027213 -0.011629 0.915000
0.010517 0.005731 0.921000
-0.011031 0.001176 0.916000
0.031156 -0.034255 0.926000
0.016600 -0.027277 0.922000
-0.024015 0.034427 0.908000
-0.007637 -0.008626 0.916000
0.008603 -0.016219 0.919000
-0.024763 0.027700 0.908000
0.010138 -0.011327 0.921000
0.015479 -0.000334 0.923000
0.013171 -0.035208 0.921000
0.022648 0.004215 0.921000
0.030742 -0.025081 0.925000
-0.019220 0.008294 0.911000
0.019994 -0.000713 0.921000
0.018099 -0.011706 0.921000
-0.033695 0.011244 0.907000
0.033371 -0.036083 0.924000
-0.032108 0.034264 0.894000
0.007419 0.019961 0.913000
0.039160 -0.008720 0.926000
0.040303 -0.011769 0.926000
-0.022944 0.004914 0.910000
0.035691 -0.014041 0.925000
-0.010654 0.004569 0.916000
-0.010630 -0.007479 0.914000
-0.008364 0.016955 0.913000
-0.012470 0.024417 0.911000
-0.039295 0.002285 0.907000
-0.024998 0.038325 0.903000
-0.015845 0.010919 0.911000
-0.002364 -0.026025 0.918000
-0.019992 -0.009714 0.912000
0.014308 -0.020045 0.921000
0.037565 -0.033849 0.915000
-0.028157 0.003038 0.909000
0.026905 -0.023153 0.924000
-0.019681 -0.016148 0.915000
0.024949 0.003840 0.922000
0.029219 -0.032696 0.925000
-0.004626 -0.009768 0.917000
0.010314 -0.042761 0.937000
0.017700 0.009890 0.920000
-0.016220 0.010919 0.911000
0.011654 -0.035208 0.921000
0.004024 0.028135 0.910000
0.017739 -0.027656 0.922000
-0.038761 -0.003333 0.912000
-0.009106 0.024068 0.912000
-0.018531 -0.015002 0.914000
-0.015863 0.005675 0.912000
0.012020 -0.023810 0.920000
0.035691 -0.009472 0.925000
-0.020674 0.028479 0.909000
0.026905 -0.031139 0.924000
0.020707 0.011393 0.919000
0.017739 -0.020067 0.922000
0.029663 -0.009111 0.927000
-0.029255 -0.011693 0.920000
-0.029621 0.003408 0.908000
0.039541 -0.014818 0.926000
0.029599 -0.007569 0.925000
-0.019241 0.018438 0.912000
-0.014361 0.009429 0.912000
0.026525 -0.028097 0.924000
-0.003117 -0.024864 0.917000
0.005929 0.019252 0.915000
0.027345 -0.011769 0.926000
-0.027094 -0.007454 0.911000
0.027756 -0.012545 0.927000
0.021581 -0.039125 0.924000
-0.026460 -0.012383 0.915000
0.027666 -0.027716 0.924000
0.023102 -0.033041 0.924000
-0.037511 -0.001452 0.909000
0.029535 -0.003753 0.923000
0.032955 0.002705 0.923000
0.005198 -0.030214 0.919000
0.024190 -0.006785 0.922000
-0.014736 0.024819 0.912000
0.032645 -0.007188 0.925000
-0.038133 0.005265 0.906000
-0.034181 -0.003700 0.910000
-0.025192 0.010532 0.910000
0.007476 0.009512 0.920000
-0.004606 0.025598 0.913000
0.012399 -0.024946 0.920000
-0.027409 -0.001452 0.909000
-0.024708 0.038080 0.906000
-0.000474 -0.021845 0.917000
0.019994 0.000804 0.921000
0.030988 0.005731 0.921000
-0.006913 -0.026460 0.920000
-0.012845 0.029291 0.911000
-0.036968 0.026694 0.887000
-0.000097 -0.021090 0.917000
-0.003498 -0.010156 0.918000
0.043924 -0.013995 0.922000
0.007846 -0.020002 0.919000
-0.000097 0.020381 0.915000
-0.036228 0.025001 0.905000
0.041647 -0.017410 0.922000
0.008242 -0.007915 0.921000
0.014671 -0.014343 0.920000
-0.007245 0.016597 0.914000
0.027079 0.009858 0.917000
0.016221 -0.036384 0.922000
0.021131 0.000425 0.921000
0.019972 0.010648 0.920000
0.018099 0.006490 0.921000
0.012778 -0.014722 0.920000
-0.005381 0.009481 0.917000
0.013944 -0.007165 0.922000
0.039922 -0.012150 0.926000
-0.014124 -0.022319 0.921000
0.028303 0.007240 0.920000
-0.001229 -0.015052 0.917000
-0.031455 0.010871 0.907000
0.001410 0.022264 0.915000
0.015859 -0.040223 0.923000
-0.024443 0.003416 0.910000
-0.021352 0.037707 0.906000
0.029980 -0.028127 0.925000
-0.022520 0.030690 0.908000
0.012399 -0.017373 0.920000
0.034299 -0.046331 0.939000
0.012007 0.012527 0.919000
0.020038 -0.037943 0.923000
-0.012457 0.035626 0.910000
-0.039625 0.008994 0.906000
0.024570 -0.002611 0.922000
0.037214 -0.004523 0.925000
0.021890 0.000804 0.921000
-0.037760 0.010859 0.906000
-0.007646 -0.003351 0.917000
-0.003113 -0.017297 0.916000
-0.032344 -0.006329 0.911000
0.033026 -0.021274 0.925000
0.025569 0.010990 0.917000
0.019278 -0.023128 0.923000
-0.005746 -0.016148 0.915000
-0.009523 -0.005233 0.916000
-0.010277 0.007208 0.916000
-0.040326 0.007494 0.905000
-0.039998 0.007503 0.906000
0.011275 -0.011706 0.921000
0.005193 -0.017335 0.918000
-0.029962 0.018337 0.907000
-0.045340 0.000422 0.916000
-0.016970 0.027791 0.911000
0.002548 -0.026025 0.918000
-0.032186 0.031405 0.886000
0.017681 0.012149 0.919000
0.003304 -0.024136 0.918000
-0.031490 0.009388 0.908000
0.019111 0.013603 0.915000
0.029535 0.004224 0.923000
0.030742 -0.033838 0.925000
-0.008015 0.010978 0.916000
-0.021118 0.020690 0.912000
-0.030302 0.031368 0.906000
0.032598 -0.043169 0.913000
0.031503 -0.014802 0.925000
-0.021048 0.033342 0.909000
-0.042608 0.004519 0.906000
-0.011926 -0.025136 0.927000
0.041066 -0.004909 0.926000
-0.020629 0.037002 0.907000
-0.022894 0.031437 0.908000
0.012203 -0.043393 0.934000
-0.020720 -0.005579 0.911000
0.028713 0.006869 0.921000
0.035272 0.001187 0.924000
-0.021869 0.020315 0.912000
0.028396 0.004224 0.923000
0.024623 -0.028477 0.924000
-0.035428 0.027362 0.885000
-0.029280 -0.000329 0.909000
-0.038602 0.024247 0.891000
0.021913 -0.005267 0.922000
-0.028560 -0.012477 0.922000
0.009370 -0.028732 0.920000
0.002120 0.031795 0.897000
-0.011383 -0.007102 0.914000
-0.031116 0.001540 0.908000
-0.030391 -0.010936 0.920000
0.022365 -0.016706 0.925000
0.009390 -0.010580 0.922000
0.013535 -0.020023 0.920000
0.011275 0.006869 0.921000
-0.040042 0.028416 0.907000
-0.036348 -0.001450 0.908000
0.004519 -0.037667 0.935000
0.030361 -0.018609 0.925000
0.001792 -0.026403 0.918000
-0.016523 -0.022107 0.928000
-0.021797 0.026234 0.909000
-0.024068 0.005288 0.910000
0.013550 -0.023078 0.921000
-0.002739 -0.022600 0.917000
0.000281 0.012136 0.918000
0.027226 0.003461 0.922000
0.007098 0.011784 0.920000
-0.029700 0.033668 0.888000
0.007846 -0.021514 0.919000
-0.008272 0.037954 0.903000
-0.015880 -0.008973 0.913000
0.005961 0.011405 0.920000
-0.023319 -0.001828 0.910000
0.004403 0.025167 0.911000
0.039982 -0.032165 0.910000
-0.017364 -0.009714 0.912000
0.004059 0.015914 0.918000
-0.012511 -0.004469 0.914000
0.012819 -0.038703 0.923000
0.013156 -0.016615 0.920000
0.026582 -0.012531 0.926000
0.021557 -0.037943 0.923000
-0.015161 -0.018408 0.915000
0.034814 -0.040119 0.912000
-0.003876 -0.010156 0.918000
-0.042796 0.000045 0.910000
0.002548 -0.022625 0.918000
-0.017364 0.020315 0.912000
-0.013249 -0.008222 0.913000
-0.028563 -0.005199 0.910000
0.008234 -0.031762 0.920000
0.007476 0.011784 0.920000
-0.001225 0.025626 0.914000
-0.037552 -0.002577 0.910000
-0.023694 -0.003326 0.910000
-0.008337 0.034503 0.910000
-0.008006 -0.012006 0.915000
-0.024042 0.022118 0.909000
0.021961 -0.037224 0.924000
-0.022220 -0.007454 0.911000
-0.029589 0.026549 0.907000
-0.024068 0.003416 0.910000
0.009380 -0.033312 0.921000
0.028838 -0.027746 0.925000
0.026963 -0.014056 0.926000
-0.017701 0.031881 0.910000
-0.020345 0.016168 0.911000
-0.021845 0.023292 0.911000
-0.007612 0.019210 0.913000
0.020395 -0.013995 0.922000
-0.022146 0.034427 0.908000
0.009748 -0.013586 0.920000
-0.011759 -0.008607 0.914000
-0.035523 0.014215 0.906000
0.019972 0.009890 0.920000
-0.032390 -0.010211 0.923000
-0.046471 0.001176 0.916000
0.010138 0.008764 0.921000
0.015859 -0.002994 0.923000
-0.010654 -0.001086 0.916000
0.015462 -0.034108 0.922000
0.031333 -0.041607 0.920000
-0.022894 0.031063 0.908000
0.013929 -0.022699 0.921000
-0.010254 -0.016507 0.914000
-0.021821 0.007910 0.910000
0.039200 -0.029426 0.918000
0.028016 -0.005273 0.923000
-0.031455 0.011244 0.907000
-0.012095 0.025542 0.911000
-0.024015 0.031063 0.908000
-0.031864 0.004156 0.908000
0.036072 -0.021655 0.925000
-0.034777 0.024283 0.906000
0.010149 -0.007924 0.922000
0.037473 -0.029174 0.922000
-0.046674 0.000424 0.920000
-0.010142 0.037624 0.904000
0.028838 -0.031553 0.925000
0.005936 0.017765 0.916000
-0.024577 -0.013136 0.915000
-0.046245 0.000424 0.919000
-0.024015 0.026579 0.908000
-0.024068 -0.000704 0.910000
0.036873 -0.010626 0.926000
0.013535 -0.017373 0.920000
-0.013909 -0.024888 0.932000
0.018099 -0.009052 0.921000
-0.023215 -0.019216 0.936000
0.007090 -0.028323 0.919000
0.042498 -0.012885 0.924000
0.039836 -0.017068 0.924000
0.011275 0.004973 0.921000
-0.006143 -0.004111 0.918000
0.016998 0.001565 0.923000
-0.024443 -0.005948 0.910000
0.015428 -0.013586 0.920000
0.025329 0.000046 0.922000
-0.016632 0.023719 0.913000
0.020462 -0.019371 0.925000
-0.015810 0.035961 0.909000
0.022722 -0.015166 0.924000
-0.020674 0.029975 0.909000
0.005577 -0.015084 0.919000
0.044304 -0.009441 0.922000
0.033026 -0.035741 0.925000
0.026963 -0.015199 0.926000
0.007468 -0.017732 0.919000
0.029948 -0.040647 0.924000
-0.025510 0.025831 0.908000
0.041647 -0.000334 0.922000
-0.028531 0.003038 0.909000
0.024689 -0.042169 0.941000
0.034168 -0.011376 0.925000
-0.004249 0.012500 0.917000
-0.018470 0.007544 0.911000
-0.028157 -0.000703 0.909000
0.014719 -0.001094 0.923000
0.014687 -0.024215 0.921000
0.013914 -0.018509 0.920000
0.017739 -0.001093 0.922000
-0.015828 0.031132 0.910000
-0.018214 -0.018071 0.917000
-0.014345 0.019917 0.911000
-0.043727 0.005265 0.906000
0.008991 -0.025703 0.920000
0.006785 -0.038572 0.929000
0.014703 0.002322 0.922000
-0.009900 0.000799 0.916000
0.035310 -0.001858 0.925000
0.036985 -0.037034 0.910000
0.044683 -0.005267 0.922000
0.005974 -0.035246 0.922000
-0.000852 -0.023355 0.917000
0.019636 -0.028036 0.922000
-0.025386 -0.013542 0.917000
0.038356 -0.001477 0.925000
0.010849 0.015520 0.917000
-0.004944 0.033978 0.906000
0.026060 0.006869 0.921000
0.026467 0.005358 0.922000
-0.012888 -0.017636 0.914000
0.021131 0.004973 0.921000
0.001408 0.026002 0.914000
-0.009856 0.021816 0.912000
-0.012525 0.004564 0.915000
-0.029962 0.019083 0.907000
0.030328 -0.004138 0.924000
-0.012859 0.011306 0.912000
-0.018804 0.030723 0.909000
-0.020657 -0.018609 0.925000
-0.005759 -0.023732 0.917000
-0.004606 0.028604 0.913000
0.034512 0.002327 0.924000
-0.034442 0.003031 0.907000
0.007846 0.013284 0.919000
0.026173 -0.036883 0.925000
0.015479 -0.038703 0.923000
-0.004244 0.015880 0.916000
-0.000484 -0.034204 0.935000
-0.041026 0.023113 0.904000
0.024570 0.003840 0.922000
-0.007237 0.022592 0.913000
-0.003483 0.022240 0.914000
-0.012902 -0.002591 0.915000
0.025820 -0.014056 0.926000
-0.022545 0.025860 0.909000
-0.019176 -0.020176 0.927000
-0.005746 -0.014642 0.915000
-0.027409 0.000045 0.909000
0.014308 -0.007536 0.921000
-0.004244 -0.020313 0.916000
0.010908 -0.007544 0.922000
0.001404 0.029666 0.911000
-0.025136 0.030690 0.908000
-0.008769 0.009847 0.916000
-0.038992 0.028567 0.900000
0.033688 -0.044623 0.912000
0.004820 -0.028701 0.919000
0.038315 0.000806 0.924000
-0.028531 0.015758 0.909000
-0.021446 0.003416 0.910000
-0.024571 -0.016778 0.929000
-0.003113 -0.014658 0.916000
0.041066 -0.011007 0.926000
0.038695 0.000426 0.924000
0.031608 -0.042603 0.917000
-0.009502 -0.011240 0.914000
0.001042 -0.033005 0.923000
0.001414 -0.026025 0.918000
-0.015128 -0.008598 0.913000
-0.013640 0.004936 0.914000
0.017359 -0.035625 0.922000
-0.017307 0.034091 0.909000
0.022722 -0.024294 0.924000
0.016582 -0.010568 0.921000
-0.014753 -0.003713 0.913000
0.005198 -0.026810 0.919000
0.036812 -0.035355 0.915000
0.026525 -0.027336 0.924000
-0.016613 0.001922 0.912000
0.031122 -0.038026 0.925000
-0.006898 -0.006000 0.918000
-0.037760 0.004892 0.906000
-0.024068 0.009408 0.910000
-0.036196 0.025461 0.895000
-0.019220 -0.004829 0.911000
-0.010221 0.032666 0.911000
-0.042188 0.025746 0.905000
-0.034782 -0.009101 0.926000
-0.039252 0.011232 0.906000
0.009748 0.010648 0.920000
0.013056 0.017706 0.913000
0.033824 -0.029682 0.926000
-0.006861 0.017706 0.913000
-0.004230 0.021464 0.913000
0.006675 0.020359 0.914000
-0.012845 0.028916 0.911000
-0.012859 0.022567 0.912000
-0.024623 -0.017197 0.931000
0.017341 -0.006020 0.921000
-0.036320 0.028218 0.889000
0.018498 -0.018928 0.922000
-0.007229 0.032326 0.912000
0.011287 -0.009821 0.922000
-0.001989 -0.027566 0.919000
0.012426 -0.006785 0.922000
-0.017026 -0.015755 0.914000
-0.012761 0.038038 0.905000
-0.039998 0.004147 0.906000
0.019994 -0.006399 0.921000
0.004398 0.026637 0.910000
-0.006876 -0.010123 0.915000
-0.004304 -0.030925 0.929000
-0.035150 0.011977 0.906000
0.023785 0.006869 0.921000
