0.009938 -0.014825 0.840000
-0.000783 -0.010714 0.843000
-0.017624 -0.029765 0.852000
0.015872 -0.005857 0.843000
0.044114 -0.011699 0.839000
0.003066 0.015121 0.852000
0.049048 -0.007807 0.829000
-0.047852 0.010849 0.847000
0.024343 0.012258 0.848000
-0.014662 -0.010714 0.843000
-0.020406 -0.029730 0.851000
0.009950 -0.024534 0.841000
-0.008805 -0.004490 0.847000
-0.000437 -0.009696 0.845000
-0.031169 0.026976 0.839000
0.046296 0.001080 0.841000
0.035904 -0.027913 0.849000
-0.016705 -0.015189 0.841000
-0.018089 -0.016919 0.841000
0.017260 -0.025634 0.843000
0.010284 -0.022777 0.840000
-0.021356 0.002133 0.847000
-0.021975 -0.006558 0.844000
-0.028474 -0.021419 0.841000
-0.010961 0.010913 0.852000
0.030698 0.010887 0.850000
-0.003546 -0.020702 0.840000
0.047341 0.002791 0.835000
0.038198 -0.019618 0.838000
0.020853 0.012258 0.848000
-0.037172 -0.024564 0.842000
0.018214 -0.017915 0.839000
0.008545 -0.019296 0.839000
0.047253 -0.016439 0.852000
-0.033439 -0.026706 0.844000
-0.001844 0.014419 0.852000
-0.015502 0.016154 0.851000
0.009367 0.020007 0.851000
-0.023208 0.014403 0.851000
0.010693 -0.026390 0.845000
0.027517 0.010874 0.849000
0.011819 0.014403 0.851000
-0.022183 0.016523 0.852000
-0.015759 -0.002744 0.846000
-0.014417 0.002139 0.849000
0.018670 -0.002737 0.844000
-0.030587 -0.016246 0.842000
-0.025858 0.024416 0.846000
-0.016456 -0.002047 0.846000
-0.037172 -0.017633 0.842000
-0.022375 -0.000655 0.846000
-0.023254 -0.021739 0.840000
0.019689 -0.004469 0.843000
0.022703 -0.020678 0.839000
0.014171 -0.026390 0.845000
0.010975 -0.015171 0.840000
-0.030878 -0.000308 0.850000
-0.015575 -0.031277 0.855000
0.000950 -0.014496 0.841000
-0.001841 0.019306 0.851000
-0.050247 0.003794 0.829000
-0.002536 0.020658 0.849000
0.016354 -0.028645 0.850000
-0.023909 0.015103 0.851000
-0.034767 0.011250 0.851000
0.013921 -0.029029 0.851000
-0.025479 -0.006566 0.845000
-0.000438 -0.027118 0.846000
0.036253 0.023803 0.849000
-0.025539 0.024096 0.847000
-0.030369 0.029632 0.836000
-0.031264 0.010550 0.851000
0.021002 -0.012405 0.840000
0.028599 0.023831 0.850000
0.013921 0.018956 0.851000
0.024488 -0.008612 0.841000
0.011001 -0.025257 0.842000
-0.022157 0.013352 0.851000
0.013050 -0.022777 0.840000
-0.049478 -0.008305 0.845000
-0.012989 -0.004490 0.847000
0.037553 -0.013771 0.839000
-0.045009 -0.004833 0.846000
0.021227 0.015417 0.849000
0.042293 0.009073 0.844000
-0.016705 -0.023496 0.841000
-0.030205 -0.023496 0.841000
-0.015993 -0.021739 0.840000
0.027850 -0.019963 0.838000
-0.032543 -0.032408 0.857000
-0.035118 0.019306 0.851000
-0.029197 0.021082 0.852000
0.002370 -0.030538 0.854000
0.021848 0.004917 0.846000
0.017869 -0.019987 0.839000
-0.002174 -0.026359 0.844000
0.048361 -0.016459 0.853000
0.016723 0.021408 0.851000
0.030517 -0.004479 0.845000
0.030384 0.022809 0.851000
-0.027762 0.012301 0.851000
0.045658 -0.000998 0.842000
0.016833 -0.016188 0.839000
0.023881 -0.001000 0.844000
0.035219 -0.024188 0.841000
-0.004584 -0.021394 0.840000
0.035861 0.015399 0.848000
0.002365 0.013367 0.852000
0.013174 0.000391 0.848000
-0.025980 0.010887 0.850000
-0.022270 -0.013474 0.842000
0.017711 0.025869 0.848000
0.035692 0.002473 0.844000
0.027167 0.014718 0.849000
0.049806 -0.014066 0.836000
-0.033092 -0.009337 0.844000
0.024605 0.002128 0.845000
0.022091 -0.024910 0.842000
0.025091 -0.018584 0.838000
-0.012205 -0.016573 0.841000
-0.044872 0.008788 0.850000
0.027883 -0.022059 0.839000
-0.024578 0.027979 0.838000
-0.030564 0.004595 0.851000
0.021424 -0.002387 0.843000
-0.029859 -0.020035 0.841000
-0.010548 -0.006930 0.847000
-0.022508 0.014403 0.851000
-0.027794 0.007757 0.852000
0.034343 0.001085 0.845000
-0.028846 0.008458 0.852000
0.014254 0.013336 0.850000
0.029265 -0.021368 0.839000
0.012155 -0.028645 0.850000
0.037989 -0.008612 0.841000
0.029579 0.005277 0.848000
-0.040770 -0.026609 0.852000
-0.041072 0.011600 0.851000
0.035512 0.016097 0.848000
0.018905 -0.016879 0.839000
-0.029898 0.015822 0.852000
0.040700 0.014335 0.847000
0.040304 0.010488 0.846000
0.006480 -0.014825 0.840000
-0.040324 0.016485 0.850000
-0.025072 -0.011061 0.843000
0.038543 -0.016169 0.838000
-0.009863 -0.003797 0.848000
-0.023072 0.025112 0.846000
0.040304 0.009791 0.846000
0.028565 0.008428 0.849000
-0.021858 0.020756 0.853000
0.034896 0.019283 0.850000
0.012704 -0.015171 0.840000
-0.027218 -0.008305 0.845000
0.037038 0.000389 0.843000
0.022358 -0.021023 0.839000
0.035387 0.004911 0.845000
-0.028362 -0.006240 0.848000
0.009950 -0.013458 0.841000
-0.017233 -0.028995 0.850000
-0.024638 0.021082 0.852000
-0.047795 0.012925 0.846000
0.045496 -0.012045 0.839000
0.020631 -0.015498 0.839000
-0.003546 -0.017936 0.840000
-0.033439 -0.010380 0.844000
0.016566 -0.006551 0.843000
0.012012 -0.015171 0.840000
0.010284 -0.014479 0.840000
-0.030074 -0.032056 0.857000
-0.050929 0.005500 0.829000
-0.024262 0.027667 0.839000
-0.015520 0.020731 0.852000
-0.026082 -0.025257 0.842000
0.009718 0.018606 0.851000
0.029264 0.016815 0.849000
-0.028576 -0.009337 0.844000
-0.012655 -0.003099 0.848000
-0.010248 0.007397 0.851000
-0.032087 0.024039 0.845000
-0.034107 0.018277 0.852000
0.032679 -0.019273 0.838000
-0.043371 0.002136 0.848000
0.036950 -0.008266 0.841000
0.022651 0.023132 0.850000
0.012689 -0.019987 0.839000
0.005508 -0.028645 0.850000
-0.016222 0.017575 0.852000
-0.011540 -0.010020 0.843000
-0.010807 -0.022085 0.840000
0.006473 -0.019296 0.839000
-0.039945 -0.020058 0.842000
-0.029863 0.002844 0.851000
-0.051259 -0.006182 0.840000
-0.033013 -0.015207 0.842000
-0.023503 0.008778 0.849000
-0.032977 0.021732 0.850000
0.030792 -0.025287 0.843000
0.035246 0.020683 0.850000
0.035246 0.022432 0.850000
0.000950 -0.013458 0.841000
-0.007358 -0.024534 0.841000
-0.013735 0.004590 0.850000
-0.032667 -0.024564 0.842000
0.029264 0.024852 0.849000
-0.030061 0.027945 0.837000
-0.018759 -0.020011 0.840000
0.001303 -0.027118 0.846000
-0.032003 0.020381 0.852000
-0.005047 -0.032522 0.860000
0.007257 0.020683 0.850000
-0.001844 0.012666 0.852000
0.018781 -0.027913 0.849000
0.028216 0.009477 0.849000
-0.043874 0.010900 0.851000
-0.022831 0.010887 0.850000
0.044114 -0.013081 0.839000
0.015268 -0.027531 0.848000
0.033608 -0.002737 0.844000
-0.008041 -0.020702 0.840000
-0.015834 0.010187 0.850000
-0.004600 -0.025634 0.843000
0.045496 -0.015843 0.839000
-0.023263 0.019351 0.853000
-0.046512 0.013305 0.848000
-0.018218 0.001088 0.847000
-0.006052 0.010562 0.852000
0.020681 -0.010689 0.841000
-0.007350 -0.020702 0.840000
-0.017500 -0.001003 0.846000
-0.001131 -0.026359 0.844000
-0.001133 -0.009001 0.845000
-0.038303 -0.009337 0.844000
0.039326 -0.011713 0.840000
0.035819 -0.026801 0.847000
-0.015834 0.009138 0.850000
-0.002163 -0.017591 0.840000
0.024430 -0.022404 0.839000
0.033847 -0.028295 0.850000
-0.007455 0.010211 0.852000
-0.021205 -0.022804 0.841000
-0.038604 -0.014184 0.843000
0.005796 -0.012420 0.841000
0.003030 -0.011395 0.842000
-0.010573 -0.001356 0.849000
-0.010923 0.000741 0.849000
0.022785 -0.024910 0.842000
0.028813 -0.001003 0.846000
-0.027154 -0.026328 0.843000
0.017362 0.007720 0.848000
0.039352 0.017144 0.848000
0.034099 -0.013081 0.839000
-0.009491 -0.007619 0.846000
-0.003208 -0.012088 0.842000
0.036778 0.004215 0.845000
0.037170 0.007702 0.846000
-0.015647 -0.021739 0.840000
0.007901 -0.009685 0.844000
-0.007004 -0.021394 0.840000
-0.000089 -0.009696 0.845000
0.028778 -0.003436 0.845000
0.024200 -0.004122 0.843000
-0.032003 0.015121 0.852000
-0.013751 0.020707 0.851000
-0.008041 -0.020356 0.840000
-0.004941 -0.013127 0.842000
0.006251 -0.031314 0.856000
0.021745 -0.007583 0.842000
0.026126 -0.020653 0.838000
0.022703 -0.017570 0.839000
-0.036089 -0.022804 0.841000
0.029195 0.001785 0.847000
0.004780 -0.008653 0.845000
-0.026041 0.015471 0.852000
0.050815 -0.012257 0.830000
-0.006721 -0.027880 0.848000
-0.033756 0.014419 0.852000
-0.004941 -0.024910 0.842000
-0.005694 0.016154 0.851000
-0.005275 -0.018282 0.840000
0.033030 0.005271 0.847000
-0.029231 0.019351 0.853000
-0.016863 0.008428 0.849000
-0.011901 -0.009685 0.844000
-0.035818 0.011951 0.851000
0.025012 0.025490 0.847000
-0.037786 0.003532 0.848000
-0.000441 0.014770 0.852000
-0.009898 0.007047 0.851000
-0.040021 0.015804 0.851000
0.044062 -0.015479 0.838000
0.018950 -0.011727 0.841000
-0.008857 0.010211 0.852000
-0.034705 -0.023150 0.841000
0.027071 0.003524 0.846000
-0.028474 -0.021073 0.841000
-0.021897 -0.023496 0.841000
-0.026428 -0.015553 0.842000
0.020902 0.017534 0.850000
0.037956 0.015748 0.848000
0.048295 -0.000298 0.822000
-0.020094 0.030738 0.838000
-0.015685 -0.014514 0.842000
0.022196 0.005265 0.846000
0.016645 0.004574 0.847000
-0.027501 -0.013143 0.843000
-0.030492 -0.003103 0.849000
-0.002166 -0.023842 0.841000
-0.039598 -0.016939 0.842000
0.036210 -0.027531 0.848000
-0.012551 -0.024534 0.841000
-0.025310 0.013352 0.851000
-0.047210 0.011909 0.848000
-0.037393 -0.028196 0.847000
-0.015778 -0.001004 0.847000
0.015797 -0.022404 0.839000
0.007300 -0.030573 0.855000
-0.053394 0.006705 0.852000
-0.010586 0.003540 0.850000
0.039578 -0.017204 0.838000
0.022170 0.002128 0.845000
0.029614 0.015417 0.849000
-0.017743 -0.016573 0.841000
-0.035176 -0.009337 0.844000
0.032295 -0.002396 0.846000
-0.038879 0.003886 0.849000
0.013741 -0.013442 0.840000
-0.020908 -0.012102 0.843000
0.041598 0.004558 0.844000
-0.038575 0.007039 0.850000
-0.031927 0.003540 0.850000
-0.010224 0.001440 0.849000
-0.032228 -0.032446 0.858000
0.041499 -0.003424 0.842000
0.003710 -0.019642 0.839000
-0.050611 -0.003395 0.835000
0.023394 -0.015498 0.839000
0.019153 0.022432 0.850000
-0.012013 0.008809 0.852000
-0.030564 0.014052 0.851000
-0.002545 0.010913 0.852000
0.034814 0.012258 0.848000
0.015617 0.004230 0.848000
0.006915 -0.029029 0.851000
-0.032277 0.004240 0.850000
-0.016572 0.018277 0.852000
0.017073 0.021758 0.851000
-0.003246 0.014419 0.852000
0.000259 -0.006574 0.846000
0.006818 -0.020332 0.839000
0.015797 -0.021368 0.839000
0.012127 -0.000656 0.848000
0.027167 0.014369 0.849000
0.027160 -0.019618 0.838000
-0.017172 0.002133 0.847000
-0.051790 -0.006204 0.843000
-0.039252 -0.024564 0.842000
-0.038620 0.012651 0.851000
0.031299 -0.019618 0.838000
-0.046972 0.008788 0.850000
0.045496 -0.013771 0.839000
-0.010961 0.012315 0.852000
-0.017480 -0.004132 0.845000
0.011014 -0.009673 0.843000
-0.021507 -0.030502 0.853000
0.033147 0.019283 0.850000
0.020334 -0.010343 0.841000
0.038819 0.003515 0.844000
0.010769 0.011250 0.851000
-0.044069 0.000391 0.848000
-0.003201 -0.018628 0.840000
-0.035786 -0.024910 0.842000
0.005514 0.010550 0.851000
-0.031974 -0.016593 0.842000
-0.037044 0.000390 0.847000
0.007854 -0.019987 0.839000
0.030590 0.027233 0.847000
0.022974 0.016116 0.849000
0.028949 0.019983 0.850000
0.028949 0.018934 0.850000
0.037828 -0.029449 0.853000
-0.039182 0.017842 0.848000
0.017565 -0.009650 0.841000
-0.030369 0.029288 0.836000
-0.029478 0.000392 0.850000
0.010781 0.013718 0.852000
-0.042123 0.014753 0.851000
0.017403 0.017184 0.850000
-0.035134 -0.014531 0.843000
0.019806 -0.027531 0.848000
0.025450 0.020683 0.850000
0.012719 -0.024534 0.841000
-0.040879 0.000042 0.847000
0.016684 0.012971 0.849000
0.003369 -0.022431 0.840000
0.043078 -0.013771 0.839000
0.026911 -0.007920 0.841000
-0.051482 -0.005132 0.838000
0.046933 -0.008256 0.840000
0.016625 0.000738 0.846000
0.000954 -0.009001 0.845000
-0.010598 0.015453 0.851000
-0.009863 -0.002750 0.848000
-0.001482 -0.006922 0.846000
-0.053871 -0.000309 0.854000
0.007607 -0.028645 0.850000
-0.028880 -0.030502 0.853000
-0.020464 0.028357 0.839000
-0.029129 -0.000308 0.850000
-0.020190 -0.024910 0.842000
-0.020732 0.011587 0.850000
-0.011039 -0.032093 0.858000
0.048604 -0.009282 0.839000
-0.020908 -0.010714 0.843000
0.020902 0.019283 0.850000
0.018082 0.015417 0.849000
-0.022322 0.026095 0.844000
-0.028429 0.022782 0.850000
-0.007350 -0.023122 0.840000
-0.026966 -0.002401 0.848000
-0.018068 -0.018282 0.840000
0.018692 0.001433 0.845000
-0.030914 0.012301 0.851000
-0.032277 0.002841 0.850000
0.025496 -0.012405 0.840000
0.004464 0.020007 0.851000
0.049310 -0.007741 0.822000
0.036822 0.009443 0.846000
-0.002896 0.010211 0.852000
-0.020238 0.026442 0.844000
-0.007516 -0.032484 0.859000
-0.036479 -0.015553 0.842000
0.019988 -0.008612 0.841000
-0.014051 0.023426 0.848000
0.041896 0.016002 0.843000
0.046351 -0.003424 0.842000
0.041299 0.005954 0.845000
0.023909 0.004215 0.845000
-0.004584 -0.017936 0.840000
0.045312 0.001428 0.842000
0.011469 0.020007 0.851000
0.027983 -0.006196 0.842000
0.028216 0.014718 0.849000
0.035777 0.007006 0.846000
-0.018742 -0.031277 0.855000
-0.014434 0.007039 0.850000
0.034997 0.001431 0.844000
0.032060 0.015068 0.849000
0.041302 -0.014790 0.838000
-0.049413 0.004870 0.838000
0.015599 0.025142 0.847000
-0.036347 -0.002050 0.847000
-0.027122 -0.015900 0.842000
0.034773 0.009454 0.847000
0.027258 -0.009650 0.841000
0.035912 -0.007574 0.841000
-0.047099 -0.003788 0.846000
-0.034440 -0.013490 0.843000
-0.044575 0.010550 0.851000
0.013112 -0.007601 0.844000
-0.024230 0.011587 0.850000
-0.046163 0.000391 0.848000
-0.035259 -0.004833 0.846000
0.026850 0.020683 0.850000
0.013555 0.016485 0.850000
-0.003948 0.010562 0.852000
-0.018849 -0.005864 0.844000
0.017954 -0.004816 0.843000
0.018648 -0.003775 0.843000
-0.049708 -0.005857 0.843000
-0.003925 0.022353 0.847000
0.007863 -0.022431 0.840000
0.040590 -0.029063 0.852000
0.019595 -0.015153 0.839000
-0.037831 0.007031 0.849000
0.014187 -0.004485 0.846000
0.038543 -0.015824 0.838000
0.022703 -0.021023 0.839000
0.024085 -0.015498 0.839000
0.004819 0.014770 0.852000
0.023422 -0.013788 0.840000
-0.007723 -0.011061 0.843000
0.020656 -0.011713 0.840000
0.023422 -0.022777 0.840000
-0.018523 0.026126 0.845000
0.000611 0.014770 0.852000
0.042590 0.001776 0.843000
0.008667 0.010550 0.851000
0.036125 0.007006 0.846000
-0.039391 -0.012826 0.845000
-0.028820 -0.017958 0.841000
0.023186 -0.000653 0.844000
0.013666 -0.031350 0.857000
-0.023768 -0.003440 0.846000
0.023076 -0.012059 0.840000
0.001990 -0.025257 0.842000
0.006565 0.010550 0.851000
0.034732 0.006658 0.846000
0.008911 -0.011727 0.841000
-0.041876 -0.003440 0.846000
0.019829 0.014369 0.849000
0.048913 -0.003001 0.821000
-0.039485 0.000390 0.847000
0.012520 0.010199 0.851000
0.029439 -0.005169 0.844000
-0.010936 0.003191 0.850000
0.001644 -0.012434 0.842000
0.024746 -0.020308 0.838000
-0.027379 0.002141 0.850000
0.025800 0.018934 0.850000
0.011778 0.000391 0.848000
-0.008764 -0.025981 0.843000
-0.006753 0.012666 0.852000
-0.008857 0.008809 0.852000
0.014415 -0.019987 0.839000
0.001313 0.012666 0.852000
-0.016514 0.007031 0.849000
-0.018893 0.000042 0.846000
-0.031974 0.025340 0.842000
0.000259 -0.005885 0.847000
-0.004283 0.020658 0.849000
-0.047503 0.000390 0.847000
0.009017 0.016854 0.851000
0.035303 -0.003081 0.843000
-0.026299 0.004585 0.849000
-0.023558 0.015804 0.851000
-0.024609 0.014753 0.851000
-0.044121 0.004934 0.849000
0.050374 -0.013689 0.834000
0.002696 -0.006922 0.846000
0.007527 -0.013458 0.841000
0.030991 -0.022749 0.839000
0.003714 -0.014825 0.840000
0.032027 -0.022404 0.839000
-0.042174 -0.007957 0.845000
-0.039321 0.015804 0.851000
0.020226 0.021758 0.851000
0.028249 0.024181 0.850000
0.005134 -0.007270 0.846000
-0.030551 -0.018650 0.841000
-0.017645 -0.030502 0.853000
-0.017562 0.007729 0.849000
0.023450 -0.009650 0.841000
0.014866 -0.005175 0.845000
-0.022885 0.018627 0.852000
0.032409 0.013320 0.849000
-0.001145 -0.030538 0.854000
-0.029197 0.017225 0.852000
-0.008507 0.009159 0.852000
0.007929 0.023050 0.847000
0.007562 -0.008653 0.845000
-0.012943 -0.008295 0.844000
0.032643 0.000738 0.846000
-0.010536 -0.027118 0.846000
0.041945 0.013242 0.844000
0.009950 -0.012073 0.841000
-0.044956 -0.007957 0.845000
-0.000089 -0.007270 0.846000
0.028363 -0.025287 0.843000
0.012520 0.020357 0.851000
-0.031652 0.017575 0.852000
0.031984 0.000042 0.847000
-0.015466 0.004585 0.849000
-0.037132 0.018911 0.849000
0.014070 -0.019296 0.839000
0.016833 -0.015498 0.839000
0.034076 0.009454 0.847000
-0.017480 -0.004479 0.845000
0.030902 -0.026769 0.846000
-0.040483 -0.004485 0.846000
0.038214 0.009791 0.846000
0.026469 0.016465 0.849000
0.004427 -0.009685 0.844000
0.003066 0.012666 0.852000
0.023729 0.021057 0.851000
0.033069 0.006673 0.848000
0.035735 0.004911 0.845000
0.023296 0.011560 0.848000
0.015580 -0.001351 0.846000
-0.020166 -0.016573 0.841000
-0.010923 -0.028612 0.849000
-0.036083 0.007031 0.849000
-0.022854 0.028324 0.838000
0.021449 -0.026011 0.844000
-0.031702 -0.008990 0.844000
-0.023235 0.018277 0.852000
-0.009132 -0.026738 0.845000
0.042539 0.014597 0.842000
-0.048782 -0.004479 0.845000
-0.032977 0.005989 0.850000
-0.050649 0.000041 0.830000
0.017362 0.011211 0.848000
-0.032822 -0.006226 0.846000
-0.003948 0.011263 0.852000
0.033409 -0.013081 0.839000
0.006573 0.015822 0.852000
-0.031439 0.028634 0.837000
-0.020858 -0.015881 0.841000
-0.004238 -0.018282 0.840000
0.008209 -0.014825 0.840000
0.038865 0.023343 0.845000
0.037553 -0.013426 0.839000
0.032797 0.020333 0.850000
-0.028813 0.003545 0.851000
0.008932 -0.025634 0.843000
0.012155 0.016485 0.850000
-0.034377 0.010187 0.850000
0.038305 0.023077 0.848000
-0.018759 -0.019319 0.840000
-0.028474 -0.019688 0.841000
-0.027315 -0.002052 0.848000
0.049508 -0.011246 0.831000
0.030626 0.002834 0.848000
-0.023365 -0.026706 0.844000
0.025241 -0.002387 0.843000
-0.028496 0.016874 0.852000
0.006534 -0.027498 0.847000
-0.025018 0.019000 0.853000
0.019250 -0.015153 0.839000
0.030938 -0.000655 0.847000
0.034506 0.024852 0.849000
-0.036211 -0.030115 0.852000
-0.008857 0.011263 0.852000
0.020877 0.015417 0.849000
-0.014417 0.001440 0.849000
-0.013050 0.010900 0.851000
0.034059 -0.016514 0.838000
-0.023309 -0.012781 0.842000
-0.010858 -0.009337 0.844000
0.034404 -0.018239 0.838000
-0.043668 -0.002747 0.847000
0.033714 -0.016169 0.838000
-0.032705 -0.011408 0.843000
0.020286 -0.020332 0.839000
0.036344 -0.002387 0.843000
-0.012234 -0.010367 0.843000
-0.045572 0.008788 0.850000
-0.026397 -0.018996 0.841000
0.003365 -0.020332 0.839000
-0.039044 -0.007610 0.845000
0.026565 -0.008612 0.841000
-0.014002 -0.006914 0.845000
0.017607 -0.004469 0.843000
-0.014784 0.008088 0.850000
-0.026268 -0.001005 0.848000
-0.006045 -0.029379 0.851000
-0.048257 0.007720 0.848000
0.036647 -0.004117 0.842000
-0.021551 -0.023496 0.841000
0.028676 -0.006543 0.842000
-0.032705 -0.013837 0.843000
0.035912 -0.024534 0.841000
-0.000792 -0.030151 0.853000
-0.025012 -0.018304 0.841000
-0.001848 0.008478 0.854000
0.018103 -0.028645 0.850000
0.031299 -0.017549 0.838000
-0.002199 -0.030538 0.854000
0.001293 -0.018260 0.839000
0.017586 -0.006543 0.842000
-0.008507 0.010211 0.852000
0.019250 -0.020332 0.839000
-0.040927 0.001089 0.848000
0.017362 0.009116 0.848000
-0.036566 -0.027054 0.844000
0.038819 0.003168 0.844000
0.042835 0.009387 0.841000
0.037917 -0.030221 0.855000
-0.021079 0.029632 0.836000
-0.030951 0.020030 0.852000
0.023711 -0.019618 0.838000
-0.000795 -0.031314 0.856000
0.007509 -0.018606 0.839000
-0.000781 -0.014842 0.841000
-0.013035 0.001791 0.850000
0.019365 -0.000653 0.844000
-0.027444 0.018277 0.852000
0.031048 0.019983 0.850000
-0.018804 -0.024564 0.842000
-0.047908 0.003183 0.848000
0.025811 -0.016879 0.839000
0.013905 0.018234 0.850000
-0.038905 -0.015900 0.842000
-0.019985 0.006673 0.848000
-0.005694 0.015103 0.851000
0.020155 0.026218 0.848000
-0.018111 -0.014514 0.842000
-0.028295 -0.007619 0.846000
-0.048087 -0.005871 0.845000
-0.038225 0.007739 0.850000
0.032566 -0.004474 0.844000
-0.013400 0.013702 0.851000
-0.040578 0.001089 0.848000
-0.011299 0.016854 0.851000
-0.004298 0.014419 0.852000
0.005443 -0.015862 0.840000
-0.039551 -0.018996 0.841000
-0.015063 -0.004485 0.846000
0.014254 0.021732 0.850000
0.018758 0.012956 0.848000
0.044698 0.004175 0.837000
-0.021705 0.002133 0.847000
-0.018261 0.024502 0.849000
0.026027 0.006309 0.846000
-0.015611 -0.032056 0.857000
-0.028846 0.017575 0.852000
-0.028813 0.011250 0.851000
-0.008457 -0.006233 0.847000
-0.042920 -0.003440 0.846000
-0.027848 -0.012796 0.843000
-0.034457 0.014419 0.852000
-0.025221 0.003532 0.848000
0.024663 0.026536 0.847000
0.035439 -0.018239 0.838000
0.019964 -0.014479 0.840000
0.013539 0.005283 0.849000
-0.017051 -0.015881 0.841000
0.023853 -0.003081 0.843000
0.025679 0.006309 0.846000
-0.029129 0.000392 0.850000
0.043527 0.012156 0.841000
0.043130 0.007648 0.840000
-0.048492 0.008747 0.846000
0.011889 -0.030961 0.856000
0.041598 0.019147 0.844000
0.013856 0.024096 0.847000
0.027549 0.018934 0.850000
-0.042224 -0.003440 0.846000
0.041549 -0.000999 0.843000
0.034547 0.022432 0.850000
0.043873 0.010426 0.841000
-0.037875 0.010187 0.850000
0.013555 0.015085 0.850000
0.040208 0.002126 0.844000
-0.020488 -0.021048 0.840000
0.026534 -0.023468 0.840000
0.020431 0.003867 0.845000
0.027735 -0.001697 0.845000
0.022678 0.021408 0.851000
0.016315 0.023775 0.848000
-0.020610 -0.003436 0.845000
-0.019938 -0.001003 0.846000
0.031011 -0.027563 0.849000
0.035608 -0.004810 0.842000
-0.048434 -0.005175 0.845000
0.040612 -0.019273 0.838000
-0.034359 -0.022458 0.841000
0.002683 -0.012088 0.842000
-0.032353 0.020030 0.852000
-0.033786 -0.009685 0.844000
-0.016397 -0.009326 0.843000
0.017869 -0.018260 0.839000
-0.038925 0.008788 0.850000
-0.027411 0.005296 0.851000
0.031897 -0.029835 0.854000
0.045043 0.004864 0.837000
0.008268 -0.005181 0.846000
0.003019 -0.020332 0.839000
0.042489 0.012156 0.841000
0.042682 -0.016169 0.838000
0.015304 0.018234 0.850000
0.015617 0.003881 0.848000
0.023824 -0.007236 0.842000
0.013741 -0.013788 0.840000
0.013507 -0.002050 0.847000
-0.022589 -0.017958 0.841000
-0.034336 -0.028961 0.849000
0.039213 0.006650 0.845000
0.023378 -0.029029 0.851000
0.028296 -0.008266 0.841000
0.038865 0.023691 0.845000
0.020286 -0.022059 0.839000
-0.032899 -0.028578 0.848000
-0.033439 -0.010032 0.844000
0.016315 -0.027531 0.848000
0.014254 0.022432 0.850000
0.023966 0.009106 0.847000
0.033418 0.025520 0.848000
-0.013004 -0.002750 0.848000
0.022301 0.022432 0.850000
-0.005701 0.011614 0.852000
-0.044365 -0.000655 0.847000
0.039955 0.008399 0.846000
0.016993 0.003528 0.847000
0.022839 -0.001695 0.844000
-0.036436 -0.019342 0.841000
0.019062 0.005265 0.846000
0.040556 0.002126 0.844000
0.011321 -0.014133 0.840000
0.019108 0.012607 0.848000
0.025211 -0.005850 0.842000
0.022758 -0.009997 0.841000
-0.030897 -0.018650 0.841000
0.001663 -0.029414 0.852000
-0.047739 -0.007262 0.845000
-0.034619 -0.031666 0.856000
-0.029197 0.021783 0.852000
-0.024204 0.028634 0.837000
-0.014101 0.015103 0.851000
-0.032822 0.023719 0.846000
-0.016514 0.005633 0.849000
-0.040229 0.003183 0.848000
-0.017722 -0.018628 0.840000
0.014104 -0.024188 0.841000
-0.023116 0.029941 0.835000
0.027549 0.018584 0.850000
-0.042123 0.014403 0.851000
-0.034336 0.004585 0.849000
-0.047154 0.013638 0.847000
-0.037216 -0.013837 0.843000
-0.014400 0.023775 0.848000
0.036473 -0.026421 0.846000
0.018295 -0.031777 0.859000
0.037911 0.013289 0.847000
-0.001841 0.009149 0.851000
-0.025238 0.031046 0.837000
-0.000439 0.021008 0.849000
-0.024320 -0.018996 0.841000
-0.046109 0.015381 0.847000
0.017890 -0.023122 0.840000
0.003026 -0.023842 0.841000
0.014087 -0.014479 0.840000
0.017444 -0.029414 0.852000
0.014467 -0.025257 0.842000
0.025270 -0.001348 0.844000
0.006924 0.014419 0.852000
-0.038879 0.005633 0.849000
-0.025359 -0.016573 0.841000
-0.023099 0.002482 0.847000
-0.028329 -0.028196 0.847000
-0.038742 -0.002744 0.846000
0.031984 -0.027150 0.847000
0.030409 -0.006543 0.842000
-0.009909 0.011965 0.852000
0.011415 0.023399 0.847000
-0.051456 -0.001671 0.832000
-0.044365 0.015729 0.847000
0.012520 0.013001 0.851000
-0.051052 -0.000985 0.831000
0.000257 -0.013112 0.841000
0.018082 -0.027913 0.849000
0.039213 0.023691 0.845000
0.041352 -0.012735 0.839000
-0.032003 0.020731 0.852000
-0.034027 0.021382 0.850000
-0.024373 -0.029869 0.855000
0.020926 0.021408 0.851000
0.000605 -0.011061 0.843000
0.029579 0.004579 0.848000
-0.023282 -0.017958 0.841000
-0.013274 -0.025634 0.843000
-0.046163 0.001089 0.848000
0.002365 0.013017 0.852000
-0.039624 0.007389 0.850000
-0.036957 -0.006218 0.845000
0.009615 -0.024910 0.842000
0.031984 0.026885 0.847000
0.030865 -0.026042 0.845000
-0.000441 0.014419 0.852000
0.034099 -0.022059 0.839000
-0.035481 -0.014184 0.843000
0.031720 -0.023468 0.840000
-0.048782 0.004911 0.845000
0.001642 -0.013458 0.841000
-0.012700 0.013001 0.851000
-0.044313 -0.004137 0.846000
0.005782 -0.019642 0.839000
-0.028462 0.014753 0.851000
0.012520 -0.029029 0.851000
0.020479 0.009803 0.847000
0.012840 0.004585 0.849000
0.038289 -0.009293 0.840000
-0.031927 0.022082 0.850000
-0.028696 -0.032446 0.858000
-0.019027 -0.030115 0.852000
-0.015983 -0.032446 0.858000
-0.029681 0.029976 0.836000
-0.016358 -0.014842 0.841000
0.016645 0.002133 0.847000
-0.020056 0.015453 0.851000
-0.005674 -0.027880 0.848000
-0.043320 -0.001004 0.847000
0.016507 -0.014825 0.840000
-0.008437 -0.009696 0.845000
-0.006342 -0.026359 0.844000
0.035429 0.008399 0.846000
-0.046751 -0.005181 0.846000
0.037302 0.019960 0.849000
-0.021448 0.029323 0.837000
0.026656 -0.030221 0.855000
0.033030 0.026885 0.847000
-0.002545 0.009510 0.852000
-0.037132 0.021008 0.849000
0.002014 0.014770 0.852000
0.047681 -0.001689 0.841000
0.021227 0.016116 0.849000
-0.010486 -0.012781 0.842000
0.019595 -0.018260 0.839000
0.030205 -0.002047 0.846000
-0.016088 -0.004479 0.845000
-0.020537 -0.012781 0.842000
0.025648 0.001781 0.845000
-0.028046 -0.001006 0.849000
0.038471 0.002473 0.844000
0.035554 0.016815 0.849000
-0.035913 -0.007957 0.845000
0.027850 -0.017204 0.838000
0.037853 -0.020998 0.838000
0.010769 0.001093 0.851000
-0.027283 -0.005536 0.847000
-0.022428 0.024124 0.848000
-0.032783 -0.027433 0.845000
0.021398 -0.007929 0.842000
0.037508 -0.019273 0.838000
-0.003915 -0.010044 0.845000
-0.036218 -0.011074 0.844000
0.035219 -0.006535 0.841000
-0.011999 0.007748 0.851000
-0.033055 0.015121 0.852000
0.002706 -0.028262 0.849000
0.009060 0.008488 0.855000
0.025811 -0.021714 0.839000
0.035819 0.009803 0.847000
0.027549 0.019633 0.850000
-0.029548 0.020731 0.852000
-0.008497 -0.029379 0.851000
-0.036739 0.001089 0.848000
0.045043 0.003831 0.837000
0.030662 0.008428 0.849000
-0.015134 0.011237 0.850000
-0.043823 0.006689 0.850000
0.042293 0.010463 0.844000
-0.041975 0.001438 0.848000
-0.022963 -0.014167 0.842000
-0.050568 -0.005836 0.840000
0.024721 0.016116 0.849000
-0.038000 -0.008653 0.845000
0.001661 0.009499 0.851000
0.042193 -0.002731 0.842000
-0.024378 -0.010020 0.843000
0.021002 -0.013096 0.840000
0.019062 -0.026769 0.846000
0.016004 -0.028645 0.850000
0.005782 -0.021023 0.839000
0.013395 -0.022777 0.840000
0.028216 0.024852 0.849000
-0.027664 0.023426 0.848000
0.004464 0.017555 0.851000
0.004118 0.015121 0.852000
0.038911 0.008747 0.846000
-0.020056 0.014052 0.851000
0.017342 0.004574 0.847000
-0.014628 -0.024188 0.841000
-0.036826 -0.017286 0.842000
-0.040087 -0.007957 0.845000
0.032180 -0.005857 0.843000
0.003405 -0.028262 0.849000
-0.039739 -0.006914 0.845000
-0.025072 -0.025634 0.843000
-0.003559 -0.025634 0.843000
-0.006745 0.017905 0.851000
-0.010846 -0.010367 0.843000
-0.042824 0.010900 0.851000
-0.047210 0.001438 0.848000
-0.025888 -0.001004 0.847000
0.018236 -0.014133 0.840000
0.007274 -0.029414 0.852000
-0.017562 0.009477 0.849000
-0.010561 -0.004495 0.848000
0.034568 -0.005503 0.842000
-0.031936 -0.017958 0.841000
-0.009559 0.010913 0.852000
-0.048257 0.006324 0.848000
-0.039645 -0.025634 0.843000
-0.049698 0.001419 0.837000
-0.030004 -0.031277 0.855000
-0.019401 0.021458 0.853000
0.020083 0.001781 0.845000
-0.033641 -0.032799 0.858000
0.035869 -0.010676 0.840000
-0.006418 0.007775 0.854000
0.004113 0.009849 0.851000
0.019296 -0.011035 0.841000
0.016142 -0.015843 0.839000
0.022651 0.019633 0.850000
0.039607 0.007702 0.846000
-0.038315 0.015471 0.852000
-0.013783 -0.030151 0.853000
0.039373 -0.007920 0.841000
-0.025072 0.026064 0.843000
0.019040 0.002824 0.845000
-0.036869 0.010550 0.851000
0.024663 0.009106 0.847000
0.039578 -0.017549 0.838000
0.006473 -0.020678 0.839000
-0.030285 0.017947 0.853000
-0.035608 -0.002396 0.846000
-0.027411 0.015103 0.851000
-0.017091 -0.008979 0.843000
0.034790 -0.030609 0.856000
-0.015722 -0.008295 0.844000
-0.039927 0.006332 0.849000
0.049770 -0.009794 0.824000
-0.040134 -0.004137 0.846000
0.019365 -0.002390 0.844000
0.031748 0.024181 0.850000
0.022358 -0.017915 0.839000
0.034140 -0.009639 0.840000
0.022785 -0.005503 0.842000
0.045258 -0.006881 0.841000
-0.035176 -0.009685 0.844000
0.023561 0.004563 0.845000
-0.016456 -0.001351 0.846000
0.009581 -0.022059 0.839000
-0.014610 -0.020702 0.840000
-0.033558 -0.001004 0.847000
0.022866 0.003520 0.845000
-0.032550 -0.002401 0.848000
-0.008447 -0.009011 0.846000
0.008199 -0.017224 0.839000
-0.013243 -0.024188 0.841000
0.027505 -0.019618 0.838000
-0.021653 0.025778 0.845000
0.012810 -0.003444 0.847000
-0.010611 0.010562 0.852000
0.011361 -0.008979 0.843000
-0.030178 -0.000658 0.850000
-0.009770 -0.021394 0.840000
-0.046457 -0.003096 0.847000
-0.014434 0.005290 0.850000
-0.000440 -0.028645 0.850000
0.039073 -0.005157 0.842000
-0.025359 -0.023842 0.841000
-0.017562 0.008778 0.849000
-0.023628 -0.024188 0.841000
-0.041130 -0.006566 0.845000
-0.042622 -0.002747 0.847000
0.046989 0.000042 0.841000
0.019665 -0.006543 0.842000
-0.014992 -0.025257 0.842000
-0.005017 -0.030925 0.855000
0.011680 -0.013112 0.841000
-0.026268 -0.000656 0.848000
0.020062 -0.031777 0.859000
-0.028046 -0.000308 0.849000
0.043717 0.005215 0.838000
0.035954 -0.003770 0.842000
0.005103 -0.013112 0.841000
0.025557 -0.006196 0.842000
0.006826 -0.023468 0.840000
0.021693 -0.023122 0.840000
0.035869 -0.009639 0.840000
0.003776 0.009181 0.854000
0.045387 0.003486 0.837000
0.021822 0.002128 0.845000
0.022144 -0.001695 0.844000
0.020631 -0.015843 0.839000
0.025189 -0.028044 0.853000
0.026219 -0.024534 0.841000
0.032334 -0.017894 0.838000
0.018388 0.007711 0.847000
0.047166 0.002111 0.838000
0.018604 -0.010689 0.841000
0.051342 -0.012987 0.833000
0.038589 -0.012735 0.839000
0.002381 -0.032093 0.858000
0.030481 -0.005516 0.844000
-0.038879 0.004585 0.849000
-0.045222 0.005989 0.850000
-0.005694 0.016854 0.851000
-0.015009 -0.010714 0.843000
0.012417 -0.007948 0.844000
0.047045 -0.000998 0.842000
0.010418 0.007748 0.851000
0.007562 -0.026738 0.845000
0.010296 -0.024188 0.841000
0.024429 0.022458 0.851000
-0.010923 -0.001356 0.849000
0.034303 -0.001000 0.844000
0.026471 -0.019273 0.838000
0.029892 0.001436 0.847000
-0.002194 0.013718 0.852000
-0.000779 -0.020332 0.839000
0.030175 -0.030221 0.855000
0.027917 -0.012059 0.840000
0.011106 0.022082 0.850000
0.023351 0.019283 0.850000
0.033024 -0.017204 0.838000
-0.022777 0.005626 0.848000
-0.048782 -0.003088 0.845000
0.028532 0.004928 0.848000
0.011119 0.018956 0.851000
0.035429 0.006658 0.846000
0.012689 -0.021368 0.839000
-0.044714 -0.000655 0.847000
0.003710 -0.017915 0.839000
-0.024288 0.015822 0.852000
-0.002181 0.021656 0.847000
-0.000435 -0.014150 0.841000
-0.027411 0.010199 0.851000
-0.035439 -0.015207 0.842000
-0.022990 0.026411 0.843000
-0.033479 -0.027433 0.845000
0.041846 -0.004464 0.842000
0.031673 0.004928 0.848000
-0.045009 -0.006226 0.846000
-0.024580 0.008788 0.850000
-0.026774 0.018649 0.853000
0.040612 -0.019963 0.838000
-0.041374 0.007739 0.850000
-0.011526 -0.011741 0.842000
0.003052 0.023775 0.848000
0.019319 -0.007929 0.842000
0.042142 -0.007227 0.841000
0.001642 -0.013112 0.841000
0.004859 -0.032130 0.859000
-0.010212 0.020983 0.848000
0.042042 -0.012735 0.839000
0.008890 -0.018606 0.839000
-0.016533 0.011937 0.850000
0.036906 -0.011713 0.840000
0.028216 0.011573 0.849000
-0.045358 -0.004833 0.846000
-0.022616 -0.024564 0.842000
-0.050508 -0.005484 0.839000
0.046296 -0.004112 0.841000
-0.018611 0.009826 0.849000
-0.022858 0.013001 0.851000
-0.031615 0.011600 0.851000
-0.037563 -0.013490 0.843000
-0.025298 0.027667 0.839000
-0.028880 0.019000 0.853000
-0.028429 0.000392 0.850000
0.044858 -0.008947 0.840000
0.028431 -0.003436 0.845000
0.039233 -0.017549 0.838000
-0.034457 0.018627 0.852000
-0.023572 0.028012 0.839000
0.022598 0.024822 0.848000
-0.031301 0.007406 0.852000
0.031561 -0.026390 0.845000
0.041401 -0.009639 0.840000
0.026565 -0.024188 0.841000
0.019342 -0.005163 0.843000
0.021602 0.018234 0.850000
0.034691 0.002824 0.845000
0.002026 -0.031703 0.857000
-0.009424 -0.018628 0.840000
0.023049 -0.016534 0.839000
0.007919 -0.007619 0.846000
0.031028 -0.011368 0.840000
0.042243 0.017043 0.843000
-0.021107 0.013352 0.851000
0.048891 -0.008581 0.838000
0.000960 0.020333 0.850000
0.011321 -0.015516 0.840000
0.039420 -0.003770 0.842000
0.006222 0.010913 0.852000
-0.009197 0.016854 0.851000
0.009378 0.013718 0.852000
-0.022183 0.018277 0.852000
0.025151 -0.023122 0.840000
-0.040372 0.014753 0.851000
-0.034067 0.011951 0.851000
0.003062 0.018956 0.851000
-0.049130 -0.004132 0.845000
-0.027881 -0.009685 0.844000
-0.035676 -0.032018 0.856000
-0.038951 -0.015225 0.843000
0.037740 -0.028679 0.851000
-0.019867 -0.025981 0.843000
0.027850 -0.019273 0.838000
0.006480 -0.016899 0.840000
-0.050308 0.001066 0.830000
0.018323 -0.003085 0.844000
-0.011299 0.015453 0.851000
0.027669 -0.025287 0.843000
0.021900 0.011211 0.848000
0.011429 0.001438 0.848000
-0.033366 0.009149 0.851000
-0.031665 -0.013143 0.843000
-0.005628 -0.014496 0.841000
-0.040783 -0.007957 0.845000
0.028565 0.016116 0.849000
0.033847 0.024531 0.850000
-0.001135 0.022701 0.847000
-0.018983 0.013336 0.850000
-0.013035 -0.028995 0.850000
0.023378 0.022108 0.851000
-0.029236 -0.011061 0.843000
0.011415 0.024793 0.847000
0.010271 -0.020332 0.839000
0.035650 -0.002734 0.843000
0.015304 0.017534 0.850000
-0.036522 -0.013143 0.843000
-0.025359 -0.024188 0.841000
0.033996 -0.000306 0.845000
0.035565 -0.007574 0.841000
-0.009514 0.022379 0.848000
0.027505 -0.017894 0.838000
-0.051642 -0.003739 0.835000
-0.014434 0.009488 0.850000
0.031065 -0.007574 0.841000
0.025360 0.010152 0.847000
-0.001126 -0.022777 0.840000
-0.042423 0.007739 0.850000
0.011469 0.013352 0.851000
0.043475 -0.010330 0.840000
0.013905 0.008788 0.850000
-0.010548 -0.004839 0.847000
0.033488 -0.007920 0.841000
0.004469 0.010562 0.852000
-0.007805 0.013367 0.852000
-0.033666 -0.023842 0.841000
-0.016165 0.004585 0.849000
-0.009559 0.013718 0.852000
-0.042174 -0.007610 0.845000
0.014187 -0.004833 0.846000
0.037989 -0.006881 0.841000
0.033996 0.001781 0.845000
-0.009197 0.006347 0.851000
0.013839 -0.004485 0.846000
0.007625 0.012666 0.852000
0.021277 -0.029029 0.851000
-0.011166 -0.016227 0.841000
-0.011999 0.014753 0.851000
-0.005325 0.022379 0.848000
0.019342 -0.004469 0.843000
0.000611 -0.029765 0.852000
-0.008826 -0.028612 0.849000
-0.007446 0.015804 0.851000
0.024517 -0.007583 0.842000
0.015928 -0.001003 0.846000
-0.044121 0.004235 0.849000
-0.031965 0.008798 0.851000
0.020977 -0.017224 0.839000
0.043130 0.005573 0.840000
-0.010561 -0.002750 0.848000
0.041598 0.018105 0.844000
-0.018804 -0.014167 0.842000
-0.017562 -0.028612 0.849000
0.027103 0.007711 0.847000
-0.020056 0.016154 0.851000
-0.046806 -0.001701 0.847000
0.032447 0.020683 0.850000
-0.010846 -0.025634 0.843000
0.028565 0.017863 0.849000
-0.013004 -0.002401 0.848000
0.006511 -0.010032 0.844000
-0.037786 0.002834 0.848000
0.042539 0.014943 0.842000
0.048258 -0.005138 0.839000
-0.003223 -0.006922 0.846000
-0.016397 -0.010367 0.843000
0.020178 0.014369 0.849000
-0.028643 0.024416 0.846000
0.026250 -0.005157 0.842000
-0.039551 -0.020727 0.841000
-0.013385 0.002491 0.850000
0.032060 0.008079 0.849000
0.048832 -0.013394 0.837000
0.011469 0.014403 0.851000
0.015488 -0.010689 0.841000
0.026344 0.002476 0.845000
-0.005967 -0.022777 0.840000
0.000948 -0.021739 0.840000
-0.051765 -0.004093 0.837000
0.000947 -0.018951 0.839000
0.012749 -0.025634 0.843000
-0.039252 -0.016939 0.842000
0.021926 0.015766 0.849000
0.025904 -0.024910 0.842000
0.033847 0.023831 0.850000
0.043579 0.003161 0.842000
0.000257 -0.021394 0.840000
0.033727 0.025839 0.847000
0.013205 0.015435 0.850000
0.019665 -0.006889 0.842000
0.035512 0.012607 0.848000
0.039955 0.021630 0.846000
0.031361 0.015068 0.849000
-0.023684 -0.025634 0.843000
0.048082 -0.000642 0.830000
-0.014264 -0.018974 0.840000
0.032718 -0.014807 0.839000
-0.009132 -0.009348 0.845000
0.036560 -0.023468 0.840000
0.025300 0.002128 0.845000
-0.033523 -0.031277 0.855000
-0.041675 0.004235 0.849000
-0.008785 -0.026738 0.845000
-0.010212 -0.004495 0.848000
0.030756 -0.024910 0.842000
0.018781 0.015068 0.849000
0.023768 -0.023122 0.840000
-0.028529 0.019703 0.853000
0.028885 -0.017204 0.838000
0.026313 -0.000653 0.844000
0.030554 -0.002047 0.846000
0.038380 -0.024910 0.842000
0.030301 -0.013426 0.839000
-0.017418 -0.014860 0.842000
0.013174 -0.027880 0.848000
0.029299 0.009488 0.850000
0.004411 -0.023842 0.841000
0.009938 -0.014133 0.840000
0.028216 0.010175 0.849000
0.037777 -0.025664 0.844000
0.017996 0.001085 0.845000
0.029544 -0.026452 0.847000
-0.019027 0.022835 0.852000
-0.003584 -0.028262 0.849000
0.021900 0.013305 0.848000
-0.001141 0.015453 0.851000
-0.000089 -0.020332 0.839000
0.008555 -0.016553 0.840000
-0.035218 -0.005871 0.845000
-0.045411 0.015381 0.847000
0.034197 0.021382 0.850000
0.016873 -0.009304 0.841000
0.039373 -0.007227 0.841000
0.038911 -0.026421 0.846000
-0.005674 0.020983 0.848000
-0.042473 0.014052 0.851000
-0.022534 0.022134 0.852000
0.026660 -0.025664 0.844000
-0.045868 0.003886 0.849000
-0.040879 -0.001701 0.847000
0.035345 -0.000653 0.844000
0.006826 -0.016208 0.840000
-0.028295 0.024416 0.846000
-0.009469 -0.026359 0.844000
0.006488 -0.024534 0.841000
-0.026460 -0.011755 0.843000
-0.041179 -0.003440 0.846000
-0.035786 -0.024564 0.842000
-0.024667 0.019000 0.853000
0.041104 -0.007227 0.841000
-0.030769 -0.006582 0.847000
0.023589 0.007354 0.846000
-0.028429 0.000742 0.850000
0.034855 0.016116 0.849000
0.003048 0.022701 0.847000
0.003767 0.015121 0.852000
-0.032744 -0.010727 0.844000
-0.027501 -0.010714 0.843000
0.050656 -0.013330 0.833000
0.003719 -0.013804 0.841000
0.037214 0.011197 0.847000
0.025540 -0.028044 0.853000
0.035122 0.026536 0.847000
-0.024059 -0.006906 0.844000
-0.023860 0.028634 0.837000
-0.037955 -0.026706 0.844000
-0.010661 -0.031314 0.856000
0.037642 -0.024188 0.841000
0.003062 0.019306 0.851000
-0.041876 -0.003092 0.846000
-0.033947 0.001089 0.848000
0.021745 -0.007929 0.842000
0.006488 -0.013112 0.841000
-0.009968 -0.031703 0.857000
0.037163 -0.019273 0.838000
0.016546 -0.008276 0.842000
-0.001129 -0.012434 0.842000
-0.033947 0.001787 0.848000
-0.027914 0.024735 0.845000
-0.003262 -0.031314 0.856000
0.003429 -0.030925 0.855000
-0.037875 0.009488 0.850000
-0.014264 -0.017936 0.840000
0.024923 0.001431 0.844000
0.018803 0.019633 0.850000
0.048258 -0.007901 0.839000
-0.003246 0.009861 0.852000
-0.031243 -0.020727 0.841000
0.027932 0.022809 0.851000
0.014254 0.008438 0.850000
-0.032666 0.012651 0.851000
-0.017521 0.000739 0.847000
0.016704 0.016485 0.850000
0.048546 -0.015479 0.838000
0.023506 -0.003428 0.843000
-0.000090 0.020333 0.850000
-0.012897 -0.023496 0.841000
0.026786 0.011909 0.848000
0.008596 -0.009337 0.844000
-0.037044 -0.001004 0.847000
0.014553 -0.001353 0.847000
-0.026144 -0.009685 0.844000
-0.042024 0.016465 0.849000
0.017178 -0.018260 0.839000
-0.023881 0.009488 0.850000
-0.009536 0.002841 0.850000
0.028710 -0.005163 0.843000
-0.030842 -0.003103 0.849000
0.024459 -0.011368 0.840000
0.042193 -0.004117 0.842000
0.012213 -0.030186 0.854000
0.013443 -0.007939 0.843000
0.035246 0.019983 0.850000
0.025934 -0.004122 0.843000
-0.035692 0.001438 0.848000
0.025241 -0.004122 0.843000
-0.025827 -0.006218 0.845000
0.004819 0.012666 0.852000
0.014831 -0.007245 0.843000
-0.003201 -0.022431 0.840000
0.011106 0.008088 0.850000
0.033261 -0.003432 0.844000
0.049926 -0.005028 0.821000
-0.019355 0.023509 0.851000
0.028574 -0.016534 0.839000
0.041747 -0.009639 0.840000
0.004443 0.023050 0.847000
0.010284 -0.023468 0.840000
0.025588 -0.003081 0.843000
-0.034400 -0.015553 0.842000
-0.019961 0.001436 0.847000
0.027135 0.008767 0.848000
0.048015 0.002412 0.823000
0.027505 -0.020308 0.838000
0.016762 -0.029800 0.853000
-0.026330 0.009488 0.850000
-0.039205 -0.022458 0.841000
-0.010846 -0.010714 0.843000
-0.024551 0.008428 0.849000
0.040256 0.006302 0.845000
-0.001475 -0.012434 0.842000
-0.031822 0.027979 0.838000
-0.026743 -0.016919 0.841000
0.017199 -0.014133 0.840000
0.012402 -0.009326 0.843000
-0.049072 -0.006906 0.844000
0.029998 0.012287 0.850000
0.034896 0.023482 0.850000
-0.005350 0.008458 0.852000
-0.027057 -0.021048 0.840000
0.041352 -0.012045 0.839000
-0.018786 -0.032056 0.857000
0.006480 -0.015516 0.840000
0.036210 0.024473 0.848000
-0.045814 0.000042 0.848000
0.021475 0.001781 0.845000
-0.007860 -0.032093 0.858000
0.037607 0.014003 0.848000
0.024780 0.021057 0.851000
-0.030178 -0.000308 0.850000
-0.030241 -0.016593 0.842000
0.006215 0.017555 0.851000
0.019296 -0.010689 0.841000
0.009581 -0.017570 0.839000
0.039795 -0.027946 0.850000
0.028096 -0.030609 0.856000
-0.003555 -0.025257 0.842000
-0.017562 0.007031 0.849000
0.000258 -0.011741 0.842000
-0.025858 -0.004485 0.846000
0.027571 -0.013096 0.840000
-0.015152 0.014753 0.851000
-0.015484 0.008438 0.850000
0.040192 -0.028679 0.851000
0.011307 -0.017224 0.839000
-0.032512 -0.002747 0.847000
-0.041024 0.009138 0.850000
-0.025949 0.004934 0.849000
-0.031652 0.015471 0.852000
0.010975 -0.014825 0.840000
-0.030277 -0.012796 0.843000
-0.028813 0.012301 0.851000
0.045604 -0.004458 0.841000
0.014087 -0.015516 0.840000
-0.012277 -0.027466 0.846000
0.003023 -0.022777 0.840000
0.007266 0.017905 0.851000
0.031412 -0.008612 0.841000
-0.029898 0.021433 0.852000
0.041647 0.011519 0.845000
0.036517 -0.012735 0.839000
-0.009197 -0.029379 0.851000
0.011469 0.018255 0.851000
-0.029050 -0.032446 0.858000
-0.040656 -0.028881 0.857000
0.028885 -0.019273 0.838000
-0.030249 0.008458 0.852000
-0.015170 0.020030 0.852000
0.014901 -0.001353 0.847000
-0.026743 -0.018996 0.841000
-0.036522 -0.025981 0.843000
-0.020561 -0.011755 0.843000
0.023186 0.001431 0.844000
0.021500 0.005613 0.846000
-0.035650 -0.002050 0.847000
-0.013573 -0.017591 0.840000
-0.018698 0.020405 0.853000
0.019457 0.011560 0.848000
-0.024960 0.012651 0.851000
-0.041675 0.003886 0.849000
0.028666 -0.028713 0.852000
0.028565 0.008778 0.849000
0.027850 -0.017894 0.838000
0.021277 0.020357 0.851000
0.031710 0.015068 0.849000
-0.032315 0.021057 0.851000
0.041055 -0.023814 0.840000
-0.020707 0.007031 0.849000
0.000954 -0.026738 0.845000
0.022812 -0.004816 0.843000
-0.036132 -0.015900 0.842000
0.013491 -0.004833 0.846000
-0.024173 0.002834 0.848000
0.007571 -0.007270 0.846000
-0.051271 0.005841 0.829000
0.003019 -0.021368 0.839000
-0.038620 0.015804 0.851000
-0.017933 -0.028995 0.850000
-0.014217 -0.032446 0.858000
0.019040 0.001085 0.845000
-0.041374 0.008088 0.850000
-0.022990 -0.011408 0.843000
0.031720 -0.010330 0.840000
-0.041925 0.000042 0.847000
-0.028889 -0.025981 0.843000
0.016566 -0.005510 0.843000
0.027549 0.020683 0.850000
-0.019636 0.005975 0.848000
-0.042373 0.003886 0.849000
0.019388 0.002128 0.845000
-0.020659 0.001436 0.847000
-0.041024 0.006689 0.850000
-0.010598 -0.029379 0.851000
0.040267 -0.018239 0.838000
0.047735 0.002076 0.824000
0.004406 -0.023122 0.840000
-0.022561 0.019351 0.853000
0.025873 -0.010343 0.841000
-0.006658 -0.021394 0.840000
0.012855 0.005989 0.850000
0.026406 0.007711 0.847000
0.016181 -0.011381 0.841000
-0.017397 -0.024188 0.841000
-0.012685 0.003191 0.850000
-0.008146 0.016154 0.851000
0.046131 -0.014100 0.838000
0.007863 -0.016553 0.840000
-0.032435 -0.008305 0.845000
0.006588 -0.030186 0.854000
-0.025419 -0.025634 0.843000
0.042937 0.002123 0.843000
-0.039321 0.010199 0.851000
-0.036782 0.020658 0.849000
0.024750 0.018934 0.850000
-0.011858 -0.015189 0.841000
-0.033287 -0.032446 0.858000
0.035020 -0.029449 0.853000
-0.014645 -0.014167 0.842000
-0.024378 -0.012102 0.843000
-0.041625 0.017493 0.848000
0.016684 0.010874 0.849000
-0.016222 -0.029765 0.852000
-0.031589 -0.017612 0.841000
0.042489 0.011118 0.841000
0.014937 0.005982 0.849000
0.027834 0.009465 0.848000
-0.000440 0.017555 0.851000
-0.019241 -0.001699 0.846000
0.046351 -0.002731 0.842000
-0.009793 -0.013127 0.842000
-0.011649 0.004946 0.851000
0.004055 -0.020332 0.839000
0.022144 -0.026011 0.844000
0.003741 -0.005878 0.846000
0.027290 -0.006196 0.842000
-0.017152 -0.003092 0.846000
-0.023392 -0.005871 0.845000
0.035303 -0.002040 0.843000
-0.030600 0.005653 0.852000
0.031871 -0.004822 0.844000
-0.012364 0.008458 0.852000
-0.004584 -0.019319 0.840000
-0.000439 0.023077 0.848000
0.014604 0.015435 0.850000
-0.003235 -0.028262 0.849000
-0.026366 0.027008 0.840000
0.017753 0.016485 0.850000
-0.004941 -0.012781 0.842000
0.017424 -0.029029 0.851000
-0.017274 0.017575 0.852000
-0.027315 -0.003797 0.848000
0.009985 -0.026011 0.844000
-0.022965 -0.029518 0.855000
-0.011153 -0.022085 0.840000
0.018301 -0.005857 0.843000
-0.016685 -0.022777 0.840000
-0.013400 0.020007 0.851000
-0.016572 0.017926 0.852000
0.048354 0.002751 0.823000
-0.004665 -0.030925 0.855000
0.033024 -0.016514 0.838000
-0.007411 -0.027498 0.847000
-0.017785 -0.010020 0.843000
-0.022670 -0.006906 0.844000
-0.005621 -0.023122 0.840000
-0.024031 0.026064 0.843000
-0.018938 0.024822 0.848000
-0.008175 -0.030538 0.854000
0.034527 -0.007227 0.841000
-0.019636 0.024822 0.848000
0.015507 -0.008969 0.842000
0.001294 -0.017245 0.840000
0.014322 -0.030186 0.854000
0.029614 0.014369 0.849000
0.029161 -0.001351 0.846000
-0.035397 -0.021765 0.841000
-0.022079 0.005277 0.848000
-0.014434 0.003890 0.850000
0.027322 -0.005163 0.843000
-0.029512 -0.020381 0.841000
-0.034579 -0.031277 0.855000
0.019642 -0.011035 0.841000
-0.011649 0.018255 0.851000
0.033497 0.024181 0.850000
0.031398 -0.028295 0.850000
0.013205 0.013686 0.850000
0.019502 0.018234 0.850000
-0.050893 -0.003048 0.834000
-0.003572 -0.007619 0.846000
-0.032628 -0.018650 0.841000
-0.030971 -0.013837 0.843000
0.035946 0.021732 0.850000
-0.018633 0.012287 0.850000
0.033773 -0.030998 0.857000
0.032952 -0.001349 0.845000
0.016873 -0.011035 0.841000
0.030662 0.014718 0.849000
-0.029863 0.003895 0.851000
-0.036913 -0.011422 0.844000
-0.003201 -0.016899 0.840000
0.014604 0.017534 0.850000
0.036604 -0.006535 0.841000
-0.025980 0.008438 0.850000
0.016200 -0.008969 0.842000
-0.035860 0.015471 0.852000
-0.033716 0.013702 0.851000
-0.001831 -0.027118 0.846000
-0.041925 -0.001353 0.847000
-0.008857 0.012666 0.852000
0.004089 -0.006922 0.846000
0.016953 -0.002045 0.845000
0.024429 0.021057 0.851000
-0.046972 0.007739 0.850000
-0.039090 -0.003788 0.846000
-0.000434 -0.018951 0.839000
-0.017294 -0.030502 0.853000
-0.049923 0.001760 0.835000
0.036040 0.002821 0.844000
0.037866 0.008050 0.846000
0.048258 -0.008937 0.839000
-0.008089 -0.009348 0.845000
0.014087 -0.023122 0.840000
-0.038905 -0.024217 0.842000
0.004108 0.020683 0.850000
-0.005275 -0.020702 0.840000
0.011442 0.004235 0.849000
0.011106 -0.028645 0.850000
0.038865 0.005259 0.845000
0.021177 0.010500 0.847000
0.018604 -0.011727 0.841000
-0.005369 -0.030925 0.855000
-0.002545 0.011614 0.852000
0.032759 0.010525 0.849000
0.040604 0.006997 0.845000
-0.020512 -0.022804 0.841000
-0.039833 -0.001004 0.847000
0.027801 0.026188 0.847000
0.034486 -0.023122 0.840000
-0.028496 0.021783 0.852000
0.035596 0.022082 0.850000
0.049926 -0.006718 0.821000
-0.031702 -0.010032 0.844000
-0.046272 0.010537 0.850000
-0.029163 0.014052 0.851000
-0.029898 0.021082 0.852000
0.020804 0.004220 0.846000
0.026660 -0.000653 0.844000
-0.010474 -0.024188 0.841000
-0.011499 -0.018282 0.840000
0.009367 0.011250 0.851000
-0.031132 -0.032056 0.857000
0.009961 -0.011048 0.842000
-0.033013 -0.025257 0.842000
0.000261 -0.030925 0.855000
0.015142 -0.010689 0.841000
-0.000786 -0.007967 0.846000
-0.031228 0.002841 0.850000
0.011469 0.014052 0.851000
0.034156 0.018212 0.849000
0.018559 -0.019642 0.839000
0.039923 -0.015479 0.838000
-0.026585 -0.027847 0.847000
-0.016824 0.001088 0.847000
0.000951 -0.012088 0.842000
0.020681 -0.024188 0.841000
-0.005275 -0.021048 0.840000
0.039719 -0.005497 0.841000
-0.012084 -0.032056 0.857000
0.033030 -0.027150 0.847000
0.044751 -0.015134 0.838000
-0.027815 -0.013474 0.842000
