0.026611 -0.006010 0.865000
-0.005714 0.050657 0.854000
-0.020261 0.016970 0.875000
0.015447 -0.045850 0.878000
-0.007337 -0.005389 0.880000
0.018046 -0.001380 0.864000
-0.001547 -0.043204 0.883000
-0.017098 -0.013342 0.879000
-0.002964 0.012605 0.872000
0.015183 0.007147 0.863000
0.001720 -0.026427 0.881000
0.008779 0.018137 0.862000
0.009112 0.042518 0.860000
0.021246 -0.002802 0.864000
0.013858 0.048685 0.869000
0.008972 -0.039843 0.881000
0.027679 -0.013130 0.865000
0.005906 0.042722 0.857000
0.024975 -0.029677 0.870000
-0.036385 0.028069 0.873000
0.031384 -0.031789 0.869000
-0.017618 0.032233 0.869000
0.018713 0.011041 0.862000
0.016939 0.006074 0.862000
-0.017902 -0.015220 0.883000
0.009820 0.041456 0.860000
0.009102 0.041408 0.859000
0.021108 -0.030858 0.873000
0.030207 -0.013145 0.866000
-0.020857 -0.009791 0.885000
-0.016622 0.018368 0.873000
0.002754 0.019957 0.864000
0.018422 -0.004586 0.865000
-0.015939 -0.035610 0.875000
0.003878 -0.019448 0.877000
-0.014961 0.000044 0.881000
-0.011392 0.045950 0.858000
-0.007023 -0.032411 0.886000
-0.015685 0.043707 0.842000
0.032739 -0.023509 0.867000
0.004882 0.018513 0.863000
-0.015028 0.042004 0.864000
0.021345 -0.016391 0.868000
-0.011193 0.023676 0.870000
-0.033341 0.023894 0.878000
0.001700 0.009722 0.871000
0.032383 -0.021724 0.867000
-0.016641 0.015871 0.874000
-0.009738 0.031481 0.868000
-0.006928 0.012633 0.874000
0.000634 -0.036340 0.884000
0.033516 0.004380 0.878000
-0.006059 0.049193 0.853000
0.010882 0.038270 0.860000
0.039298 -0.013327 0.878000
-0.017479 -0.001405 0.880000
0.010528 0.039686 0.860000
0.019378 -0.045025 0.876000
-0.012654 0.026961 0.872000
0.028556 0.002191 0.870000
-0.012098 0.045597 0.858000
0.011631 0.009278 0.863000
-0.004450 -0.025004 0.882000
0.019090 -0.000313 0.863000
0.012682 -0.050337 0.862000
0.026255 -0.012418 0.865000
-0.016660 0.014449 0.875000
0.008492 0.004335 0.869000
-0.004087 -0.041340 0.882000
0.011289 0.045560 0.864000
-0.022294 0.034776 0.870000
0.022983 -0.039256 0.876000
0.005989 -0.051103 0.869000
0.024119 -0.010638 0.865000
-0.030706 0.031375 0.875000
0.006405 -0.050130 0.877000
-0.024306 0.002573 0.878000
0.025216 0.004320 0.866000
-0.003364 -0.043568 0.883000
0.027481 0.006488 0.870000
-0.002953 0.016138 0.869000
-0.023275 0.004028 0.880000
-0.017862 -0.006846 0.881000
0.017575 -0.036732 0.876000
0.030955 -0.026720 0.867000
-0.001180 -0.012271 0.880000
-0.003719 -0.013735 0.881000
-0.004354 0.032721 0.863000
0.011123 -0.035049 0.879000
0.028133 -0.027108 0.868000
0.024231 -0.023205 0.869000
0.010528 0.024466 0.860000
0.016565 0.015989 0.861000
0.016211 0.020596 0.861000
-0.013192 -0.021787 0.884000
0.000267 0.010810 0.872000
0.004147 0.037122 0.858000
0.004166 0.024877 0.862000
-0.017841 -0.001043 0.880000
0.020156 0.007147 0.863000
-0.020015 -0.001405 0.880000
0.000270 -0.044658 0.883000
0.007326 0.036415 0.858000
0.010737 -0.024502 0.877000
-0.023945 -0.001402 0.878000
0.003900 -0.033354 0.882000
0.000624 0.013650 0.870000
0.028392 0.016989 0.876000
0.015271 0.042199 0.868000
0.011766 -0.019000 0.873000
0.021132 0.034577 0.874000
-0.016755 0.001492 0.880000
-0.002223 0.027748 0.863000
-0.014106 0.016212 0.873000
-0.026866 0.008726 0.879000
0.016249 0.026682 0.863000
-0.005539 -0.022100 0.882000
0.025661 -0.026067 0.869000
-0.012909 0.037069 0.865000
-0.023583 0.014498 0.878000
0.006037 -0.010773 0.876000
0.016475 -0.028407 0.875000
0.040744 -0.019832 0.878000
0.009455 0.039640 0.859000
-0.034707 0.019152 0.876000
0.029440 0.010127 0.875000
0.019445 0.013895 0.863000
0.001326 0.031582 0.861000
-0.006832 0.038004 0.862000
-0.019653 -0.003216 0.880000
-0.000091 0.028425 0.862000
0.014707 -0.034248 0.877000
0.011739 -0.013938 0.871000
0.037508 -0.027529 0.870000
-0.016095 0.041649 0.864000
0.019581 -0.018198 0.869000
-0.010119 0.026541 0.870000
-0.015010 0.044087 0.863000
-0.010810 0.031481 0.868000
0.015826 -0.044456 0.879000
0.029494 -0.021699 0.866000
0.017535 -0.030533 0.874000
-0.035388 0.020571 0.875000
0.015288 0.042605 0.869000
0.021652 -0.011007 0.866000
-0.019891 0.042769 0.844000
-0.010200 0.009428 0.877000
-0.029727 0.013053 0.878000
0.014506 0.037781 0.865000
0.037551 -0.025051 0.871000
-0.012281 0.024779 0.871000
-0.013118 -0.035049 0.879000
-0.008586 0.045703 0.860000
-0.011737 -0.031610 0.884000
0.005201 0.042722 0.857000
-0.011206 0.016892 0.871000
0.021802 -0.045537 0.872000
0.021443 -0.028669 0.872000
0.008385 0.032178 0.858000
-0.014203 -0.033602 0.879000
-0.008961 0.040488 0.862000
-0.014893 -0.034609 0.877000
0.008748 0.042822 0.859000
0.014346 -0.029194 0.877000
0.010675 -0.014313 0.872000
-0.021077 0.006917 0.879000
0.007768 0.006831 0.868000
0.019112 -0.002091 0.864000
-0.026683 0.031303 0.873000
0.011958 0.014572 0.861000
-0.000809 0.012949 0.871000
0.015253 -0.005667 0.867000
0.018465 0.029661 0.867000
-0.004731 0.020740 0.867000
0.010946 0.004671 0.865000
0.025989 -0.023893 0.868000
-0.005915 -0.029063 0.884000
-0.022499 -0.003932 0.878000
0.021852 0.033497 0.874000
0.029272 -0.032184 0.870000
0.003513 -0.017263 0.876000
0.011631 0.011764 0.863000
0.010257 0.002184 0.867000
0.030160 0.007606 0.875000
-0.010561 0.009789 0.877000
0.027935 0.011182 0.873000
0.016777 -0.022926 0.872000
-0.020739 -0.000319 0.880000
0.012556 -0.024891 0.878000
0.006989 0.025174 0.860000
-0.020716 -0.004660 0.879000
0.025543 -0.004942 0.865000
0.011658 0.005739 0.865000
-0.019630 0.005832 0.879000
0.020007 -0.026874 0.872000
0.003525 -0.024196 0.879000
0.018593 0.042082 0.873000
0.011958 0.015281 0.861000
0.020987 -0.016748 0.868000
0.005920 0.030801 0.859000
0.001333 0.018200 0.865000
-0.035666 0.030944 0.873000
0.013067 0.004310 0.864000
-0.028643 0.011607 0.878000
0.009809 0.038226 0.859000
0.029800 0.009047 0.875000
-0.022087 0.016989 0.876000
-0.005902 -0.011210 0.882000
0.024917 -0.023179 0.868000
-0.022473 0.013760 0.877000
0.000262 0.041006 0.858000
0.011590 0.034731 0.860000
-0.017479 0.001492 0.880000
-0.020527 -0.033296 0.871000
0.010328 -0.016485 0.873000
0.014439 0.024140 0.861000
-0.014598 -0.010835 0.881000
0.037853 -0.015495 0.878000
-0.014383 0.032196 0.868000
-0.006478 0.038714 0.862000
0.015201 0.003243 0.864000
0.018171 -0.019651 0.870000
-0.028185 0.029574 0.875000
0.020156 0.008922 0.863000
-0.002644 -0.038203 0.885000
-0.009305 0.043630 0.861000
0.020773 -0.045282 0.874000
-0.018896 0.040488 0.862000
0.009144 0.013540 0.863000
0.013082 0.002179 0.865000
-0.017935 0.037154 0.867000
-0.032220 0.016647 0.877000
0.012667 0.015281 0.861000
0.006071 -0.033679 0.881000
0.023291 -0.044203 0.874000
0.011393 -0.007494 0.872000
0.019311 -0.029780 0.873000
-0.028249 0.022784 0.877000
0.011034 -0.007494 0.872000
0.029171 -0.007094 0.867000
-0.005199 -0.034599 0.886000
0.011380 -0.010353 0.871000
-0.000458 -0.038203 0.885000
-0.017821 -0.026005 0.879000
0.010234 0.006095 0.865000
0.031709 0.010523 0.878000
0.013422 0.038804 0.864000
-0.000091 0.026682 0.863000
-0.016150 0.035013 0.867000
-0.020377 -0.002492 0.880000
0.016565 0.017761 0.861000
-0.013163 -0.015929 0.882000
0.016230 0.010331 0.862000
0.003798 0.031508 0.859000
-0.024943 0.025253 0.875000
0.027743 -0.022438 0.867000
-0.009511 -0.001043 0.880000
-0.033037 0.032986 0.870000
0.013794 0.039205 0.865000
0.024975 -0.027529 0.870000
0.006619 0.038181 0.858000
0.026673 -0.022795 0.867000
-0.025722 0.002931 0.877000
-0.020192 -0.031540 0.872000
-0.016378 0.043361 0.842000
-0.023637 0.005114 0.880000
-0.018545 -0.008278 0.879000
0.011498 -0.038349 0.880000
0.003178 -0.027940 0.883000
-0.004349 0.035166 0.862000
0.004263 -0.035532 0.882000
-0.013290 0.046243 0.844000
0.038214 -0.010798 0.878000
0.015574 0.031728 0.865000
0.028100 -0.024579 0.867000
0.039524 -0.021925 0.875000
-0.016299 -0.035250 0.875000
-0.019969 -0.007545 0.878000
-0.019541 0.022732 0.875000
0.010688 -0.017563 0.873000
0.002401 0.018200 0.865000
-0.014961 -0.004670 0.881000
-0.015358 -0.022489 0.883000
0.030207 -0.020630 0.866000
-0.006158 0.028233 0.867000
-0.025751 0.015944 0.878000
0.025003 -0.032579 0.871000
0.019356 -0.036330 0.875000
-0.008930 0.047064 0.859000
-0.017261 0.032590 0.869000
-0.015686 -0.001044 0.881000
-0.013464 0.009800 0.878000
0.012652 0.031899 0.860000
0.004147 0.034650 0.858000
0.012682 0.012460 0.862000
0.001712 -0.017283 0.877000
0.015790 -0.026307 0.877000
-0.010223 0.002214 0.879000
0.018275 -0.035250 0.875000
0.024645 0.017250 0.871000
0.005676 -0.010773 0.876000
0.030845 0.003640 0.874000
0.029868 0.014121 0.877000
0.011944 0.020218 0.860000
-0.005182 -0.026487 0.883000
0.028781 -0.013502 0.866000
0.015912 0.000754 0.864000
0.008135 -0.050388 0.869000
0.024860 -0.014927 0.866000
0.012055 -0.001743 0.868000
-0.013280 0.035686 0.866000
-0.001185 -0.042162 0.884000
0.003445 0.033983 0.859000
0.038804 -0.019404 0.875000
0.026967 -0.009214 0.865000
0.021577 0.002174 0.863000
0.002087 -0.035209 0.883000
0.021932 -0.001023 0.863000
-0.017479 -0.009374 0.880000
0.033762 -0.003198 0.875000
-0.002943 0.020003 0.866000
-0.013904 -0.028667 0.883000
-0.011551 0.024034 0.870000
-0.019225 0.010872 0.877000
0.013469 -0.003169 0.867000
-0.024695 0.009450 0.879000
-0.015650 -0.030708 0.879000
0.032026 -0.016015 0.867000
-0.015219 0.013008 0.875000
-0.010258 -0.038799 0.882000
0.010908 0.042617 0.862000
-0.006650 -0.038203 0.885000
0.025187 -0.013842 0.865000
0.018614 -0.031972 0.874000
0.029562 -0.029609 0.868000
0.019870 0.022498 0.866000
-0.019246 -0.009714 0.878000
-0.018587 -0.002495 0.881000
0.023623 -0.033373 0.873000
-0.014548 -0.034648 0.878000
-0.027888 0.005097 0.877000
-0.016355 0.008355 0.878000
0.017874 0.043879 0.873000
0.007159 -0.027152 0.881000
-0.006643 -0.027972 0.884000
-0.016736 -0.012619 0.879000
0.019801 0.004660 0.863000
0.015148 0.015989 0.861000
-0.009200 -0.034196 0.885000
-0.009180 -0.039206 0.883000
0.035993 -0.027466 0.868000
-0.013510 -0.009022 0.881000
-0.009884 -0.004670 0.881000
0.014472 0.005371 0.863000
0.004200 0.012204 0.869000
0.000634 -0.035976 0.884000
0.026346 -0.023536 0.868000
0.024645 -0.031504 0.871000
0.024758 0.026693 0.875000
-0.020621 0.022732 0.875000
0.004600 -0.021253 0.877000
0.042238 -0.022025 0.879000
-0.030776 0.027476 0.877000
-0.015686 0.002219 0.881000
-0.008319 0.029014 0.869000
0.033042 -0.000677 0.875000
0.001714 -0.019471 0.878000
-0.016430 -0.024641 0.882000
-0.032979 0.024255 0.878000
-0.006066 0.050657 0.854000
-0.027570 0.035370 0.867000
-0.011854 0.034616 0.866000
0.036366 -0.006815 0.877000
0.019626 -0.025051 0.871000
0.000269 -0.010810 0.879000
-0.018355 0.031912 0.870000
-0.029399 0.017409 0.879000
0.006434 -0.031140 0.881000
0.016604 0.026327 0.863000
0.002075 -0.021639 0.878000
-0.015254 0.010872 0.877000
0.017294 0.009977 0.862000
-0.003677 0.015099 0.871000
0.013810 -0.000314 0.866000
0.004157 0.030837 0.860000
0.021577 0.005015 0.863000
-0.018545 0.005108 0.879000
0.029494 -0.013145 0.866000
-0.007254 0.016156 0.870000
0.002057 0.011501 0.870000
-0.016724 0.044054 0.842000
-0.005748 0.045297 0.859000
0.008191 -0.010041 0.875000
-0.008309 0.024693 0.868000
0.022669 -0.007069 0.864000
-0.023395 0.033382 0.871000
0.022747 0.013960 0.867000
-0.021801 -0.006830 0.879000
0.028457 -0.024222 0.867000
-0.011553 0.046937 0.844000
-0.022188 0.002579 0.880000
-0.006840 0.034141 0.863000
-0.016150 0.037511 0.867000
0.019761 -0.043993 0.877000
0.024917 0.009331 0.868000
0.011833 -0.031034 0.878000
-0.030671 0.032058 0.874000
0.011223 0.032569 0.859000
0.004978 -0.025672 0.880000
-0.017499 -0.007209 0.881000
-0.011283 0.010511 0.877000
0.003178 -0.030121 0.883000
0.041012 -0.024834 0.876000
-0.004465 -0.039295 0.885000
0.017515 0.044957 0.873000
-0.010477 0.020453 0.870000
-0.014219 0.005476 0.880000
-0.032367 0.012009 0.881000
0.004495 0.040958 0.857000
0.014068 0.021634 0.860000
-0.019159 0.018749 0.874000
-0.034025 0.023145 0.877000
0.010675 -0.004982 0.872000
-0.011498 0.033547 0.866000
-0.001542 -0.022775 0.880000
-0.017882 -0.020648 0.882000
0.021394 0.025466 0.870000
0.010072 -0.054409 0.882000
-0.013826 -0.039346 0.878000
-0.010188 0.010499 0.876000
0.002087 -0.034118 0.883000
0.003549 -0.042574 0.885000
-0.035067 0.018431 0.876000
0.009820 0.024466 0.860000
0.022313 0.009288 0.864000
-0.004698 0.036897 0.861000
0.009866 0.009644 0.864000
-0.020527 -0.032579 0.871000
-0.016281 -0.036649 0.874000
0.021036 0.026541 0.870000
0.022669 -0.000313 0.864000
-0.026444 0.020257 0.877000
-0.014978 -0.018107 0.882000
-0.018907 0.006917 0.879000
-0.021366 0.016268 0.876000
0.030991 -0.009246 0.868000
0.015949 -0.003165 0.866000
-0.014155 -0.037814 0.876000
-0.024527 0.028788 0.873000
-0.009575 -0.029129 0.886000
-0.014927 -0.032155 0.879000
0.014556 -0.007817 0.868000
0.012028 0.001825 0.866000
-0.009565 -0.034196 0.885000
0.029339 0.005068 0.872000
0.030775 -0.001034 0.872000
0.027450 -0.028213 0.869000
0.000992 -0.022749 0.879000
0.018422 -0.004229 0.865000
0.008385 0.033590 0.858000
-0.014645 0.045093 0.842000
-0.019969 0.010162 0.878000
-0.012060 -0.011560 0.881000
-0.025663 0.025973 0.875000
0.001333 0.018912 0.865000
-0.019474 -0.033335 0.872000
0.015085 -0.038262 0.878000
0.031312 -0.026720 0.867000
0.007326 0.041006 0.858000
0.002040 0.023841 0.863000
0.011590 0.025882 0.860000
0.034564 -0.023536 0.868000
0.039615 -0.016922 0.877000
-0.001863 0.034417 0.861000
0.014811 0.009622 0.862000
0.011590 0.034023 0.860000
0.012014 0.003603 0.865000
0.023078 -0.014571 0.866000
0.011445 -0.053678 0.876000
0.005573 0.028359 0.860000
0.007021 0.014623 0.864000
0.018317 -0.044715 0.877000
-0.003372 -0.038567 0.885000
0.011958 0.017407 0.861000
-0.005545 -0.025033 0.883000
-0.021439 0.008003 0.879000
-0.017740 0.014809 0.875000
0.036434 -0.023590 0.870000
0.008779 -0.051756 0.862000
0.027775 0.000043 0.868000
0.008444 0.010711 0.864000
-0.013841 0.006917 0.879000
-0.026988 0.001861 0.883000
-0.007708 -0.014823 0.881000
0.019648 -0.027592 0.872000
0.010675 -0.011442 0.872000
0.009346 -0.045333 0.882000
0.026967 -0.009926 0.865000
0.009855 -0.051105 0.863000
-0.011644 0.010511 0.877000
-0.018541 0.041907 0.862000
0.029137 -0.020987 0.866000
0.008238 -0.036538 0.880000
-0.002264 -0.018769 0.879000
0.012829 -0.017184 0.872000
-0.000093 -0.009725 0.879000
-0.013357 0.019043 0.871000
-0.001181 -0.026064 0.881000
-0.002560 0.046955 0.857000
-0.035067 0.023118 0.876000
-0.005438 0.025349 0.866000
-0.021702 0.020211 0.875000
0.016380 0.037999 0.870000
-0.026469 0.035686 0.866000
0.007070 0.006130 0.870000
0.002451 -0.031211 0.883000
0.001353 -0.015857 0.878000
0.032210 -0.004982 0.872000
-0.000094 -0.035612 0.884000
0.009687 -0.027845 0.880000
-0.016337 0.010511 0.877000
-0.005909 -0.041387 0.883000
-0.009660 0.045048 0.861000
0.000264 0.029135 0.862000
-0.020766 0.037468 0.866000
0.018550 0.035533 0.871000
0.026857 0.014056 0.873000
-0.027952 0.011982 0.879000
-0.012211 0.034616 0.866000
-0.021342 0.024532 0.875000
0.001691 0.016795 0.866000
-0.022756 0.028102 0.874000
-0.023222 -0.003570 0.878000
0.030555 0.009778 0.876000
-0.016622 -0.037685 0.873000
-0.014598 -0.005758 0.881000
0.011846 -0.037220 0.879000
0.026255 -0.010282 0.865000
0.009820 0.020572 0.860000
0.030810 0.001121 0.873000
-0.016755 -0.016980 0.880000
-0.006265 -0.020648 0.882000
-0.012756 0.006917 0.879000
-0.017360 0.027382 0.874000
-0.003652 0.024608 0.865000
0.013309 -0.044144 0.880000
-0.010871 0.046645 0.845000
-0.017598 0.034696 0.868000
0.017833 0.040194 0.871000
-0.022860 -0.001041 0.878000
-0.023972 0.009088 0.879000
0.003178 -0.028667 0.883000
0.014862 0.000043 0.865000
0.017254 -0.042237 0.878000
0.015051 -0.029521 0.876000
-0.005023 0.049014 0.856000
-0.020981 0.023812 0.875000
0.030634 -0.007459 0.868000
-0.002212 0.041408 0.859000
0.008541 -0.014346 0.874000
-0.010095 0.031481 0.868000
-0.008816 -0.021399 0.883000
0.024701 0.020883 0.873000
0.035725 -0.010086 0.879000
-0.014235 0.001857 0.881000
-0.000818 -0.026064 0.881000
-0.035268 0.017448 0.881000
0.030955 -0.011733 0.867000
0.008522 -0.001751 0.872000
0.018699 -0.042960 0.878000
0.029850 -0.013145 0.866000
-0.022320 -0.032579 0.871000
0.015148 0.024494 0.861000
0.017394 -0.008165 0.867000
0.011846 -0.046988 0.879000
-0.005888 -0.006476 0.880000
0.001323 0.036811 0.859000
0.009621 -0.019742 0.874000
-0.021293 -0.027983 0.873000
0.020413 -0.032692 0.874000
-0.034386 0.021701 0.877000
-0.006158 0.027876 0.867000
0.025275 -0.023179 0.868000
-0.028905 0.029934 0.875000
-0.006485 0.035917 0.863000
-0.015202 0.014072 0.874000
0.000618 0.029490 0.862000
-0.013148 -0.032591 0.881000
0.024975 -0.029319 0.870000
-0.034826 0.017047 0.879000
-0.003357 -0.023163 0.881000
0.004516 0.025557 0.861000
-0.009906 -0.035936 0.883000
-0.014203 0.007641 0.879000
0.014215 -0.011402 0.869000
-0.008108 -0.040752 0.885000
-0.002605 0.012246 0.872000
0.019179 -0.011733 0.867000
0.004933 0.003632 0.872000
-0.025029 0.004018 0.878000
-0.014449 0.019424 0.872000
-0.026474 0.018835 0.878000
0.024398 0.027413 0.875000
0.034564 -0.030681 0.868000
-0.006279 -0.028700 0.884000
0.017977 -0.042237 0.878000
0.024532 -0.019940 0.867000
0.023407 0.006807 0.865000
0.030563 -0.019204 0.866000
0.011148 -0.045645 0.881000
-0.018080 0.016950 0.874000
0.002451 -0.035936 0.883000
0.029850 -0.020630 0.866000
-0.020886 0.030873 0.871000
-0.008786 -0.000681 0.880000
-0.015184 0.026632 0.873000
0.008789 0.014250 0.863000
0.001334 0.016082 0.866000
-0.000091 0.037872 0.859000
-0.011657 0.006187 0.878000
-0.005895 -0.015548 0.881000
0.006619 0.034297 0.858000
0.014456 0.008203 0.862000
0.011944 0.019864 0.860000
-0.027952 0.015962 0.879000
0.007479 -0.022671 0.876000
-0.015254 -0.034970 0.877000
0.015271 0.040770 0.868000
0.003803 0.029421 0.860000
0.000270 -0.034118 0.883000
-0.011684 0.002217 0.880000
0.038981 -0.011172 0.879000
0.001683 0.025587 0.862000
0.001330 0.024551 0.863000
-0.017172 0.042572 0.847000
0.038444 -0.017603 0.875000
0.023763 -0.009570 0.865000
0.004631 -0.047202 0.883000
0.036750 -0.026782 0.869000
0.005358 -0.047202 0.883000
-0.016244 0.021936 0.872000
0.024860 0.006102 0.866000
-0.012281 0.019043 0.871000
0.015754 -0.029848 0.875000
-0.019878 0.027742 0.874000
0.004600 -0.011868 0.877000
0.026255 -0.006010 0.865000
0.018713 0.014589 0.862000
0.026229 0.023118 0.876000
-0.030122 0.018856 0.879000
-0.012983 0.030479 0.870000
0.004142 0.038842 0.857000
-0.016049 -0.009747 0.881000
-0.006832 0.039424 0.862000
0.010516 0.033630 0.859000
-0.000444 0.038226 0.859000
-0.003008 -0.033832 0.885000
-0.010633 -0.017401 0.883000
-0.009532 -0.013025 0.882000
-0.012060 -0.011197 0.881000
0.009261 -0.018303 0.874000
0.020296 0.028298 0.869000
-0.017136 -0.006846 0.881000
0.004626 -0.037347 0.882000
0.020122 -0.043993 0.877000
0.028063 0.019896 0.877000
-0.012698 0.013008 0.875000
-0.023017 -0.005778 0.884000
-0.001870 0.025291 0.864000
0.032284 -0.001036 0.874000
0.033453 -0.022438 0.867000
0.014232 -0.012848 0.870000
-0.012436 -0.012662 0.882000
-0.010177 0.012648 0.875000
0.015218 0.000043 0.865000
0.033453 -0.024936 0.867000
-0.025217 0.033421 0.872000
-0.008108 -0.035289 0.885000
-0.015561 -0.038807 0.874000
-0.020739 0.000768 0.880000
-0.022499 0.013053 0.878000
0.022468 -0.025739 0.870000
-0.017117 -0.017342 0.880000
0.036034 -0.024278 0.869000
0.013762 0.035562 0.863000
0.018713 0.005364 0.862000
0.037662 -0.014114 0.882000
0.042696 -0.019537 0.881000
-0.023422 0.030549 0.872000
0.016418 0.047059 0.872000
0.018909 -0.023976 0.871000
0.007902 -0.044294 0.883000
-0.016736 -0.015513 0.879000
0.026286 -0.018848 0.866000
0.001724 -0.032665 0.883000
-0.003357 -0.022075 0.881000
0.020866 -0.001023 0.863000
0.024802 0.000043 0.864000
0.008541 -0.016144 0.874000
0.017710 -0.050156 0.865000
0.034603 -0.018913 0.869000
0.037853 -0.008629 0.878000
-0.017000 -0.035210 0.874000
-0.028281 0.010162 0.878000
0.021060 -0.025410 0.871000
-0.023835 0.026663 0.874000
0.007167 -0.029361 0.882000
0.032383 -0.019227 0.867000
-0.036468 0.023452 0.875000
0.032137 -0.007835 0.870000
-0.009671 0.041197 0.862000
0.008860 0.001833 0.870000
-0.002266 -0.022050 0.880000
-0.017841 0.003665 0.880000
-0.013889 -0.012662 0.882000
0.018004 0.018491 0.862000
0.000983 0.011873 0.871000
0.018066 0.024608 0.865000
-0.005413 0.035876 0.862000
0.006972 0.032531 0.858000
0.017690 -0.049742 0.864000
0.009676 -0.034687 0.879000
0.021246 0.012489 0.864000
-0.017098 -0.015151 0.879000
0.020203 -0.008502 0.865000
0.017097 -0.017503 0.870000
0.012180 -0.031360 0.877000
0.032793 0.006187 0.878000
-0.035266 0.031267 0.872000
-0.000093 -0.009363 0.879000
0.015051 -0.029882 0.876000
0.023131 0.015047 0.868000
0.003469 0.016776 0.865000
0.000633 -0.046422 0.882000
0.008032 0.038887 0.858000
-0.026354 0.029540 0.874000
0.015201 0.001821 0.864000
0.008532 -0.015407 0.873000
-0.013035 0.044822 0.850000
-0.017117 -0.015893 0.880000
0.009980 -0.019022 0.874000
0.019423 0.006783 0.862000
0.008395 0.042468 0.859000
0.027576 0.011900 0.873000
0.034239 0.002212 0.878000
-0.011090 0.044036 0.862000
0.007029 0.012503 0.865000
0.000973 0.027006 0.862000
0.011833 -0.047296 0.878000
0.019801 0.014250 0.863000
0.007326 0.038181 0.858000
0.010882 0.035792 0.860000
0.026642 -0.000670 0.866000
0.006997 0.021659 0.861000
-0.012843 -0.022540 0.885000
0.032928 -0.006058 0.872000
0.018087 0.026775 0.866000
0.033492 -0.021392 0.868000
0.028880 -0.031432 0.869000
0.034083 -0.006432 0.874000
0.016041 -0.020032 0.871000
-0.018714 -0.021861 0.887000
-0.032904 0.016628 0.876000
0.023983 0.023758 0.873000
0.003181 -0.045436 0.884000
0.017038 -0.007451 0.867000
0.027217 0.012978 0.873000
0.007530 -0.040614 0.882000
0.043059 -0.019900 0.881000
0.020678 -0.023232 0.870000
0.032026 -0.021368 0.867000
0.027679 -0.010994 0.865000
0.015857 0.020950 0.861000
-0.018038 -0.037282 0.872000
-0.015544 0.018009 0.873000
-0.016411 -0.003583 0.881000
-0.007362 -0.039933 0.883000
-0.021053 0.009800 0.878000
0.000972 0.031582 0.861000
0.024231 -0.023921 0.869000
0.026255 -0.009214 0.865000
0.013173 -0.016447 0.871000
-0.027496 0.026003 0.876000
-0.024639 0.017008 0.877000
-0.010798 0.031802 0.867000
-0.020331 0.009800 0.878000
0.004273 -0.043253 0.884000
-0.007717 -0.010847 0.882000
-0.002575 0.031264 0.862000
-0.029727 0.013414 0.878000
-0.026836 0.016666 0.878000
-0.029693 0.011594 0.877000
-0.006229 0.009428 0.877000
0.010737 -0.047964 0.877000
-0.022964 -0.005402 0.882000
-0.015775 0.038181 0.866000
-0.009348 0.033508 0.865000
0.019423 0.006429 0.862000
0.016998 0.028524 0.865000
-0.013589 0.043376 0.863000
-0.021826 0.006563 0.880000
-0.010657 -0.032375 0.885000
-0.002602 0.014383 0.871000
0.009969 -0.010377 0.873000
0.009477 0.019887 0.861000
0.015183 0.005371 0.863000
-0.010293 -0.026911 0.885000
0.001673 0.042722 0.857000
-0.019181 -0.028407 0.875000
0.032100 -0.010329 0.869000
0.040153 -0.027983 0.873000
-0.012756 -0.038667 0.879000
0.015429 -0.027750 0.877000
0.015288 -0.012118 0.869000
0.005560 0.036415 0.858000
0.013531 -0.015013 0.871000
-0.007897 0.040843 0.862000
0.003909 -0.040342 0.884000
-0.003980 0.042115 0.859000
0.034561 -0.001761 0.877000
0.008247 -0.027514 0.881000
0.007679 0.035356 0.858000
-0.032979 0.023894 0.878000
0.006078 -0.039162 0.882000
0.038981 -0.010448 0.879000
-0.014350 0.037468 0.866000
-0.035625 0.030191 0.872000
0.030955 -0.025293 0.867000
0.037193 -0.022900 0.871000
0.027711 -0.006373 0.866000
0.007876 -0.036176 0.880000
0.004268 -0.039933 0.883000
-0.033831 0.030549 0.872000
-0.002246 0.013681 0.872000
0.017731 -0.048075 0.866000
-0.019115 0.029114 0.872000
0.030669 -0.031789 0.869000
0.019289 -0.025439 0.872000
-0.010972 -0.001770 0.881000
0.015556 0.003243 0.864000
0.007326 0.042066 0.858000
-0.000456 -0.026427 0.881000
-0.018799 0.018749 0.874000
-0.014090 0.028396 0.872000
-0.024057 0.035452 0.869000
0.011644 0.044138 0.864000
-0.004807 -0.014461 0.881000
0.025838 0.023452 0.875000
-0.034947 0.032022 0.873000
-0.015202 -0.039167 0.874000
0.002054 0.013634 0.869000
0.007893 -0.040251 0.882000
-0.015704 -0.025730 0.882000
0.021369 0.023649 0.869000
0.005560 0.037828 0.858000
0.000634 -0.043253 0.884000
0.016004 -0.014264 0.869000
-0.014689 0.039561 0.865000
-0.024829 0.034458 0.871000
0.006092 -0.042889 0.884000
0.010761 -0.030346 0.879000
0.037997 -0.021516 0.873000
0.012313 0.033708 0.861000
0.023542 -0.025022 0.870000
0.013469 0.043934 0.867000
0.006030 -0.017963 0.875000
0.026346 -0.025679 0.868000
-0.002287 -0.046007 0.888000
0.001363 -0.041117 0.885000
-0.008117 -0.030588 0.886000
0.014828 0.007502 0.863000
-0.016641 0.025583 0.874000
0.016565 0.017052 0.861000
0.026255 -0.011706 0.865000
0.018572 -0.024721 0.872000
-0.009044 0.017947 0.870000
0.003477 0.013960 0.867000
-0.005394 0.046357 0.859000
0.015148 0.012091 0.861000
0.037534 -0.005383 0.879000
0.017535 -0.028015 0.874000
-0.022782 0.022732 0.875000
0.009969 -0.016126 0.873000
0.026967 -0.006010 0.865000
-0.009895 -0.037347 0.882000
-0.006251 -0.004665 0.880000
-0.004818 -0.041387 0.883000
-0.018328 -0.014907 0.886000
0.015857 0.022722 0.861000
0.011367 -0.002822 0.870000
0.034763 -0.031217 0.873000
-0.031030 0.031339 0.874000
0.038258 -0.008639 0.879000
0.007360 0.018491 0.862000
-0.027197 0.017750 0.878000
-0.011347 -0.015566 0.882000
-0.026474 0.016305 0.878000
0.033554 0.005470 0.879000
0.016493 -0.034930 0.876000
-0.002916 0.048422 0.858000
0.016585 0.010686 0.862000
-0.002272 -0.026820 0.882000
0.002075 -0.013689 0.878000
-0.021077 0.006194 0.879000
0.012755 0.046432 0.867000
0.012667 0.017761 0.861000
0.001714 -0.011520 0.878000
-0.022499 0.012691 0.878000
-0.011335 -0.011922 0.881000
-0.011790 -0.039428 0.888000
0.015610 -0.005310 0.867000
0.010590 0.006095 0.865000
0.007102 -0.007151 0.874000
-0.004003 0.028136 0.864000
-0.002212 0.041761 0.859000
-0.010872 0.014775 0.873000
0.005560 0.033237 0.858000
0.009261 -0.010749 0.874000
0.003109 0.019245 0.864000
-0.026504 0.015238 0.879000
0.016979 0.001465 0.864000
0.014948 -0.015712 0.870000
-0.015338 0.043707 0.842000
0.021932 0.004305 0.863000
0.001722 -0.048237 0.882000
-0.008137 0.048321 0.850000
-0.019992 0.005470 0.879000
0.024975 -0.027171 0.870000
-0.024306 0.002212 0.878000
0.007768 0.006473 0.868000
0.008182 -0.014705 0.874000
0.019157 0.024993 0.866000
-0.007296 0.011207 0.875000
0.009843 -0.051401 0.862000
-0.029659 0.026724 0.876000
-0.009575 -0.030952 0.886000
0.013263 -0.032443 0.877000
-0.009554 -0.036340 0.884000
-0.011386 -0.025090 0.885000
-0.011591 0.014416 0.873000
0.024119 0.005739 0.865000
-0.000817 -0.011172 0.879000
0.012139 -0.021180 0.874000
0.027743 -0.022795 0.867000
0.030598 -0.021368 0.867000
-0.027558 0.008716 0.878000
0.039254 -0.016561 0.877000
-0.001516 0.023184 0.865000
0.005676 -0.020868 0.876000
-0.000091 0.038933 0.859000
-0.025964 0.030585 0.873000
0.037910 -0.025768 0.871000
0.002821 -0.041845 0.885000
-0.010984 -0.006128 0.882000
0.014914 0.042913 0.868000
-0.015184 0.016931 0.873000
0.005231 0.021684 0.862000
-0.022422 0.021291 0.875000
0.007454 -0.002472 0.873000
0.002456 -0.041117 0.885000
0.010908 0.013879 0.862000
0.015218 -0.001025 0.865000
-0.010247 -0.004670 0.881000
0.035278 -0.028180 0.868000
-0.018907 0.004747 0.879000
0.031565 0.002561 0.874000
-0.026444 0.004736 0.877000
-0.023945 0.001489 0.878000
0.006310 0.015334 0.864000
0.014439 0.014217 0.861000
-0.005394 0.046004 0.859000
0.008051 0.025882 0.860000
0.028687 0.010475 0.874000
0.021011 0.024006 0.869000
0.000264 0.030199 0.862000
0.013037 -0.050337 0.862000
0.014134 0.004666 0.864000
-0.005902 -0.013025 0.882000
0.020654 -0.047526 0.869000
-0.004409 0.010475 0.874000
0.030229 0.012677 0.877000
-0.016318 0.012302 0.876000
0.000992 -0.011172 0.879000
0.019648 0.035933 0.872000
0.009820 0.039686 0.860000
0.037997 -0.021156 0.873000
0.019445 0.002174 0.863000
-0.006975 -0.004303 0.880000
0.008395 0.031508 0.859000
0.011047 -0.018641 0.873000
-0.006251 -0.005752 0.880000
-0.027527 0.006180 0.877000
0.022262 -0.041780 0.876000
0.013810 -0.001027 0.866000
0.028490 -0.026394 0.868000
-0.013148 -0.032953 0.881000
0.020511 0.010698 0.863000
-0.017517 0.042004 0.864000
0.018572 0.039163 0.872000
0.014379 -0.045903 0.879000
0.000263 0.038226 0.859000
-0.008137 0.049370 0.850000
0.021627 0.013215 0.865000
0.020483 -0.042550 0.877000
0.028947 0.004345 0.871000
0.021802 -0.030822 0.872000
0.015772 -0.027719 0.876000
0.026019 0.008269 0.869000
0.011986 0.041600 0.863000
-0.017479 -0.024223 0.880000
0.015464 -0.045541 0.879000
0.010174 0.039686 0.860000
0.038356 -0.022593 0.873000
-0.000818 -0.013358 0.880000
-0.008876 -0.040936 0.889000
0.025929 -0.018848 0.866000
0.001357 -0.026427 0.881000
0.021517 0.035696 0.875000
0.003816 0.022420 0.863000
0.009271 -0.020845 0.875000
0.028720 0.013368 0.875000
0.012313 0.035834 0.861000
-0.004003 0.028847 0.864000
-0.037231 0.024560 0.876000
0.003843 0.011846 0.869000
0.015754 -0.023726 0.875000
0.025899 0.000043 0.865000
0.037594 -0.021491 0.872000
0.004989 -0.027183 0.882000
0.025543 -0.001025 0.865000
0.007462 -0.016504 0.874000
-0.015383 0.043427 0.864000
0.003878 -0.021975 0.877000
0.011110 -0.024891 0.878000
-0.015081 0.043618 0.847000
0.002453 -0.039251 0.884000
0.019892 -0.013874 0.867000
-0.000093 -0.029394 0.883000
-0.009543 -0.020308 0.883000
0.022365 -0.014214 0.866000
-0.029761 0.018494 0.879000
-0.015958 -0.034209 0.876000
-0.021342 0.025973 0.875000
-0.010972 -0.011197 0.881000
-0.021578 0.033344 0.870000
0.028100 -0.001741 0.867000
-0.010142 0.014758 0.872000
-0.007525 0.044287 0.860000
-0.016679 -0.032406 0.876000
-0.023890 0.019152 0.876000
-0.017000 0.024504 0.874000
-0.029354 0.035013 0.867000
0.002795 -0.019809 0.877000
0.005322 -0.012229 0.877000
0.019801 0.001819 0.863000
0.006650 0.019556 0.862000
-0.003980 0.043882 0.859000
-0.031859 0.028198 0.877000
-0.001908 -0.043518 0.882000
-0.003364 -0.043931 0.883000
-0.014139 0.013368 0.875000
-0.012101 -0.019604 0.884000
0.022287 0.000753 0.863000
-0.013826 0.009800 0.878000
-0.030741 0.029969 0.876000
0.040337 -0.019809 0.877000
0.014691 -0.030603 0.876000
-0.021101 0.001492 0.880000
0.001714 -0.010798 0.878000
-0.004445 -0.012285 0.881000
0.010882 0.035085 0.860000
0.016815 -0.046721 0.874000
-0.011193 0.021169 0.870000
0.008256 -0.042429 0.882000
0.041105 -0.019471 0.878000
-0.010609 -0.003583 0.881000
-0.008232 0.044641 0.860000
-0.002994 -0.022800 0.881000
0.002381 0.038181 0.858000
0.015700 -0.047332 0.872000
0.009324 -0.029656 0.880000
0.002392 0.024523 0.862000
-0.019653 0.002579 0.880000
0.024286 0.019043 0.871000
0.005906 0.043780 0.857000
-0.005176 -0.011573 0.882000
0.010946 0.005383 0.865000
0.009809 0.029033 0.859000
0.002381 0.037828 0.858000
0.020156 0.002529 0.863000
0.040337 -0.020170 0.877000
0.007813 -0.004987 0.873000
0.020535 0.014623 0.864000
0.023380 -0.006003 0.864000
0.024802 0.000398 0.864000
-0.021653 0.040733 0.845000
-0.024555 0.028102 0.874000
0.020122 -0.042550 0.877000
-0.025390 0.000405 0.878000
0.026919 0.019130 0.875000
0.004605 -0.023807 0.878000
0.043010 -0.022775 0.880000
0.029205 -0.003172 0.868000
0.027123 -0.030752 0.870000
0.026967 -0.008858 0.865000
0.010210 0.046928 0.863000
0.020535 0.013911 0.864000
0.010163 0.025498 0.859000
-0.031895 0.023894 0.878000
0.034206 -0.020321 0.868000
0.026967 -0.009570 0.865000
-0.015686 -0.001407 0.881000
0.023317 0.031015 0.875000
-0.011564 0.027647 0.871000
0.038760 -0.020461 0.874000
0.000633 -0.033755 0.883000
0.020630 -0.017820 0.868000
-0.015650 0.008003 0.879000
0.001724 -0.032301 0.883000
0.009455 0.033983 0.859000
0.017455 -0.017861 0.870000
0.010870 0.027266 0.859000
-0.017841 0.001130 0.880000
-0.016774 -0.008296 0.881000
0.035202 -0.008240 0.875000
-0.005053 0.038669 0.861000
0.022800 0.018999 0.869000
0.021222 0.000753 0.863000
0.007368 0.017447 0.863000
-0.017459 -0.012257 0.879000
0.035001 -0.018935 0.870000
0.020749 0.034896 0.873000
0.003091 0.033630 0.859000
-0.006872 0.023594 0.867000
0.008738 0.032884 0.858000
0.016133 -0.028440 0.876000
-0.018142 -0.028111 0.877000
0.008032 0.040300 0.858000
-0.019093 -0.035806 0.871000
0.011752 -0.015748 0.872000
0.011590 0.025528 0.860000
-0.027761 0.032381 0.873000
0.037866 -0.028961 0.870000
0.029171 -0.026007 0.867000
-0.015939 0.013728 0.875000
-0.006650 -0.030189 0.885000
0.006712 0.006846 0.870000
-0.017720 -0.040246 0.874000
-0.033625 0.018071 0.876000
0.001675 0.037475 0.858000
-0.012060 -0.006846 0.881000
0.011472 -0.034287 0.878000
0.003127 0.012919 0.869000
0.024475 -0.009926 0.865000
0.002038 0.024877 0.862000
0.004961 -0.013312 0.877000
0.033135 -0.030324 0.868000
0.018735 0.019223 0.863000
0.026377 0.007912 0.869000
-0.012654 0.026602 0.872000
0.035243 -0.006447 0.876000
0.007462 -0.015785 0.874000
0.009102 0.027266 0.859000
0.007111 -0.008600 0.875000
0.002817 -0.041070 0.884000
0.023763 -0.012774 0.865000
0.026765 -0.032184 0.870000
0.008163 -0.000316 0.872000
0.012370 0.043121 0.865000
-0.023863 0.025613 0.875000
0.031312 -0.018513 0.867000
0.011944 0.032253 0.860000
-0.022087 0.018431 0.876000
0.009102 0.033983 0.859000
-0.020862 -0.033974 0.870000
-0.006635 -0.040660 0.883000
-0.020145 -0.036123 0.870000
0.025809 0.020907 0.874000
-0.009873 0.002579 0.880000
0.008434 -0.052171 0.863000
-0.005895 -0.018812 0.881000
-0.012814 -0.016674 0.883000
0.019423 0.005364 0.862000
0.006635 0.025174 0.860000
0.001704 0.009385 0.873000
0.015736 0.037814 0.874000
-0.006825 0.040087 0.861000
0.004263 -0.031902 0.882000
0.009676 -0.025643 0.879000
0.031705 -0.012104 0.868000
-0.018864 0.011233 0.877000
-0.013873 -0.008296 0.881000
-0.013841 -0.035049 0.879000
0.021492 -0.034490 0.874000
0.005670 -0.017243 0.875000
-0.030054 0.024588 0.877000
0.004205 0.010069 0.870000
0.002451 -0.029394 0.883000
0.033173 -0.015337 0.869000
-0.018928 0.000043 0.880000
-0.017380 0.014088 0.875000
-0.035388 0.021291 0.875000
0.019915 -0.016748 0.868000
0.002448 -0.046785 0.882000
-0.010130 0.016533 0.871000
-0.011937 0.015476 0.872000
0.006665 0.013911 0.864000
0.036852 -0.001767 0.880000
-0.022704 0.030191 0.872000
-0.023089 0.028429 0.873000
0.024203 -0.022107 0.868000
-0.019541 0.016970 0.875000
0.024588 -0.026067 0.869000
-0.017720 0.027742 0.874000
0.018550 0.032307 0.871000
0.026611 -0.013842 0.865000
0.006750 -0.013282 0.875000
0.008620 -0.041340 0.882000
-0.008443 -0.011573 0.882000
-0.007346 -0.015911 0.881000
-0.025419 0.011982 0.879000
-0.021366 0.016989 0.876000
0.022905 0.027351 0.873000
0.002805 -0.025672 0.880000
-0.008806 -0.014840 0.882000
-0.000091 0.037165 0.859000
0.013263 -0.032082 0.877000
0.009144 0.012474 0.863000
-0.022115 0.036983 0.863000
0.014248 -0.015372 0.871000
0.011249 0.037606 0.861000
0.033723 -0.004633 0.874000
0.014232 -0.013206 0.870000
-0.002215 0.038624 0.860000
-0.018928 -0.006838 0.880000
0.006619 0.043831 0.858000
0.014489 0.005021 0.864000
0.026377 0.007196 0.869000
0.011354 -0.002103 0.869000
0.014540 0.041793 0.867000
-0.012060 -0.035492 0.881000
0.015682 -0.018598 0.871000
-0.014808 0.021577 0.872000
0.024645 -0.029711 0.871000
-0.030054 0.013399 0.877000
0.016211 0.017761 0.861000
-0.018799 0.020907 0.874000
0.009809 0.036811 0.859000
-0.026323 0.032022 0.873000
0.007679 0.043125 0.858000
0.004955 -0.016181 0.876000
0.028781 -0.009224 0.866000
0.013391 0.012105 0.862000
0.019938 0.029371 0.869000
-0.006272 -0.040660 0.883000
-0.003284 0.034102 0.862000
-0.011283 0.009067 0.877000
-0.024723 0.007287 0.880000
0.022545 -0.033732 0.873000
-0.008252 0.041197 0.862000
0.014793 0.019533 0.861000
-0.020145 0.032628 0.870000
0.001362 -0.043981 0.884000
0.028556 0.003624 0.870000
-0.015323 -0.013010 0.881000
-0.017499 -0.020625 0.881000
0.000630 -0.019109 0.878000
-0.010760 0.037737 0.864000
-0.002926 0.037252 0.861000
0.017294 0.007848 0.862000
-0.015976 -0.033526 0.877000
0.020099 -0.038175 0.876000
-0.031786 0.029934 0.875000
0.004263 -0.035895 0.882000
0.030669 -0.006037 0.869000
-0.027307 0.034418 0.870000
0.009698 -0.039480 0.881000
0.002773 0.011501 0.870000
-0.010119 0.026899 0.870000
0.019738 -0.040338 0.876000
-0.005533 -0.016274 0.881000
0.005913 0.033590 0.858000
0.023237 0.023372 0.872000
-0.012115 -0.025818 0.885000
-0.030776 0.027115 0.877000
0.018713 0.009977 0.862000
0.021752 -0.023948 0.870000
0.016979 0.000754 0.864000
-0.030088 0.014137 0.878000
0.000996 -0.046059 0.882000
-0.012785 -0.000319 0.881000
0.002437 -0.013689 0.878000
0.005553 0.038842 0.857000
0.010749 -0.033925 0.878000
-0.010910 0.011941 0.876000
0.013714 0.019156 0.860000
0.008541 -0.007511 0.874000
0.005696 -0.025281 0.879000
0.009820 0.021634 0.860000
-0.018397 -0.035129 0.872000
0.024831 0.004315 0.865000
-0.030122 0.018494 0.879000
0.014346 -0.028833 0.877000
0.005560 0.033590 0.858000
-0.023407 -0.029461 0.885000
0.005947 0.018868 0.863000
0.003461 0.020289 0.863000
0.009843 0.044745 0.862000
-0.006137 0.032403 0.864000
0.037724 -0.016883 0.875000
0.013730 0.015635 0.861000
0.003185 -0.043666 0.885000
0.030381 -0.000315 0.871000
0.011472 -0.030673 0.878000
0.016585 0.007493 0.862000
-0.003368 -0.032338 0.884000
0.026611 -0.002093 0.865000
-0.014842 0.014792 0.874000
0.013842 -0.048901 0.868000
0.034005 -0.010006 0.872000
-0.002584 0.024964 0.865000
-0.006848 0.033825 0.864000
-0.027590 0.015600 0.879000
-0.014598 -0.000319 0.881000
0.014017 -0.039391 0.879000
-0.007237 0.019692 0.868000
0.023380 -0.000669 0.864000
-0.019946 0.012677 0.877000
-0.017764 0.043361 0.842000
0.022313 0.007155 0.864000
-0.012451 -0.016674 0.883000
-0.002919 0.049186 0.859000
0.018822 -0.012447 0.867000
-0.007187 0.038714 0.862000
0.027671 0.019152 0.876000
0.006972 0.038534 0.858000
0.010882 0.037562 0.860000
-0.016622 0.022320 0.873000
0.022110 -0.023232 0.870000
0.029494 -0.012076 0.866000
0.012947 -0.041246 0.880000
0.017874 -0.046667 0.873000
-0.010872 0.014416 0.873000
0.018930 -0.026157 0.872000
0.001673 0.041664 0.857000
0.006288 0.024140 0.861000
0.010749 -0.031034 0.878000
-0.007271 0.015117 0.872000
0.039839 -0.025857 0.874000
0.000968 0.041664 0.857000
0.019468 0.019601 0.864000
0.014166 0.040676 0.866000
0.028295 0.010463 0.873000
0.024119 0.006095 0.865000
0.025959 -0.020297 0.867000
0.033685 -0.006424 0.873000
0.017475 0.040911 0.871000
-0.021975 -0.036787 0.886000
-0.010748 0.040890 0.863000
0.019039 -0.043272 0.877000
0.026999 -0.015640 0.866000
-0.005545 -0.025760 0.883000
-0.030449 0.019557 0.878000
-0.012625 0.022960 0.870000
-0.012019 0.009078 0.878000
-0.011827 0.040226 0.864000
0.018465 -0.009235 0.867000
0.027061 -0.024965 0.868000
0.023596 0.024089 0.872000
-0.000093 -0.025701 0.881000
0.026673 -0.021724 0.867000
0.005322 -0.011868 0.877000
0.011944 0.028359 0.860000
0.009709 -0.044970 0.882000
0.012208 -0.037944 0.879000
-0.022345 -0.030104 0.872000
0.010712 -0.021925 0.875000
0.042648 -0.020601 0.880000
0.020796 -0.036330 0.875000
0.024175 0.011105 0.867000
-0.022112 0.015564 0.877000
-0.005801 0.028947 0.867000
0.034246 -0.017125 0.869000
-0.008309 0.030767 0.868000
-0.011684 0.000768 0.880000
-0.025781 0.011620 0.879000
-0.016641 0.027382 0.874000
0.013485 -0.004601 0.868000
0.027711 -0.019204 0.866000
0.036046 -0.003209 0.878000
-0.006272 -0.025760 0.883000
-0.030415 0.026393 0.877000
0.012556 -0.036093 0.878000
-0.000817 -0.017322 0.879000
-0.033265 0.015907 0.876000
-0.018439 0.018389 0.874000
0.006317 0.012147 0.865000
-0.004450 -0.040977 0.882000
-0.003364 -0.028667 0.883000
0.012313 0.036188 0.861000
0.041828 -0.022723 0.878000
-0.018132 0.042371 0.843000
0.040744 -0.019471 0.878000
0.003445 0.034690 0.859000
-0.023222 0.012691 0.878000
0.007813 -0.003550 0.873000
0.031134 -0.002110 0.872000
-0.000092 0.011169 0.872000
-0.000092 0.010810 0.872000
-0.006628 -0.021737 0.882000
0.001363 -0.041845 0.885000
-0.018059 -0.035169 0.873000
0.030955 -0.021011 0.867000
-0.012281 0.025854 0.871000
-0.003741 -0.037152 0.886000
0.014707 -0.027750 0.877000
-0.014825 0.026273 0.873000
0.014489 0.002176 0.864000
-0.032979 0.022087 0.878000
0.003445 0.032922 0.859000
0.016286 -0.002093 0.865000
0.015068 -0.034970 0.877000
0.006449 -0.047202 0.883000
0.017751 0.030374 0.867000
-0.005551 -0.029791 0.884000
-0.016755 -0.010822 0.880000
0.007111 -0.019044 0.875000
0.027418 0.002186 0.868000
-0.004082 -0.012285 0.881000
0.006078 -0.036984 0.882000
-0.013510 -0.005758 0.881000
-0.002274 -0.031211 0.883000
-0.010107 0.025437 0.869000
-0.000444 0.042419 0.858000
0.011393 -0.013954 0.872000
0.020156 0.001463 0.863000
-0.014532 -0.036413 0.877000
-0.025014 0.035645 0.865000
-0.009200 -0.033832 0.885000
0.000631 -0.022387 0.879000
-0.001904 -0.021326 0.880000
0.000629 0.010150 0.877000
0.008779 0.018491 0.862000
-0.029265 0.030294 0.875000
0.022287 0.005371 0.863000
0.012932 -0.040114 0.879000
-0.008080 -0.011573 0.882000
-0.006880 0.019692 0.868000
0.026734 -0.027855 0.869000
0.011739 -0.007485 0.871000
0.031098 -0.003183 0.871000
0.015183 0.004305 0.863000
-0.011964 0.014072 0.874000
-0.018439 -0.032332 0.874000
0.002440 -0.023834 0.879000
0.018678 -0.039662 0.877000
-0.007237 0.020406 0.868000
-0.019653 -0.001043 0.880000
0.009866 0.047338 0.864000
-0.025726 0.036001 0.865000
-0.014235 0.002219 0.881000
-0.010997 -0.034482 0.883000
0.015148 0.023785 0.861000
0.026999 -0.020274 0.866000
-0.029037 0.018856 0.879000
0.014931 -0.010687 0.869000
0.021394 -0.023232 0.870000
-0.015668 -0.016255 0.880000
0.040429 -0.015513 0.879000
-0.001503 0.041713 0.858000
0.011846 -0.026005 0.879000
0.028100 -0.023152 0.867000
-0.011445 0.044390 0.862000
-0.005176 -0.023915 0.882000
-0.020886 0.031948 0.871000
-0.022550 0.003303 0.880000
0.027639 0.017330 0.875000
0.008492 -0.050388 0.869000
-0.013464 0.010523 0.878000
0.030739 -0.002108 0.871000
0.022059 -0.018892 0.868000
0.021222 0.005726 0.863000
0.019693 -0.031972 0.874000
-0.020739 -0.002854 0.880000
0.006303 0.016382 0.863000
-0.036786 0.025943 0.874000
-0.010621 -0.007217 0.882000
-0.007708 -0.005396 0.881000
-0.016281 0.014432 0.874000
0.018465 -0.009592 0.867000
0.019693 0.039253 0.874000
0.001720 -0.026064 0.881000
-0.017241 0.033267 0.868000
0.011631 0.041600 0.863000
0.026888 0.018029 0.874000
0.000631 -0.015151 0.879000
0.005940 0.022039 0.862000
-0.019653 -0.004303 0.880000
0.007167 -0.047148 0.882000
0.033685 -0.007143 0.873000
0.027743 -0.002455 0.867000
0.021036 -0.022158 0.870000
0.030241 -0.009235 0.867000
-0.016641 0.025224 0.874000
0.012556 -0.026337 0.878000
-0.030088 0.015944 0.878000
-0.027166 0.020257 0.877000
0.027871 0.007571 0.871000
0.025187 0.003247 0.865000
0.016939 0.018846 0.862000
0.016114 -0.029848 0.875000
-0.005551 -0.039251 0.884000
0.002453 -0.040342 0.884000
0.022262 -0.038535 0.876000
-0.005017 0.050012 0.855000
0.011944 0.030837 0.860000
-0.028313 0.012706 0.879000
-0.015323 0.000044 0.881000
0.007893 -0.040614 0.882000
-0.024334 0.004023 0.879000
-0.009511 -0.002130 0.880000
-0.026143 0.013429 0.879000
0.035524 -0.010132 0.883000
0.013127 -0.004959 0.868000
-0.000447 0.023513 0.864000
-0.004709 0.031655 0.863000
0.003525 -0.024919 0.879000
0.000630 -0.020555 0.878000
-0.009895 -0.011573 0.882000
0.003807 0.026266 0.861000
0.033849 -0.018534 0.868000
0.001726 -0.045436 0.884000
-0.026143 0.007641 0.879000
0.015826 -0.045179 0.879000
0.004273 -0.042525 0.884000
-0.018799 0.018389 0.874000
0.025543 0.000755 0.865000
-0.021826 0.000406 0.880000
-0.006515 0.024308 0.867000
-0.004725 0.024636 0.866000
0.029528 -0.006380 0.867000
0.035041 0.003303 0.880000
-0.008472 -0.034924 0.885000
0.014117 0.008567 0.863000
0.024091 0.002888 0.864000
0.018108 -0.009949 0.867000
0.004887 0.015689 0.864000
-0.019563 0.015186 0.876000
0.034564 -0.023179 0.868000
-0.004045 0.012260 0.873000
-0.015184 0.025554 0.873000
0.015790 -0.025946 0.877000
-0.010223 0.001852 0.879000
0.015502 0.021659 0.861000
0.000635 -0.041845 0.885000
-0.001510 0.031973 0.862000
-0.005489 0.012633 0.874000
0.027323 -0.006366 0.865000
0.006804 -0.039888 0.882000
0.016998 0.030304 0.865000
-0.013192 -0.021059 0.884000
0.030919 -0.019204 0.866000
-0.001865 0.030554 0.862000
-0.005420 0.033786 0.863000
0.020915 -0.006722 0.865000
0.003131 0.010785 0.870000
0.017710 0.026744 0.865000
-0.015775 0.038894 0.866000
-0.027073 0.030260 0.874000
0.001689 0.017488 0.865000
0.000269 -0.012257 0.879000
0.032284 -0.000676 0.874000
0.035359 -0.019293 0.870000
0.025959 0.003968 0.867000
-0.030741 0.027805 0.876000
0.007135 -0.024891 0.878000
0.033079 0.000764 0.876000
0.016719 0.039386 0.869000
0.021802 -0.047691 0.872000
-0.006265 -0.013025 0.882000
-0.001867 0.029879 0.863000
0.011236 0.033669 0.860000
0.001734 -0.049297 0.888000
0.022161 -0.030822 0.872000
0.014793 0.024494 0.861000
0.011262 0.013879 0.862000
0.017649 0.011041 0.862000
0.003517 -0.010785 0.877000
-0.007007 -0.025789 0.884000
-0.013234 0.042666 0.863000
0.007054 0.007545 0.868000
0.011289 0.008222 0.864000
0.035676 -0.024994 0.869000
0.007462 -0.016144 0.874000
0.030563 -0.018848 0.866000
-0.008261 0.038048 0.863000
-0.001904 -0.015531 0.880000
0.030207 -0.019204 0.866000
0.016873 -0.039301 0.877000
0.007505 -0.025281 0.879000
-0.016545 0.031875 0.869000
-0.000821 -0.041798 0.884000
-0.021268 -0.030104 0.872000
0.021084 0.031985 0.872000
0.008561 -0.022671 0.876000
-0.010835 0.025824 0.870000
0.014001 -0.026698 0.878000
0.019039 -0.042189 0.877000
-0.027401 0.032381 0.873000
0.021752 0.024750 0.870000
0.023790 -0.015284 0.866000
-0.008666 0.023979 0.868000
0.010399 -0.033602 0.879000
-0.021776 0.010884 0.878000
0.016022 0.042654 0.870000
0.003909 -0.045436 0.884000
0.002451 -0.028667 0.883000
0.014828 0.006436 0.863000
0.013640 -0.036816 0.878000
0.013624 -0.029194 0.877000
0.015412 -0.034209 0.876000
-0.026774 0.023118 0.876000
-0.014910 -0.033203 0.878000
-0.015306 0.004752 0.880000
-0.009895 -0.037710 0.882000
0.000633 -0.035209 0.883000
0.018909 0.034816 0.871000
-0.017862 -0.002495 0.881000
0.028523 -0.030359 0.869000
-0.024306 0.013414 0.878000
-0.017039 0.012302 0.876000
-0.009013 0.032159 0.867000
-0.030020 0.028526 0.876000
0.022262 -0.035290 0.876000
0.015857 0.013509 0.861000
-0.019946 0.010511 0.877000
0.015271 -0.009960 0.868000
-0.018896 0.041552 0.862000
-0.028217 0.025642 0.876000
0.002747 0.024877 0.862000
-0.026384 0.025613 0.875000
-0.019228 0.041150 0.861000
0.019984 -0.023976 0.871000
0.017535 -0.029094 0.874000
0.003084 0.040958 0.857000
-0.014631 -0.020672 0.883000
-0.016393 0.005839 0.880000
0.011590 0.033315 0.860000
-0.009554 -0.035976 0.884000
-0.013118 -0.035773 0.879000
0.034564 -0.024250 0.868000
0.011846 -0.037944 0.879000
0.015165 0.009267 0.862000
0.011658 0.003247 0.865000
-0.035748 0.023812 0.875000
0.003156 -0.020531 0.877000
0.010516 0.027973 0.859000
0.024091 0.000043 0.864000
0.008983 -0.040977 0.882000
0.010971 0.002184 0.867000
0.019311 0.039567 0.873000
-0.035067 0.024921 0.876000
-0.022886 0.000405 0.879000
-0.035067 0.019152 0.876000
-0.016641 -0.036649 0.874000
-0.014961 -0.003945 0.881000
0.002814 -0.030484 0.883000
0.003794 0.036769 0.858000
0.028490 -0.001743 0.868000
0.010222 0.008577 0.864000
0.023651 -0.044922 0.874000
0.024645 -0.030070 0.871000
0.008041 0.030448 0.859000
-0.011471 0.039515 0.864000
0.031669 -0.028504 0.867000
0.021492 0.033857 0.874000
-0.000818 -0.012995 0.880000
0.026377 -0.026424 0.869000
-0.007752 -0.032046 0.886000
0.018087 -0.048432 0.866000
-0.032581 0.018091 0.877000
0.010933 0.008933 0.864000
0.007445 -0.000316 0.872000
0.004268 -0.038843 0.883000
-0.003353 -0.016617 0.880000
0.018046 -0.001024 0.864000
0.012682 0.010686 0.862000
-0.001180 -0.015531 0.880000
0.007143 -0.025643 0.879000
0.022008 -0.012432 0.866000
-0.012538 0.040937 0.864000
-0.018842 -0.028800 0.876000
0.015165 -0.049627 0.862000
-0.010026 0.042262 0.862000
0.014134 0.005021 0.864000
0.015429 -0.037496 0.877000
-0.021244 -0.035447 0.871000
0.016939 0.009622 0.862000
-0.013510 -0.031503 0.881000
0.007539 -0.045385 0.883000
-0.009783 0.015476 0.872000
-0.014009 0.033229 0.867000
0.013746 0.032328 0.862000
-0.001180 -0.015169 0.880000
0.042599 -0.022749 0.879000
-0.033664 0.020618 0.877000
0.019039 -0.044715 0.877000
0.023380 0.001465 0.864000
-0.010072 0.032834 0.866000
0.030955 -0.023509 0.867000
-0.017161 0.042715 0.864000
0.027711 -0.018135 0.866000
0.005364 -0.042525 0.884000
-0.003281 0.035480 0.861000
0.008154 0.001118 0.871000
0.029137 -0.014214 0.866000
0.030451 -0.032295 0.873000
-0.007533 0.040795 0.861000
0.012298 0.024466 0.860000
-0.017459 -0.015151 0.879000
