0.002118 -0.025770 0.896000
-0.002673 -0.009533 0.895000
0.031798 -0.029993 0.901000
-0.014814 -0.010259 0.894000
0.009399 0.002234 0.887000
0.006175 -0.011388 0.896000
-0.003686 0.023398 0.873000
-0.010188 0.015907 0.876000
0.024537 0.015256 0.880000
-0.021911 0.029014 0.869000
0.011401 -0.024431 0.901000
0.010945 -0.013202 0.894000
0.039128 -0.025856 0.899000
0.005715 0.027996 0.882000
0.000643 -0.021345 0.896000
-0.039506 0.022564 0.855000
-0.037249 0.003686 0.885000
-0.022834 0.040471 0.877000
0.023477 0.005483 0.881000
0.021438 -0.029284 0.902000
0.039425 0.013948 0.889000
-0.023301 0.009834 0.881000
-0.013747 0.020883 0.873000
0.006551 -0.018784 0.897000
-0.000095 -0.020976 0.896000
0.019189 -0.024801 0.901000
-0.011022 0.006600 0.885000
-0.038881 -0.009469 0.889000
-0.026652 0.023730 0.872000
0.033316 0.020236 0.892000
0.005029 0.034072 0.889000
0.014129 0.002232 0.886000
0.048261 0.009934 0.890000
-0.035388 0.006229 0.884000
0.005376 0.005149 0.886000
-0.016983 -0.003994 0.892000
0.041527 0.011726 0.887000
0.018401 0.005845 0.881000
0.036580 -0.010958 0.891000
0.002071 0.014465 0.876000
0.031818 0.005483 0.881000
-0.028904 0.004420 0.886000
-0.021415 0.013775 0.878000
-0.001893 0.016249 0.875000
0.020833 -0.011337 0.892000
-0.038313 0.016989 0.876000
0.012022 -0.008767 0.892000
0.036132 -0.008006 0.889000
0.002426 0.020547 0.874000
0.021615 0.009088 0.879000
-0.017281 0.025466 0.870000
0.007257 -0.006204 0.893000
-0.022099 -0.007657 0.891000
0.006492 0.033340 0.889000
-0.012380 0.012330 0.878000
0.045649 -0.024278 0.882000
0.031526 0.013854 0.883000
0.014624 -0.041535 0.894000
0.011806 0.016989 0.876000
-0.042079 -0.008353 0.887000
0.004715 -0.021046 0.899000
-0.017718 -0.017578 0.892000
0.021253 0.009450 0.879000
0.018380 0.008012 0.880000
0.035360 -0.006535 0.888000
-0.016085 0.041111 0.883000
0.031427 -0.029622 0.901000
-0.017882 0.006578 0.882000
-0.027983 0.015256 0.880000
-0.044036 0.010674 0.861000
-0.044950 -0.006885 0.886000
0.014909 -0.038741 0.889000
0.004258 0.027964 0.881000
0.010871 0.000775 0.888000
0.005812 -0.018784 0.897000
0.012799 -0.015796 0.895000
-0.016560 0.000410 0.889000
0.038758 -0.022896 0.899000
-0.006236 0.031482 0.878000
-0.021732 -0.015725 0.891000
-0.004445 0.033403 0.881000
0.013050 0.001504 0.887000
0.046685 -0.022800 0.881000
-0.002987 0.011982 0.879000
0.033653 -0.027026 0.901000
-0.005526 0.011634 0.880000
0.009473 -0.009523 0.894000
-0.018431 -0.016092 0.891000
0.033503 -0.019523 0.897000
0.014559 -0.005451 0.890000
-0.001570 -0.015813 0.896000
-0.042509 0.021429 0.866000
0.022872 -0.032182 0.900000
0.021438 -0.026685 0.902000
0.022502 -0.032553 0.900000
-0.007387 0.038698 0.886000
0.045440 0.006964 0.885000
0.015093 -0.029960 0.900000
-0.026595 0.012386 0.882000
-0.013648 -0.000689 0.890000
0.045494 -0.028537 0.879000
-0.040476 0.015907 0.876000
0.013263 0.015204 0.877000
0.015360 -0.034911 0.894000
0.019621 -0.003242 0.887000
0.011085 0.017710 0.876000
-0.024886 0.021961 0.873000
0.031092 0.010559 0.881000
0.018222 -0.007282 0.890000
-0.011870 -0.016514 0.894000
-0.017757 -0.012098 0.894000
0.013064 -0.038332 0.888000
0.008019 -0.030195 0.896000
-0.021634 -0.000686 0.887000
0.038475 0.010959 0.884000
-0.035027 0.018410 0.875000
0.013064 -0.040890 0.888000
0.025151 -0.027056 0.902000
0.027073 0.013445 0.880000
0.024477 0.024247 0.891000
0.034758 0.003674 0.882000
0.038606 -0.004337 0.887000
0.034089 0.020259 0.893000
-0.003361 0.010571 0.882000
0.004253 0.027208 0.880000
0.037976 -0.029154 0.898000
0.000268 0.016970 0.875000
-0.000832 -0.019132 0.896000
0.031926 0.014961 0.884000
-0.039658 -0.006916 0.890000
0.024257 0.002224 0.883000
0.023584 -0.001049 0.885000
0.018891 -0.003607 0.887000
-0.012998 0.028364 0.871000
0.030939 -0.004337 0.887000
0.008055 -0.022551 0.900000
0.036292 0.012414 0.884000
0.004253 0.009823 0.880000
0.017123 -0.039151 0.890000
0.012713 0.029681 0.889000
0.021977 0.010173 0.879000
0.034434 0.002588 0.883000
-0.017760 0.016268 0.876000
0.038998 -0.028720 0.896000
0.013263 0.013399 0.877000
0.022302 0.026477 0.892000
0.017391 0.024084 0.885000
0.011445 0.015186 0.876000
0.017715 0.021849 0.883000
-0.015866 0.023345 0.871000
-0.030588 0.011660 0.882000
0.026577 -0.024403 0.900000
-0.023645 -0.016514 0.894000
-0.032293 0.012344 0.879000
-0.027352 0.037477 0.883000
0.005461 -0.025515 0.900000
0.036091 -0.006169 0.888000
-0.023142 0.038938 0.875000
-0.025795 -0.012071 0.892000
-0.022294 0.026541 0.870000
0.017568 -0.014306 0.894000
-0.020288 -0.008033 0.892000
0.024760 0.021973 0.888000
-0.018821 0.017690 0.875000
0.031304 -0.004337 0.887000
0.012670 0.002961 0.886000
0.016391 -0.007649 0.890000
-0.026470 -0.006183 0.890000
0.010577 -0.011362 0.894000
0.009536 -0.027367 0.900000
-0.041920 0.015156 0.854000
0.021253 0.015600 0.879000
0.004950 0.021651 0.875000
-0.038945 0.019828 0.874000
-0.012959 -0.016863 0.893000
0.011819 0.020618 0.877000
0.005799 -0.030162 0.895000
0.016096 -0.013570 0.894000
-0.039212 0.010547 0.880000
0.032180 0.005483 0.881000
0.032986 -0.014290 0.893000
0.022339 0.010173 0.879000
-0.037081 0.008746 0.881000
0.012347 -0.037277 0.889000
-0.028603 -0.001784 0.888000
0.012514 -0.027397 0.901000
-0.016635 -0.009880 0.893000
0.045908 -0.021130 0.887000
0.041901 -0.024636 0.895000
0.013566 -0.032075 0.897000
0.036292 0.000044 0.884000
-0.001572 -0.023215 0.897000
0.003509 0.016249 0.875000
0.018827 0.021874 0.884000
0.040523 -0.030325 0.889000
0.035192 -0.013923 0.893000
0.026378 0.014910 0.881000
0.014494 0.026299 0.886000
0.010106 0.005507 0.885000
-0.005514 0.013053 0.878000
-0.001911 0.009856 0.883000
0.001357 0.029777 0.881000
0.037934 -0.019523 0.897000
-0.024555 0.019828 0.874000
0.026518 -0.021392 0.898000
0.033721 -0.013923 0.893000
-0.009180 0.009493 0.883000
-0.014842 0.019828 0.874000
-0.007752 0.039063 0.886000
-0.010165 0.030979 0.874000
-0.025057 0.016324 0.879000
0.038388 0.006941 0.882000
0.018818 -0.030735 0.901000
0.015085 0.011969 0.878000
0.001380 -0.015813 0.896000
0.013655 0.021388 0.879000
-0.019496 0.035615 0.873000
-0.028707 0.027941 0.869000
0.025606 0.024642 0.892000
-0.030853 0.027941 0.869000
-0.019208 -0.013923 0.893000
-0.035308 0.007667 0.882000
0.009074 -0.003256 0.891000
0.023294 -0.029284 0.902000
0.011135 0.008012 0.880000
0.015658 -0.038052 0.890000
0.025865 -0.026285 0.901000
0.031975 -0.033516 0.906000
-0.020192 0.022295 0.872000
0.036538 -0.022896 0.899000
0.037481 0.020304 0.895000
0.008378 0.001886 0.895000
0.014272 -0.016164 0.895000
-0.026866 -0.007290 0.891000
0.037891 -0.019132 0.896000
0.038971 -0.005067 0.887000
0.002862 -0.024349 0.898000
-0.037420 0.024448 0.872000
0.024697 -0.022896 0.899000
-0.039435 0.003322 0.885000
0.009775 0.030379 0.888000
0.029313 0.003311 0.882000
0.016989 0.003314 0.883000
0.010847 0.004055 0.886000
0.035484 0.009482 0.882000
0.025069 0.020465 0.886000
-0.024057 0.027941 0.869000
-0.018162 0.012691 0.878000
-0.044692 0.011723 0.860000
-0.036744 0.022320 0.873000
-0.038006 0.027225 0.869000
-0.024135 0.002229 0.885000
0.014368 -0.028881 0.901000
-0.011219 0.021577 0.872000
0.035081 0.008746 0.881000
0.026711 0.011634 0.880000
0.035231 -0.014674 0.894000
0.013655 0.021027 0.879000
0.015189 0.002954 0.884000
0.038519 -0.001049 0.885000
0.026016 0.005120 0.881000
-0.005489 0.028461 0.874000
0.020168 0.010173 0.879000
0.004345 -0.024006 0.899000
0.024300 -0.015109 0.898000
0.014428 0.004763 0.882000
0.011873 0.007296 0.881000
-0.021366 0.016989 0.876000
0.028703 -0.019892 0.897000
-0.006560 0.019805 0.873000
-0.033026 -0.012397 0.889000
-0.004510 -0.006211 0.894000
0.017796 -0.002512 0.887000
-0.008568 -0.011375 0.895000
0.046901 0.012527 0.892000
0.032943 0.004763 0.882000
0.040563 -0.023610 0.898000
0.034726 -0.030330 0.900000
-0.006635 0.009856 0.883000
-0.034111 0.030838 0.870000
0.013263 0.017369 0.877000
-0.027445 0.002232 0.886000
-0.016267 -0.008409 0.893000
0.016391 -0.007282 0.890000
-0.026530 0.032196 0.868000
0.017219 -0.034951 0.895000
-0.027264 -0.010603 0.892000
-0.018819 -0.008400 0.892000
-0.004455 0.009856 0.883000
-0.013043 0.018389 0.874000
-0.020310 -0.011717 0.893000
-0.008568 -0.015427 0.895000
-0.001937 -0.022794 0.895000
-0.025621 0.000044 0.886000
-0.010847 0.025854 0.871000
0.000990 0.013399 0.877000
0.003918 0.032134 0.886000
-0.042492 -0.001053 0.888000
-0.019407 0.028656 0.869000
0.014526 0.027455 0.888000
0.000644 -0.017677 0.897000
-0.026866 -0.013158 0.891000
0.015728 -0.014306 0.894000
0.039970 -0.028992 0.893000
-0.014074 0.030156 0.871000
0.038370 -0.008381 0.890000
0.024083 0.023854 0.890000
0.043278 -0.013555 0.893000
-0.035067 0.017710 0.876000
0.008294 -0.038246 0.886000
0.027134 0.004763 0.882000
0.039410 -0.027645 0.897000
0.019125 -0.034698 0.898000
0.025491 0.021607 0.888000
-0.020632 -0.006557 0.891000
-0.003686 0.024836 0.873000
0.029445 -0.002144 0.886000
0.007885 0.026151 0.881000
-0.019878 0.018749 0.874000
0.035847 0.008393 0.882000
0.030884 -0.017657 0.896000
-0.040027 0.007667 0.882000
-0.018328 0.002232 0.886000
0.013780 0.001504 0.887000
0.033759 0.021753 0.894000
-0.011347 0.037797 0.882000
-0.035671 0.008393 0.882000
-0.025033 -0.015358 0.891000
-0.023744 0.003318 0.884000
0.032026 -0.019523 0.897000
-0.008568 -0.009902 0.895000
0.008805 -0.026656 0.901000
0.024725 -0.032553 0.900000
-0.031929 -0.012031 0.889000
-0.040526 -0.011717 0.893000
-0.032186 0.005878 0.886000
-0.014774 0.026541 0.870000
-0.043589 -0.005804 0.888000
0.041533 -0.016901 0.895000
-0.019186 -0.009501 0.892000
0.035969 -0.001049 0.885000
0.002789 0.024172 0.875000
-0.002641 0.034608 0.884000
-0.020562 -0.001784 0.888000
0.024203 0.005845 0.881000
0.044297 0.006229 0.884000
-0.021652 0.021602 0.873000
0.023690 -0.006176 0.889000
-0.045318 0.003299 0.879000
-0.022268 0.031160 0.869000
-0.006583 0.015907 0.876000
-0.014015 -0.000322 0.890000
0.005670 0.017690 0.875000
-0.014219 0.010185 0.880000
-0.043771 0.006541 0.877000
0.013152 -0.014306 0.894000
-0.022984 0.030087 0.869000
0.025807 -0.031037 0.899000
0.021910 -0.009857 0.891000
0.009282 0.018071 0.876000
-0.026683 0.020883 0.873000
-0.031857 0.005885 0.887000
0.002118 -0.024295 0.896000
0.029073 -0.019154 0.897000
-0.011937 0.029114 0.872000
-0.030499 -0.013876 0.890000
0.009282 0.018792 0.876000
-0.031713 0.021242 0.873000
-0.013312 -0.003994 0.892000
-0.014046 -0.018312 0.892000
0.006058 0.010535 0.879000
-0.014978 0.039975 0.882000
-0.012640 0.026930 0.871000
0.004234 0.015186 0.876000
-0.007287 0.029181 0.874000
-0.019407 0.027941 0.869000
-0.025399 -0.006924 0.891000
-0.021683 -0.004713 0.889000
0.035838 -0.024403 0.900000
-0.030031 0.002599 0.887000
0.037342 0.010583 0.883000
-0.038454 0.028813 0.863000
0.023451 0.015256 0.880000
0.040477 0.013201 0.888000
0.039103 -0.008747 0.890000
0.022907 -0.003607 0.887000
0.034318 -0.022526 0.899000
0.024422 -0.006176 0.889000
-0.022148 -0.016863 0.893000
0.017332 0.004763 0.882000
0.026741 0.005120 0.881000
0.023664 -0.004707 0.888000
-0.013192 0.040430 0.884000
0.045597 -0.024976 0.881000
0.018427 -0.023292 0.900000
-0.042037 0.012949 0.871000
0.035310 0.022171 0.896000
0.045483 -0.013923 0.893000
0.025409 -0.018436 0.898000
0.041527 -0.029527 0.887000
0.009335 0.007658 0.881000
0.000988 0.024172 0.875000
0.023613 -0.031071 0.900000
0.005748 -0.036463 0.887000
0.001347 0.018749 0.874000
0.024593 0.004037 0.882000
0.042114 0.007684 0.884000
-0.024808 0.005858 0.883000
-0.042766 0.019957 0.864000
-0.030137 0.028298 0.869000
-0.036593 0.013414 0.878000
0.045908 -0.025310 0.880000
0.034876 0.013885 0.885000
-0.024272 -0.006183 0.890000
-0.025130 0.027941 0.869000
-0.017370 -0.014658 0.893000
-0.042656 0.022218 0.869000
0.027653 0.019393 0.887000
0.020397 -0.006542 0.889000
-0.019920 -0.017211 0.892000
0.003232 -0.021762 0.898000
-0.018819 -0.009134 0.892000
0.006851 0.032206 0.888000
0.001751 -0.020261 0.897000
-0.038989 0.019490 0.875000
-0.029031 0.029338 0.868000
-0.042623 0.015156 0.854000
-0.000092 0.019828 0.874000
-0.005909 0.035296 0.883000
0.022127 0.000408 0.885000
-0.021415 0.013414 0.878000
-0.020585 -0.003981 0.889000
0.043884 0.005858 0.883000
0.023894 0.002224 0.883000
0.038068 0.009493 0.883000
-0.027809 0.000773 0.886000
-0.021578 0.033702 0.870000
0.013460 0.029715 0.890000
-0.037806 0.009834 0.881000
-0.014446 -0.013570 0.894000
0.037511 -0.003607 0.887000
-0.014432 0.024420 0.871000
-0.005989 -0.015059 0.895000
0.032472 -0.006908 0.889000
-0.031634 -0.007657 0.891000
0.004350 -0.032182 0.900000
-0.029800 -0.007657 0.891000
-0.024244 -0.004347 0.889000
-0.038269 0.019490 0.875000
0.012813 -0.017657 0.896000
0.041115 0.010984 0.886000
0.019953 -0.030026 0.902000
0.033344 0.013127 0.883000
0.030436 0.002224 0.883000
-0.001180 0.011271 0.880000
-0.008548 -0.005837 0.893000
-0.034548 0.024089 0.872000
0.007650 -0.030195 0.896000
0.012035 -0.034137 0.893000
0.047528 -0.016440 0.890000
-0.030268 -0.014674 0.894000
0.042270 0.017357 0.895000
-0.004152 -0.016182 0.896000
0.043375 -0.019848 0.895000
0.043206 -0.000320 0.884000
0.013811 -0.002151 0.889000
0.040473 -0.019501 0.896000
-0.041396 -0.000687 0.888000
-0.014046 -0.017945 0.892000
-0.005975 -0.020538 0.893000
-0.038313 0.016628 0.876000
-0.013715 0.029439 0.871000
-0.008716 0.029147 0.873000
0.032504 -0.024774 0.900000
-0.017331 -0.003623 0.891000
-0.037919 0.028590 0.867000
0.046115 -0.018659 0.891000
-0.016622 0.033459 0.873000
-0.022883 -0.011350 0.893000
0.019829 0.008012 0.880000
0.036703 -0.016146 0.894000
0.022477 -0.021046 0.899000
0.029844 -0.020653 0.898000
-0.017639 0.027973 0.870000
0.030695 0.009823 0.880000
0.034902 -0.017269 0.895000
0.034356 0.006933 0.881000
-0.020934 0.020883 0.873000
0.016719 -0.004342 0.888000
-0.044848 0.012119 0.863000
-0.005620 -0.009165 0.895000
0.027747 0.021656 0.890000
-0.021488 0.008021 0.881000
0.002798 0.026423 0.878000
-0.031282 0.024420 0.871000
-0.016961 0.032703 0.872000
0.019343 0.027181 0.891000
-0.025506 0.009119 0.882000
-0.019531 -0.005824 0.891000
0.029608 0.007649 0.880000
0.017085 -0.004342 0.888000
0.007624 -0.006939 0.893000
0.012305 0.027758 0.886000
0.038751 0.007304 0.882000
0.030402 0.003311 0.882000
-0.022860 0.015221 0.878000
0.007488 0.013760 0.877000
0.005017 0.032535 0.887000
0.044974 -0.025396 0.883000
0.019806 0.017409 0.879000
-0.001570 -0.011388 0.896000
0.005063 -0.030162 0.895000
0.014145 0.027424 0.887000
0.019538 -0.024033 0.900000
-0.021439 0.041648 0.879000
0.019964 -0.002509 0.886000
0.029676 0.004763 0.882000
0.003962 -0.015813 0.896000
-0.026173 0.030409 0.868000
0.019444 0.017047 0.879000
0.018651 -0.012452 0.893000
-0.040492 0.025912 0.861000
0.010553 -0.005463 0.892000
0.024649 0.001499 0.884000
0.046796 0.011033 0.890000
0.009786 0.031511 0.889000
-0.019787 0.025466 0.870000
0.036580 -0.010224 0.891000
0.009687 0.024310 0.880000
0.019517 -0.022896 0.899000
0.031218 -0.017269 0.895000
-0.006718 -0.007315 0.894000
-0.043176 0.015580 0.858000
0.028878 -0.005824 0.891000
0.015500 0.005845 0.881000
-0.005996 -0.010650 0.896000
-0.025592 0.002958 0.885000
-0.021197 0.003318 0.884000
-0.026683 0.021602 0.873000
-0.037656 0.001867 0.886000
0.013475 -0.036261 0.891000
0.008378 -0.010638 0.895000
0.009483 -0.009902 0.895000
-0.027401 0.021242 0.873000
0.009044 0.001506 0.888000
-0.040299 0.010185 0.880000
0.028191 0.014185 0.881000
-0.032220 0.016286 0.877000
-0.020998 -0.016825 0.891000
0.011954 0.028154 0.887000
-0.012087 0.037840 0.883000
-0.029566 0.009503 0.884000
-0.036361 -0.009846 0.890000
0.038751 0.007667 0.882000
0.010737 0.012677 0.877000
-0.016983 -0.005096 0.892000
-0.012238 -0.015778 0.894000
-0.011750 0.007329 0.885000
-0.038063 0.000044 0.887000
-0.018017 0.031948 0.871000
-0.025061 -0.009134 0.892000
0.044964 -0.021202 0.890000
-0.018861 -0.012466 0.894000
0.027627 -0.020284 0.898000
-0.002638 0.009129 0.883000
0.033419 -0.000685 0.885000
0.038388 -0.023266 0.899000
0.009377 0.005872 0.885000
0.024477 0.024614 0.891000
0.023639 -0.025172 0.901000
0.044247 0.001861 0.883000
-0.007831 -0.017269 0.895000
0.006943 -0.022551 0.900000
0.010896 0.031546 0.890000
0.017588 -0.034951 0.895000
0.044047 -0.029261 0.879000
-0.040044 0.025851 0.859000
-0.020215 0.021602 0.873000
0.025409 -0.019914 0.898000
-0.030692 0.008786 0.885000
-0.039115 0.001502 0.886000
0.043767 -0.024444 0.888000
-0.039764 0.019351 0.853000
0.043520 0.001861 0.883000
0.038413 -0.011324 0.891000
0.044430 -0.017618 0.894000
0.010387 0.011969 0.878000
0.019783 0.013414 0.878000
-0.023691 0.006941 0.882000
-0.006553 0.025525 0.872000
-0.000820 0.032752 0.883000
-0.005868 0.014121 0.877000
-0.020957 0.019108 0.874000
-0.019079 0.000774 0.887000
0.006812 0.007312 0.883000
-0.000095 -0.024295 0.896000
0.042638 -0.016901 0.895000
-0.001915 0.006964 0.885000
0.044898 0.017008 0.896000
-0.023069 0.001138 0.886000
-0.019079 0.000409 0.887000
0.001362 0.032425 0.884000
0.020324 -0.028541 0.902000
-0.028238 -0.002880 0.888000
0.005709 0.008746 0.881000
0.033306 0.010934 0.882000
-0.008746 0.016268 0.876000
-0.041808 -0.003981 0.889000
0.008010 -0.010638 0.895000
0.014161 -0.040525 0.888000
0.006758 0.015547 0.876000
0.015189 0.002591 0.884000
-0.022912 0.042782 0.880000
-0.013192 0.008048 0.884000
-0.002308 -0.012863 0.896000
0.042128 -0.013173 0.892000
0.000643 -0.020976 0.896000
-0.039247 -0.003615 0.889000
-0.029433 -0.006557 0.891000
0.027565 -0.016919 0.896000
-0.040137 0.026975 0.861000
0.008668 -0.039384 0.887000
0.009819 -0.004362 0.892000
-0.015793 0.002964 0.887000
0.010518 -0.001054 0.889000
-0.011564 0.025137 0.871000
-0.006726 -0.015796 0.895000
-0.035630 0.009471 0.881000
0.005696 0.025730 0.879000
-0.034490 -0.003249 0.889000
-0.004455 0.034933 0.883000
0.037662 0.006215 0.882000
-0.025004 -0.005084 0.890000
0.025405 0.000044 0.885000
0.008037 -0.019544 0.898000
0.037188 0.013932 0.888000
-0.036576 0.027583 0.869000
-0.010409 -0.013217 0.895000
-0.015515 -0.002893 0.892000
-0.018105 -0.009512 0.893000
-0.031498 0.015564 0.877000
-0.033856 0.008756 0.882000
-0.024583 -0.002880 0.888000
-0.000093 0.027115 0.877000
0.017293 0.008012 0.880000
0.040843 -0.030291 0.888000
-0.021173 0.005858 0.883000
0.040613 0.008402 0.883000
0.012292 0.004415 0.885000
0.000628 0.026363 0.876000
-0.000095 -0.018415 0.897000
0.032395 -0.019892 0.897000
-0.019268 0.011620 0.879000
0.041165 0.017726 0.895000
-0.020739 0.010547 0.880000
0.017756 0.000044 0.885000
-0.011283 0.013760 0.877000
-0.000092 0.018029 0.874000
-0.025332 0.017349 0.876000
0.003913 0.006600 0.885000
0.016757 -0.007282 0.890000
0.009907 -0.022922 0.900000
0.030214 -0.021023 0.898000
-0.032989 -0.002515 0.888000
0.013997 -0.024801 0.901000
-0.037806 0.008746 0.881000
0.043006 0.016621 0.895000
0.002798 0.026785 0.878000
-0.019093 0.023703 0.871000
-0.030916 0.011647 0.881000
-0.008376 0.030655 0.875000
-0.011489 -0.005837 0.893000
-0.021415 0.040517 0.878000
-0.009076 0.028788 0.873000
0.004950 0.020571 0.875000
0.014739 -0.026285 0.901000
-0.008548 -0.019068 0.893000
-0.013633 0.000776 0.889000
-0.000832 -0.015444 0.896000
-0.009107 0.015547 0.876000
-0.015063 0.004060 0.887000
-0.016635 -0.015393 0.893000
0.012458 -0.018046 0.897000
-0.023583 0.015582 0.878000
-0.042673 0.014118 0.855000
0.013985 0.016647 0.877000
-0.020678 -0.012820 0.893000
-0.003418 -0.022476 0.897000
0.017549 -0.036710 0.893000
-0.022550 0.009823 0.880000
-0.039428 0.027684 0.861000
-0.017389 -0.012466 0.894000
0.030046 -0.010247 0.893000
0.038780 0.016180 0.891000
0.007947 0.031476 0.888000
-0.033317 0.000774 0.887000
0.040608 -0.033257 0.899000
0.022466 0.001863 0.884000
-0.029727 0.015221 0.878000
-0.019541 0.017690 0.875000
-0.027761 0.021242 0.873000
0.043865 0.012132 0.890000
-0.021707 -0.005817 0.890000
-0.024057 0.034379 0.869000
0.024010 -0.030364 0.901000
0.039791 0.013948 0.889000
-0.045110 0.000044 0.882000
0.005741 0.031405 0.886000
-0.043478 0.011330 0.857000
0.034395 0.003311 0.882000
-0.016774 0.008021 0.881000
-0.027414 0.004050 0.885000
0.014145 0.027059 0.887000
-0.024808 0.005132 0.883000
0.004647 0.004420 0.886000
0.044712 -0.024361 0.885000
0.043401 -0.025175 0.888000
-0.008756 0.013760 0.877000
0.006529 -0.007683 0.894000
0.037342 0.009856 0.883000
-0.045524 -0.002137 0.883000
-0.024057 0.033306 0.869000
0.009033 0.003329 0.887000
0.018359 0.018132 0.879000
-0.004404 0.025554 0.873000
-0.008347 0.021936 0.872000
0.008010 -0.009165 0.895000
0.029015 0.016053 0.884000
0.043352 -0.026241 0.887000
0.041211 0.018852 0.896000
0.014543 -0.038375 0.889000
0.012947 0.008736 0.880000
0.003228 -0.018784 0.897000
-0.040253 0.011259 0.879000
-0.044899 -0.005784 0.885000
0.020646 0.001135 0.884000
0.046116 0.002227 0.884000
0.034061 -0.032996 0.902000
0.014368 -0.028139 0.901000
-0.026162 -0.009134 0.892000
0.009166 -0.027367 0.900000
0.010140 -0.037967 0.888000
-0.007462 -0.015059 0.895000
-0.027824 0.018050 0.875000
0.025013 0.001135 0.884000
0.019210 -0.027799 0.902000
0.039886 0.009129 0.883000
-0.011146 -0.009533 0.895000
0.010289 -0.025914 0.901000
-0.020527 0.034458 0.871000
-0.005842 0.026273 0.873000
0.013369 0.025148 0.884000
0.035725 -0.005804 0.888000
0.005780 -0.032631 0.892000
0.006912 -0.014338 0.896000
0.045856 -0.028899 0.879000
-0.018993 0.005132 0.883000
-0.032989 0.002602 0.888000
0.003152 0.014465 0.876000
0.001351 0.013038 0.877000
0.034456 0.020626 0.893000
0.035888 0.010946 0.883000
-0.030201 -0.009134 0.892000
0.028461 -0.028139 0.901000
-0.021149 0.006578 0.882000
0.002434 0.013760 0.877000
0.021414 -0.025172 0.901000
-0.003326 0.020524 0.873000
0.034395 0.010934 0.882000
0.027503 -0.008787 0.894000
0.013278 0.010884 0.878000
0.036128 -0.030263 0.898000
-0.026988 0.010946 0.883000
0.021763 0.021170 0.885000
0.011576 0.028123 0.886000
0.046950 -0.019648 0.886000
-0.015148 -0.003994 0.892000
-0.030741 0.017349 0.876000
-0.044220 -0.005426 0.886000
-0.014078 -0.014306 0.894000
-0.012087 0.009129 0.883000
0.019488 0.005483 0.881000
0.031009 0.019436 0.889000
-0.026529 -0.012438 0.892000
-0.006920 0.020165 0.873000
0.017666 -0.022526 0.899000
0.007232 -0.034389 0.890000
-0.010142 0.029114 0.872000
-0.023407 0.002958 0.885000
-0.030811 0.014498 0.878000
0.044964 0.011766 0.890000
0.017027 0.000408 0.885000
0.017470 0.026754 0.889000
-0.003004 0.034972 0.884000
0.037029 0.017686 0.893000
0.044281 0.013246 0.891000
-0.015463 0.000776 0.889000
0.016042 -0.009124 0.891000
-0.031859 0.015564 0.877000
-0.004091 0.009856 0.883000
-0.010778 -0.015059 0.895000
0.032911 -0.026285 0.901000
-0.019992 0.011620 0.879000
-0.026474 0.016666 0.878000
0.031926 0.014233 0.884000
0.023430 -0.010982 0.893000
0.042478 -0.029791 0.884000
0.033391 0.021753 0.894000
0.015120 0.008374 0.880000
0.010553 -0.034833 0.892000
0.035192 -0.013555 0.893000
-0.034568 -0.005824 0.891000
-0.011219 0.022295 0.872000
0.027987 0.018641 0.886000
-0.015882 -0.018312 0.892000
0.027073 0.012720 0.880000
0.016299 0.001136 0.885000
0.016550 0.019580 0.879000
-0.015182 -0.012466 0.894000
-0.023017 0.004410 0.884000
0.034765 -0.025914 0.901000
-0.020174 -0.000686 0.887000
-0.014698 0.004060 0.887000
0.027591 0.017528 0.885000
-0.001551 0.034283 0.885000
-0.020810 0.004768 0.883000
-0.028674 0.029338 0.868000
0.022847 -0.019936 0.899000
-0.025575 0.023372 0.872000
-0.043196 0.004752 0.880000
0.011006 -0.029187 0.899000
-0.044442 0.013524 0.862000
-0.016337 0.036861 0.877000
-0.033753 0.026541 0.870000
-0.032395 0.023730 0.872000
-0.005835 0.023730 0.872000
0.024537 0.014531 0.880000
0.032133 -0.032923 0.900000
-0.033792 0.024779 0.871000
-0.017331 -0.017192 0.891000
-0.007321 0.032205 0.878000
-0.017039 0.016628 0.876000
0.032875 -0.008747 0.890000
0.012770 -0.012085 0.893000
0.045116 -0.017598 0.893000
0.028159 0.009460 0.880000
0.002785 0.018749 0.874000
0.006202 -0.022922 0.900000
0.027073 0.011634 0.880000
0.022156 -0.025914 0.901000
-0.027590 0.015962 0.879000
0.038562 0.012442 0.886000
-0.039764 0.019703 0.853000
0.037229 -0.007640 0.889000
-0.017659 0.032307 0.871000
0.002071 0.015547 0.876000
-0.023699 0.033306 0.869000
-0.015254 0.014121 0.877000
-0.015866 0.024779 0.871000
0.004989 0.008393 0.882000
-0.010007 -0.019414 0.892000
0.035097 -0.025515 0.900000
-0.017350 -0.008033 0.892000
-0.044950 0.006972 0.886000
0.007314 -0.024774 0.900000
-0.037417 -0.011665 0.889000
0.001351 0.013399 0.877000
-0.003732 0.007684 0.884000
-0.023999 0.011634 0.880000
-0.032283 0.027583 0.869000
0.007590 0.032243 0.889000
-0.023986 -0.012085 0.893000
0.024010 -0.030735 0.901000
-0.020862 0.025824 0.870000
-0.003783 -0.018026 0.896000
-0.025546 0.037326 0.871000
0.008590 0.009450 0.879000
0.015693 -0.011337 0.892000
0.012885 -0.025543 0.901000
0.039841 0.004037 0.882000
0.014755 -0.026685 0.902000
0.014624 -0.014674 0.894000
0.017856 -0.007649 0.890000
-0.017331 -0.002890 0.891000
-0.042810 -0.007988 0.887000
-0.003368 0.008412 0.884000
0.004647 0.005514 0.886000
0.030046 -0.009144 0.893000
0.043036 -0.026271 0.888000
-0.029985 0.018410 0.875000
0.001380 -0.014707 0.896000
-0.006598 0.012691 0.878000
-0.011950 0.030585 0.873000
-0.000824 0.036186 0.887000
0.009526 -0.028817 0.899000
-0.032149 0.007329 0.885000
0.029376 -0.015796 0.895000
0.012599 0.007296 0.881000
0.029376 -0.015059 0.895000
-0.042375 0.006909 0.878000
-0.043172 0.018912 0.865000
-0.013664 -0.002523 0.891000
0.002083 0.029777 0.881000
0.011576 0.004055 0.886000
-0.021220 0.026899 0.870000
0.036210 0.006215 0.882000
0.028767 -0.032517 0.899000
-0.040070 0.018770 0.875000
0.038500 -0.013555 0.893000
0.036936 0.009482 0.882000
-0.015148 -0.002893 0.892000
-0.000095 -0.015076 0.896000
-0.040892 0.002593 0.885000
0.015763 -0.017288 0.896000
0.041386 0.008776 0.884000
0.011030 -0.024431 0.901000
0.024760 0.021607 0.888000
-0.036108 0.019490 0.875000
-0.005482 0.020524 0.873000
0.033684 -0.012071 0.892000
-0.015184 0.033100 0.873000
-0.019229 -0.012834 0.894000
0.017066 -0.001782 0.887000
0.010589 -0.014690 0.895000
0.045432 -0.012806 0.892000
-0.003736 0.035740 0.885000
0.009918 -0.024431 0.901000
0.010220 -0.032372 0.895000
-0.020562 -0.001418 0.888000
-0.003686 0.020883 0.873000
-0.019093 0.033741 0.871000
0.039336 -0.005067 0.887000
-0.022938 0.008021 0.881000
0.003975 -0.023266 0.899000
-0.007813 -0.020538 0.893000
0.025799 0.019371 0.886000
-0.008539 -0.019414 0.892000
0.036375 -0.016532 0.895000
0.011275 -0.004357 0.891000
0.010529 -0.002520 0.890000
0.013108 -0.007657 0.891000
0.023639 -0.029993 0.901000
0.041386 0.000407 0.884000
0.009698 0.025063 0.881000
0.006175 -0.012494 0.896000
-0.013731 0.030908 0.872000
0.015326 -0.036302 0.892000
0.009483 -0.012112 0.895000
0.026104 0.001135 0.884000
-0.031740 -0.014306 0.894000
0.026738 -0.008409 0.893000
-0.021936 0.025824 0.870000
-0.014565 0.011259 0.879000
0.006544 -0.013232 0.896000
-0.004515 -0.009902 0.895000
0.004995 0.029481 0.883000
0.007650 -0.015076 0.896000
0.035484 0.004037 0.882000
0.011589 0.002234 0.887000
0.007929 0.004784 0.886000
0.030850 0.023988 0.895000
-0.013810 0.014482 0.877000
0.002118 -0.016182 0.896000
0.008425 -0.026996 0.900000
-0.011412 0.004060 0.887000
0.008416 -0.028076 0.899000
0.016168 -0.020653 0.898000
0.005012 0.031405 0.886000
-0.020598 0.036735 0.874000
-0.017420 0.037222 0.877000
0.016575 -0.024403 0.900000
-0.023147 -0.004347 0.889000
0.023294 -0.027056 0.902000
0.027684 0.020146 0.888000
-0.020284 0.016628 0.876000
-0.040865 0.016211 0.854000
0.035639 -0.016901 0.895000
0.031392 -0.031071 0.900000
-0.010398 -0.017618 0.894000
0.019732 -0.011337 0.892000
0.011602 0.029648 0.888000
-0.012352 0.016628 0.876000
-0.017882 0.041790 0.882000
-0.023476 0.019828 0.874000
-0.033682 0.000774 0.887000
-0.034548 0.023013 0.872000
0.024697 -0.031407 0.899000
0.003541 0.008402 0.883000
0.031692 -0.022132 0.898000
-0.031893 0.003333 0.888000
-0.028732 -0.010236 0.892000
0.017431 0.025599 0.887000
-0.011870 -0.006579 0.894000
0.015880 0.005126 0.882000
0.010266 -0.022526 0.899000
0.011300 -0.007674 0.893000
-0.018105 -0.010615 0.893000
0.033428 0.022146 0.895000
0.011654 -0.034833 0.892000
-0.005482 0.025913 0.873000
0.001382 -0.013616 0.897000
-0.036644 -0.011286 0.888000
-0.015526 0.022295 0.872000
0.016908 -0.032850 0.898000
0.003224 -0.015076 0.896000
0.003966 -0.017308 0.897000
0.010209 -0.012834 0.894000
-0.032624 -0.001784 0.888000
-0.032404 -0.008767 0.892000
0.019210 -0.029284 0.902000
0.005370 0.005507 0.885000
-0.031929 -0.002883 0.889000
-0.012535 0.001507 0.889000
0.031358 -0.031407 0.899000
-0.015958 0.035737 0.876000
0.019210 -0.028541 0.902000
0.007938 -0.039384 0.887000
-0.031318 0.023730 0.872000
0.013596 -0.021786 0.899000
-0.009651 -0.006204 0.893000
0.030781 -0.011717 0.893000
-0.000095 -0.021321 0.895000
-0.029733 -0.003615 0.889000
-0.017281 0.027257 0.870000
0.022052 0.004037 0.882000
0.008046 -0.021416 0.899000
-0.039568 -0.001053 0.888000
-0.035266 0.023013 0.872000
0.016892 0.018473 0.878000
0.013263 0.013038 0.877000
0.040659 0.009503 0.884000
-0.000095 -0.007691 0.895000
-0.030031 -0.000321 0.887000
-0.022912 0.010909 0.880000
0.029105 -0.020653 0.898000
0.008737 0.001516 0.894000
0.025095 -0.032553 0.900000
0.021640 0.008012 0.880000
0.010129 0.029250 0.887000
-0.016755 0.009823 0.880000
-0.024864 0.001865 0.885000
-0.009805 0.018749 0.874000
-0.002608 0.023758 0.873000
0.038068 0.001861 0.883000
-0.013403 0.018389 0.874000
-0.023248 0.013791 0.879000
0.029978 -0.006190 0.891000
-0.006975 0.011996 0.880000
0.014526 -0.001053 0.888000
0.029709 0.002951 0.883000
0.020260 0.002224 0.883000
-0.034934 -0.006190 0.891000
0.004610 0.026092 0.879000
0.025463 0.020488 0.887000
-0.024443 0.035851 0.870000
0.044097 -0.031467 0.880000
0.032728 0.015360 0.886000
-0.009159 0.011284 0.881000
-0.012366 0.014482 0.877000
-0.010682 0.035821 0.887000
0.042317 -0.019132 0.896000
-0.023610 0.014153 0.879000
-0.038706 0.002593 0.885000
0.006189 -0.019544 0.898000
-0.006635 0.009493 0.883000
0.036580 -0.010591 0.891000
0.022008 -0.013585 0.895000
0.040842 0.018852 0.896000
0.007281 -0.012125 0.896000
0.046167 -0.015375 0.892000
-0.041197 0.009778 0.876000
-0.022213 0.009109 0.881000
-0.038225 0.021267 0.874000
0.035320 -0.003607 0.887000
0.038629 -0.019132 0.896000
-0.017902 0.042565 0.883000
-0.018493 -0.017986 0.894000
-0.035063 0.004779 0.885000
0.016483 -0.016532 0.895000
-0.016616 -0.005463 0.892000
0.005449 -0.020653 0.898000
-0.002290 0.006630 0.889000
0.025828 0.020123 0.887000
-0.017479 0.039522 0.880000
0.019300 -0.007274 0.889000
0.002075 0.012330 0.878000
-0.029004 0.015944 0.878000
0.042526 -0.000685 0.885000
-0.026530 0.031481 0.868000
0.011954 -0.039019 0.887000
-0.041009 0.022264 0.857000
-0.000095 -0.017288 0.896000
0.005806 -0.015813 0.896000
0.016225 0.006570 0.881000
0.006912 -0.015813 0.896000
-0.034707 0.017349 0.876000
0.011806 0.014465 0.876000
0.017686 -0.023663 0.900000
0.006449 0.028754 0.883000
0.044964 -0.020836 0.890000
0.032692 -0.016164 0.895000
0.010083 0.026574 0.883000
0.002434 0.025671 0.877000
-0.015739 0.005501 0.884000
0.019783 0.011969 0.878000
0.010174 -0.002890 0.891000
-0.016225 0.024062 0.871000
0.014161 -0.039063 0.888000
-0.010154 0.030225 0.873000
0.019422 0.015582 0.878000
0.015395 -0.017657 0.896000
-0.024744 0.031481 0.868000
0.030079 -0.013938 0.894000
-0.004884 -0.008428 0.895000
0.017239 -0.017288 0.896000
0.027924 0.000771 0.884000
0.003145 0.018389 0.874000
-0.018778 0.021242 0.873000
0.002066 0.019108 0.874000
0.030175 -0.002509 0.886000
0.019082 0.009811 0.879000
-0.031634 -0.010958 0.891000
0.045856 -0.021471 0.886000
0.019783 0.011246 0.878000
-0.003330 0.019108 0.874000
0.039612 0.010607 0.885000
0.045851 0.014011 0.893000
0.012961 0.007296 0.881000
-0.025114 0.014548 0.881000
-0.021195 0.031875 0.869000
0.005334 0.010897 0.879000
-0.012741 0.013053 0.878000
0.031163 0.002588 0.883000
-0.012974 -0.015042 0.894000
-0.030530 0.025824 0.870000
0.016593 -0.024801 0.901000
-0.013252 0.001871 0.888000
-0.038320 0.027194 0.868000
-0.034141 0.011634 0.880000
-0.033986 0.017710 0.876000
0.022552 -0.029655 0.902000
0.028575 -0.007674 0.893000
0.030850 -0.017269 0.895000
-0.022264 0.004768 0.883000
0.012932 0.009088 0.879000
-0.032331 -0.005451 0.890000
-0.001566 -0.007683 0.894000
0.013490 -0.035935 0.892000
0.027319 -0.004342 0.888000
0.009786 -0.001054 0.889000
0.036050 -0.003972 0.887000
0.011887 0.006578 0.882000
0.018699 0.011607 0.878000
0.013294 0.010173 0.879000
0.045494 -0.028175 0.879000
-0.036197 0.003326 0.886000
-0.026561 0.027941 0.869000
-0.015668 0.039160 0.880000
-0.022364 -0.000686 0.887000
-0.037591 0.016628 0.876000
0.017706 -0.025172 0.901000
0.002123 -0.020653 0.898000
0.027105 0.024669 0.893000
-0.024389 0.010922 0.881000
0.043668 0.009525 0.886000
-0.026232 0.042879 0.882000
0.006175 -0.013600 0.896000
-0.006983 0.011284 0.881000
0.020145 0.013414 0.878000
-0.041432 0.008383 0.881000
-0.039844 0.001867 0.886000
-0.007086 -0.007683 0.894000
-0.010409 -0.015427 0.895000
-0.018928 0.010185 0.880000
0.023813 0.007649 0.880000
0.016795 -0.037036 0.892000
-0.019920 -0.015008 0.892000
-0.018950 0.041743 0.881000
-0.014046 -0.017211 0.892000
0.003975 -0.021786 0.899000
-0.011856 -0.017230 0.893000
-0.034865 0.011271 0.880000
0.011224 -0.039749 0.887000
0.044247 0.005132 0.883000
-0.027433 0.019828 0.874000
-0.045524 -0.003227 0.883000
0.006120 0.003333 0.888000
0.004340 -0.020653 0.898000
-0.022984 0.030802 0.869000
-0.028668 -0.005451 0.890000
-0.009096 0.017690 0.875000
-0.031456 0.006243 0.886000
0.027657 -0.030667 0.899000
0.021836 0.023800 0.888000
0.037355 -0.011704 0.892000
-0.020910 0.035574 0.872000
-0.010501 0.027678 0.872000
-0.025815 0.034339 0.868000
-0.037248 0.028980 0.868000
0.045127 -0.023295 0.886000
0.030652 -0.024403 0.900000
-0.020151 0.000408 0.886000
0.018058 0.020735 0.882000
0.001012 -0.021714 0.896000
0.011085 0.017349 0.876000
-0.002308 -0.013232 0.896000
-0.036576 0.028298 0.869000
-0.038585 0.019828 0.874000
-0.018799 0.035656 0.874000
0.044661 0.006957 0.884000
0.037320 -0.025515 0.900000
0.011300 -0.034137 0.893000
0.014841 0.025541 0.885000
-0.008453 0.010220 0.883000
-0.043831 0.011682 0.857000
0.005328 0.024978 0.878000
0.023587 -0.018086 0.899000
0.016832 -0.035647 0.894000
0.003156 0.013399 0.877000
0.001749 -0.011019 0.896000
0.031705 -0.004707 0.888000
0.015429 0.014482 0.877000
0.042638 -0.018742 0.895000
0.017615 0.010523 0.878000
0.043619 -0.026547 0.885000
0.040523 0.013948 0.889000
-0.027569 -0.014242 0.890000
0.021398 -0.000685 0.885000
-0.014780 -0.003260 0.892000
-0.010682 0.004790 0.887000
-0.010766 -0.007683 0.894000
-0.037692 0.026183 0.870000
0.025348 0.017488 0.883000
-0.040254 0.000044 0.887000
0.009505 -0.030598 0.897000
-0.014893 0.013760 0.877000
0.018120 0.022991 0.885000
-0.029700 -0.002515 0.888000
0.021229 0.013775 0.878000
0.014673 -0.032444 0.897000
0.015851 -0.029993 0.901000
-0.023699 0.032233 0.869000
0.032801 -0.022132 0.898000
0.009797 -0.001421 0.890000
-0.030727 0.006972 0.886000
-0.006935 0.016609 0.875000
0.028303 -0.016182 0.896000
0.010106 0.005143 0.885000
0.015068 0.013760 0.877000
-0.017078 0.012691 0.878000
0.032619 -0.014290 0.893000
-0.005855 0.029214 0.875000
-0.006583 0.016268 0.876000
-0.020527 0.024420 0.871000
0.031092 0.006933 0.881000
-0.012640 0.023703 0.871000
-0.028512 0.020547 0.874000
0.017354 -0.028170 0.902000
0.028982 0.002588 0.883000
0.047315 -0.018919 0.886000
-0.011412 0.003329 0.887000
0.033060 -0.016901 0.895000
-0.019920 -0.008400 0.892000
0.016262 0.002951 0.883000
-0.033530 0.008402 0.883000
0.009314 0.010173 0.879000
0.031818 0.011284 0.881000
0.012167 0.015186 0.876000
0.001353 0.012330 0.878000
-0.002652 0.037323 0.888000
0.000269 0.010196 0.881000
0.009505 -0.018415 0.897000
-0.016583 0.024062 0.871000
-0.010409 -0.015059 0.895000
-0.024084 0.035492 0.870000
-0.043428 0.013783 0.856000
0.010129 -0.040114 0.887000
-0.035994 -0.010213 0.890000
-0.032258 -0.000687 0.888000
0.040386 -0.002874 0.886000
-0.034430 0.028298 0.869000
0.036538 -0.029557 0.899000
-0.000094 0.035456 0.887000
0.036949 -0.025885 0.900000
-0.017420 0.014121 0.877000
-0.017320 0.033421 0.872000
-0.039459 0.020780 0.854000
-0.031532 0.028980 0.868000
0.042352 -0.026667 0.889000
-0.012295 0.022654 0.872000
-0.012521 0.002602 0.888000
-0.028708 0.014531 0.880000
-0.011476 -0.004362 0.892000
0.026618 -0.005445 0.889000
0.041073 0.016584 0.893000
-0.017639 0.029047 0.870000
-0.045784 0.000044 0.881000
-0.004152 -0.016919 0.896000
0.042745 -0.030450 0.882000
-0.036343 0.024089 0.872000
0.022542 0.022313 0.887000
-0.034009 0.005149 0.886000
0.030720 -0.027799 0.902000
0.009676 0.023197 0.879000
-0.026958 0.013475 0.882000
0.007479 0.022037 0.876000
-0.017720 0.019828 0.874000
-0.003326 0.023758 0.873000
-0.024836 0.004046 0.884000
-0.002308 -0.016919 0.896000
0.003228 -0.018415 0.897000
-0.036744 0.022680 0.873000
0.034379 -0.010958 0.891000
0.038413 0.015446 0.891000
0.016335 0.025599 0.887000
0.028607 -0.010994 0.894000
0.044013 -0.013555 0.893000
0.040842 -0.025401 0.896000
-0.017156 0.006578 0.882000
0.035097 -0.029960 0.900000
0.034394 -0.026285 0.901000
-0.020632 -0.016092 0.891000
0.010003 0.017710 0.876000
0.031323 -0.022132 0.898000
0.024029 -0.005438 0.888000
-0.012814 0.008766 0.883000
-0.025592 0.002593 0.885000
0.016335 -0.001051 0.887000
0.028159 0.007649 0.880000
0.013460 -0.002520 0.890000
0.039735 0.019589 0.896000
-0.003045 -0.013232 0.896000
-0.029169 0.010583 0.883000
-0.024361 0.015256 0.880000
0.018181 0.025993 0.888000
-0.024389 0.009834 0.881000
-0.026625 0.007676 0.883000
0.005437 -0.010650 0.896000
-0.013694 -0.005837 0.893000
0.042066 0.005858 0.883000
0.019422 0.013053 0.878000
0.015816 -0.021786 0.899000
0.029844 -0.021762 0.898000
0.022339 0.010897 0.879000
0.019168 -0.023292 0.900000
-0.034374 0.004784 0.886000
0.028748 0.018663 0.887000
-0.003711 0.011982 0.879000
0.001357 0.030140 0.881000
0.015043 -0.018415 0.897000
-0.018080 0.019468 0.874000
0.017008 0.002227 0.884000
-0.031563 -0.013128 0.889000
0.005085 -0.021046 0.899000
-0.008936 -0.011743 0.895000
0.024327 -0.021416 0.899000
-0.020951 -0.002883 0.889000
-0.027998 -0.009134 0.892000
0.010969 -0.016919 0.896000
-0.021627 0.022654 0.872000
0.035605 -0.001413 0.885000
-0.024054 0.007667 0.882000
0.038068 0.002588 0.883000
-0.035832 0.002961 0.886000
0.031022 -0.030701 0.900000
-0.015149 0.025137 0.871000
0.039191 0.016932 0.892000
0.030730 0.006208 0.881000
-0.022626 0.031875 0.869000
-0.011502 -0.011362 0.894000
-0.042542 0.010835 0.874000
0.003601 -0.021392 0.898000
-0.008025 0.015186 0.876000
-0.002638 0.033479 0.883000
0.012902 0.013399 0.877000
0.015429 0.015204 0.877000
0.001747 -0.009533 0.895000
-0.008746 0.015907 0.876000
-0.042231 0.009047 0.875000
0.006889 -0.005469 0.893000
-0.017195 0.004774 0.884000
-0.028056 0.025496 0.871000
0.037188 -0.006169 0.888000
0.010908 -0.035528 0.891000
-0.016121 0.004779 0.885000
-0.041123 -0.004352 0.890000
0.039336 -0.003972 0.887000
0.018827 0.001135 0.884000
-0.008568 -0.015796 0.895000
-0.007007 0.009140 0.884000
-0.027935 -0.014608 0.890000
0.012389 -0.009134 0.892000
0.011968 0.001871 0.888000
-0.016622 0.021242 0.873000
-0.016564 0.027257 0.870000
-0.023932 -0.014258 0.891000
-0.024780 0.007304 0.882000
0.025624 0.007649 0.880000
0.019125 -0.020284 0.898000
0.011098 0.019535 0.877000
0.029810 0.017183 0.886000
0.042400 -0.034023 0.890000
-0.040345 -0.011299 0.889000
0.024593 0.017105 0.882000
-0.015182 -0.008787 0.894000
-0.009794 0.029507 0.873000
-0.039159 0.000044 0.887000
0.018036 -0.022156 0.899000
-0.039070 0.003322 0.885000
0.020939 0.018899 0.881000
0.045483 -0.011350 0.893000
0.021761 -0.023292 0.900000
0.001380 -0.010282 0.896000
0.010482 0.004420 0.886000
-0.003703 0.014121 0.877000
0.044013 0.014746 0.893000
-0.012998 0.025854 0.871000
-0.003779 -0.019111 0.895000
-0.007822 -0.007683 0.894000
0.006120 -0.038332 0.888000
-0.040207 0.011607 0.878000
0.023272 -0.003242 0.887000
-0.015490 0.027615 0.870000
0.015292 -0.006183 0.890000
-0.005501 0.015907 0.876000
-0.027778 0.004779 0.885000
0.007257 -0.032300 0.893000
-0.007988 0.023730 0.872000
0.039931 0.000771 0.884000
0.010553 -0.005830 0.892000
0.043597 0.014362 0.892000
0.008425 -0.027737 0.900000
-0.034984 0.006949 0.883000
0.036949 -0.028849 0.900000
0.009698 0.008021 0.881000
0.016964 -0.029993 0.901000
0.000998 0.007320 0.884000
-0.020645 0.015907 0.876000
0.021959 0.027242 0.893000
-0.008756 0.032168 0.877000
-0.019878 0.036735 0.874000
0.020604 -0.016957 0.898000
0.018699 0.014137 0.878000
0.002487 -0.014338 0.896000
0.024230 0.005126 0.882000
-0.041103 0.014432 0.874000
-0.030031 0.001504 0.887000
-0.009424 0.026602 0.872000
0.006120 -0.035774 0.888000
0.015068 0.014482 0.877000
0.001732 0.005155 0.887000
-0.039167 0.011982 0.879000
-0.010041 -0.012112 0.895000
0.016168 -0.019914 0.898000
-0.040162 0.022538 0.854000
0.034941 -0.018763 0.896000
-0.041200 0.023431 0.861000
0.046063 0.011033 0.890000
-0.037443 0.010196 0.881000
0.021664 0.006208 0.881000
0.010883 -0.000688 0.889000
-0.038444 0.012344 0.879000
0.034863 -0.014674 0.894000
-0.042883 0.005483 0.881000
-0.030831 -0.003981 0.889000
-0.023999 0.013082 0.880000
0.024408 -0.028170 0.902000
0.020374 -0.004342 0.888000
-0.032506 0.018050 0.875000
0.028511 0.022414 0.891000
-0.008376 0.018050 0.875000
-0.019057 0.001138 0.886000
0.017273 0.018856 0.879000
-0.016942 0.031590 0.871000
0.010724 0.015547 0.876000
-0.008568 -0.016164 0.895000
-0.022364 -0.001416 0.887000
0.014657 -0.018026 0.896000
0.000627 0.019468 0.874000
0.047827 -0.022100 0.882000
0.020600 0.005126 0.882000
0.018806 0.003678 0.883000
-0.010872 0.021242 0.873000
-0.014615 0.008030 0.882000
0.039824 -0.023610 0.898000
0.040568 0.014330 0.890000
0.003224 -0.008069 0.896000
0.013904 -0.033845 0.895000
0.016186 -0.021416 0.899000
-0.000814 0.026724 0.876000
0.034746 -0.011324 0.891000
-0.020886 0.034458 0.871000
0.018161 -0.003242 0.887000
-0.021005 0.016268 0.876000
-0.037061 0.024089 0.872000
0.036988 0.018033 0.892000
0.012129 -0.022922 0.900000
0.037648 -0.028817 0.899000
0.014193 -0.004718 0.890000
0.012756 -0.008400 0.892000
0.014892 -0.040525 0.888000
0.002123 -0.020284 0.898000
-0.045576 -0.003595 0.884000
0.008064 -0.024801 0.901000
-0.005614 -0.008051 0.894000
-0.025458 0.030409 0.868000
0.046954 -0.012085 0.893000
0.031079 0.020580 0.891000
-0.034413 0.000044 0.887000
0.003167 0.010185 0.880000
-0.000457 0.033153 0.884000
0.035270 -0.016532 0.895000
-0.030762 0.005155 0.887000
-0.027602 0.030409 0.868000
-0.000457 0.008412 0.884000
0.036248 -0.027397 0.901000
0.026680 0.011259 0.879000
0.027104 0.014548 0.881000
-0.034430 0.027583 0.869000
0.019560 -0.024801 0.901000
0.007127 0.013038 0.877000
0.022778 0.004400 0.882000
-0.032395 0.024089 0.872000
0.018421 0.021098 0.882000
0.003597 -0.013246 0.897000
0.042862 -0.012438 0.892000
-0.039613 -0.011299 0.889000
-0.014615 0.037797 0.882000
0.040614 -0.028927 0.891000
0.020076 0.026815 0.891000
0.027797 0.007287 0.880000
0.032582 -0.011704 0.892000
0.016114 -0.015427 0.895000
0.016501 -0.017657 0.896000
-0.011978 0.032815 0.875000
0.025377 0.001863 0.884000
0.025437 -0.021786 0.899000
-0.008936 -0.016164 0.895000
0.047261 0.005872 0.885000
0.015640 -0.038741 0.889000
0.028767 -0.022896 0.899000
-0.023248 0.014153 0.879000
-0.007638 0.020883 0.873000
-0.033714 0.028656 0.869000
-0.013889 0.008393 0.882000
0.003549 0.006964 0.885000
-0.012281 0.028005 0.871000
0.003521 0.011246 0.878000
0.015790 0.013399 0.877000
0.011887 0.024366 0.882000
-0.014978 0.008393 0.882000
0.025653 0.006208 0.881000
0.039841 0.006578 0.882000
0.016950 0.006933 0.881000
-0.032661 -0.002883 0.889000
0.044013 -0.014658 0.893000
-0.011578 0.029473 0.872000
-0.027172 -0.003981 0.889000
-0.045992 -0.005056 0.885000
-0.001170 0.021961 0.873000
0.002859 -0.018046 0.897000
-0.018162 0.012330 0.878000
0.019104 -0.017308 0.897000
0.001751 -0.022476 0.897000
0.016612 -0.027799 0.902000
-0.013028 0.031662 0.873000
0.010209 -0.033072 0.894000
0.022466 0.000771 0.884000
0.017736 0.022602 0.884000
0.038388 -0.024006 0.899000
-0.029365 0.015582 0.878000
0.007641 -0.009533 0.895000
-0.020169 0.024420 0.871000
0.041533 -0.017269 0.895000
-0.030499 -0.005817 0.890000
0.043006 -0.019479 0.895000
-0.006272 0.009856 0.883000
0.013626 -0.025543 0.901000
0.014320 -0.020653 0.898000
0.021350 0.002951 0.883000
0.022027 0.005845 0.881000
-0.035952 0.011271 0.880000
-0.021195 0.032233 0.869000
-0.034219 0.008030 0.882000
0.004589 0.016970 0.875000
0.024148 0.013791 0.879000
0.038998 0.020327 0.896000
0.024381 -0.029251 0.901000
-0.015561 0.033857 0.874000
0.009166 -0.023663 0.900000
0.031022 -0.024774 0.900000
-0.013043 0.019468 0.874000
-0.036483 -0.012820 0.893000
-0.004045 0.022320 0.873000
0.032801 -0.021023 0.898000
0.031763 -0.030701 0.900000
-0.012436 0.038160 0.882000
-0.010657 0.039747 0.885000
0.000630 0.027869 0.878000
-0.002308 -0.012125 0.896000
-0.031634 -0.007290 0.891000
0.008786 -0.022156 0.899000
0.001010 -0.023531 0.895000
-0.030706 0.018770 0.875000
0.009282 0.016989 0.876000
-0.019268 0.039839 0.879000
-0.018266 0.005858 0.883000
0.049305 -0.016787 0.889000
-0.015148 -0.016844 0.892000
0.011954 -0.039384 0.887000
-0.030951 0.010934 0.882000
0.041703 0.004405 0.883000
0.002785 0.018389 0.874000
-0.005123 0.021242 0.873000
0.037662 0.007667 0.882000
0.023957 -0.022896 0.899000
-0.042558 0.021810 0.867000
0.033948 -0.023636 0.899000
-0.026561 0.028298 0.869000
0.004694 -0.008797 0.895000
0.012713 -0.037643 0.889000
-0.025033 -0.006924 0.891000
0.016873 0.015925 0.877000
-0.005158 0.032242 0.879000
-0.003372 0.007329 0.885000
0.043157 0.002951 0.883000
0.044331 -0.012071 0.892000
-0.024306 0.042323 0.878000
-0.008462 0.009140 0.884000
-0.000817 0.011259 0.879000
0.011401 -0.025172 0.901000
0.040659 0.009140 0.884000
0.041165 -0.018006 0.895000
0.022959 -0.006908 0.889000
0.031890 0.013854 0.883000
0.020604 -0.019914 0.898000
0.013873 -0.034872 0.893000
0.025865 -0.025172 0.901000
-0.031232 -0.013876 0.890000
0.025465 -0.030330 0.900000
0.012008 -0.035528 0.891000
0.010761 0.009450 0.879000
0.021495 0.024559 0.889000
0.014724 0.019557 0.878000
-0.009065 0.027678 0.872000
-0.014300 0.005872 0.885000
-0.020197 -0.001418 0.888000
-0.037506 0.021267 0.874000
-0.042127 -0.000687 0.888000
-0.002670 -0.006947 0.894000
-0.016641 0.019828 0.874000
-0.030959 0.023372 0.872000
-0.026262 0.006585 0.883000
-0.025285 -0.000321 0.887000
-0.005258 -0.010650 0.896000
0.040751 -0.003603 0.886000
0.036698 -0.001778 0.885000
0.009830 -0.006572 0.893000
0.014959 -0.010970 0.892000
-0.025869 0.012386 0.882000
0.002456 0.032462 0.885000
-0.017963 0.002596 0.886000
0.016151 0.016647 0.877000
0.028975 -0.010994 0.894000
-0.001937 -0.020216 0.895000
0.019865 -0.033589 0.898000
0.038413 -0.010958 0.891000
0.045132 -0.029623 0.879000
0.008649 0.005872 0.885000
0.022898 -0.029993 0.901000
-0.028382 0.026899 0.870000
0.018243 0.027915 0.891000
-0.002632 0.032315 0.881000
0.000996 0.009482 0.882000
0.011472 0.010884 0.878000
0.005683 0.013399 0.877000
0.006804 0.027270 0.882000
0.029313 0.004400 0.882000
0.006544 -0.011757 0.896000
-0.020763 0.008746 0.881000
-0.036397 0.007304 0.882000
0.042686 -0.019132 0.896000
-0.038138 0.023730 0.872000
0.037690 -0.025515 0.900000
-0.027959 0.030409 0.868000
-0.024858 0.022654 0.872000
-0.026918 0.027941 0.869000
0.036213 -0.011324 0.891000
-0.001939 -0.015813 0.896000
0.038519 0.011700 0.885000
0.003601 -0.029893 0.898000
0.003221 -0.009902 0.895000
-0.040757 -0.004718 0.890000
-0.033355 -0.002515 0.888000
-0.026444 0.017008 0.877000
0.022778 0.004037 0.882000
-0.026949 0.026183 0.870000
-0.000812 0.018389 0.874000
-0.006553 0.024089 0.872000
0.028145 0.022047 0.891000
0.002795 0.014121 0.877000
-0.022415 -0.004347 0.889000
-0.033026 -0.002883 0.889000
-0.029064 0.027225 0.869000
0.027871 -0.008787 0.894000
-0.012959 -0.004734 0.893000
0.036210 0.008756 0.882000
-0.018799 0.019468 0.874000
0.018547 0.025262 0.888000
-0.001185 0.008776 0.884000
0.000990 0.013760 0.877000
0.007974 -0.003623 0.891000
0.015447 0.010523 0.878000
0.012756 -0.008767 0.892000
0.018366 -0.019523 0.897000
-0.014139 0.017330 0.875000
-0.013013 0.030191 0.872000
0.018827 0.001499 0.884000
-0.004082 0.011284 0.881000
0.046480 0.002954 0.884000
0.042526 -0.001413 0.885000
