-0.009738 0.023979 0.868000
-0.009242 -0.008738 0.889000
0.011576 -0.017460 0.886000
-0.019251 0.039778 0.862000
0.006774 0.040155 0.878000
0.002467 -0.017153 0.889000
-0.010694 -0.017865 0.888000
-0.040027 0.006215 0.882000
-0.028145 0.034758 0.852000
0.001007 -0.022351 0.892000
-0.030769 0.032114 0.847000
0.012097 0.006854 0.871000
-0.027321 0.009845 0.882000
0.020167 -0.037529 0.895000
0.026827 -0.001393 0.872000
-0.013574 0.036230 0.862000
0.023955 -0.001034 0.872000
-0.021537 0.004041 0.883000
-0.018397 0.025884 0.872000
0.016004 0.011488 0.869000
0.031854 -0.021374 0.882000
-0.012352 0.013023 0.876000
0.023928 0.001835 0.871000
-0.005281 -0.043666 0.900000
-0.002608 0.046754 0.873000
-0.006300 -0.005067 0.887000
-0.042617 0.006949 0.883000
-0.003315 0.016873 0.870000
-0.006703 -0.026022 0.892000
-0.002661 -0.019759 0.891000
0.030845 -0.007151 0.874000
-0.004003 0.036670 0.864000
0.018243 -0.028560 0.891000
-0.019924 0.016989 0.876000
0.014624 -0.033808 0.894000
0.019422 -0.008991 0.878000
0.018955 -0.024499 0.890000
-0.014944 0.008736 0.880000
-0.025448 0.012358 0.880000
-0.001161 0.035686 0.866000
0.024677 -0.021811 0.885000
-0.040799 0.012764 0.883000
0.010971 0.019669 0.867000
-0.013778 0.014449 0.875000
-0.038894 0.016723 0.881000
0.012069 0.010415 0.869000
-0.020400 0.007658 0.881000
0.009197 0.023979 0.868000
-0.006236 0.010884 0.878000
0.007102 0.035296 0.874000
0.022494 0.007571 0.871000
-0.042951 0.018050 0.875000
0.020646 -0.016693 0.884000
-0.011437 -0.005445 0.889000
0.010328 0.028788 0.873000
-0.033987 0.028695 0.849000
0.000267 0.042034 0.872000
-0.032113 0.008048 0.884000
-0.011950 0.016571 0.873000
0.028424 0.010150 0.877000
-0.010165 0.014072 0.874000
0.031598 -0.037838 0.885000
-0.021727 0.022397 0.876000
-0.001516 0.026032 0.865000
0.003834 0.030731 0.867000
0.025176 0.014121 0.877000
-0.025546 0.026930 0.871000
0.012584 -0.002130 0.880000
-0.011072 -0.008006 0.889000
0.021952 -0.009352 0.878000
0.017077 0.011488 0.869000
0.011694 -0.035687 0.895000
0.002467 -0.017885 0.889000
0.041656 -0.001772 0.882000
0.001008 -0.023846 0.893000
-0.001538 0.009078 0.878000
0.038893 -0.004649 0.877000
-0.018692 0.001502 0.886000
-0.009044 0.020811 0.870000
0.026827 0.005427 0.872000
0.030073 0.015308 0.883000
0.034803 -0.008950 0.874000
-0.005223 -0.013876 0.890000
0.013188 0.005785 0.872000
0.015535 -0.014857 0.883000
0.018785 0.028359 0.882000
0.027373 -0.047296 0.878000
-0.030495 0.032233 0.869000
0.000272 -0.019370 0.890000
-0.005955 -0.010945 0.890000
0.021418 0.012232 0.871000
-0.000463 -0.031232 0.894000
0.029346 -0.022125 0.883000
-0.036912 0.021340 0.877000
-0.022268 0.028298 0.869000
0.007094 0.007589 0.873000
-0.025086 0.010909 0.880000
0.010106 -0.014891 0.885000
-0.037123 0.014201 0.882000
0.002057 0.014724 0.870000
0.013671 -0.005027 0.880000
-0.005564 -0.034234 0.886000
0.020820 0.018431 0.876000
0.022720 -0.040431 0.894000
-0.015903 0.018009 0.873000
0.009912 0.022550 0.868000
0.018254 -0.001396 0.874000
0.006051 0.041601 0.878000
0.025606 -0.034833 0.892000
-0.012535 -0.012762 0.889000
-0.002302 -0.028288 0.894000
-0.004124 -0.014242 0.890000
-0.002596 0.017568 0.869000
0.010920 -0.027491 0.892000
-0.011244 0.015152 0.874000
0.002833 -0.018983 0.889000
-0.009511 0.009460 0.880000
0.000272 -0.035161 0.891000
0.033457 0.013901 0.886000
-0.003770 -0.027889 0.893000
0.027860 0.016016 0.882000
0.031205 0.001122 0.874000
0.020031 -0.025569 0.889000
-0.022112 0.021701 0.877000
-0.013633 -0.013494 0.889000
0.008010 -0.031267 0.895000
0.043036 0.003333 0.888000
-0.038662 0.006593 0.884000
-0.031785 0.006964 0.885000
0.013278 -0.001041 0.878000
-0.019628 0.037693 0.863000
-0.005438 0.025706 0.866000
-0.020718 0.036315 0.864000
0.043996 -0.010075 0.878000
0.015826 -0.007554 0.879000
0.034522 -0.013657 0.876000
-0.016622 0.023039 0.873000
-0.027793 0.023785 0.874000
0.034758 0.006941 0.882000
-0.015793 0.001139 0.887000
0.027999 -0.008240 0.875000
0.011698 0.017548 0.868000
0.027011 -0.012966 0.878000
-0.038938 0.014564 0.882000
0.005310 0.037497 0.875000
0.007795 0.030514 0.871000
0.030916 0.005812 0.876000
0.034122 -0.000317 0.875000
0.043108 -0.004313 0.882000
-0.011437 -0.005079 0.889000
-0.006864 0.044240 0.866000
0.026075 0.020395 0.883000
-0.002593 0.020406 0.868000
-0.021439 0.010897 0.879000
0.035202 -0.010041 0.875000
-0.004359 0.027069 0.864000
0.003953 -0.027920 0.894000
-0.022217 0.031802 0.867000
0.008473 0.023238 0.867000
-0.007595 0.047200 0.868000
-0.039709 0.013490 0.883000
0.042599 -0.007192 0.879000
0.013873 -0.040386 0.893000
-0.001883 0.042296 0.870000
-0.021098 0.034576 0.865000
0.019365 -0.032631 0.892000
0.004694 -0.030530 0.895000
-0.029198 0.024836 0.873000
-0.034033 0.025408 0.868000
0.034186 -0.029858 0.886000
0.004234 0.008336 0.876000
-0.004505 -0.028257 0.893000
0.014199 0.016476 0.868000
0.022567 -0.027002 0.888000
-0.035024 0.010231 0.884000
-0.024864 -0.006877 0.885000
0.001351 0.009428 0.877000
0.000980 0.017906 0.868000
-0.032146 0.024172 0.875000
-0.006258 -0.040931 0.881000
0.022520 -0.000316 0.872000
0.031890 0.012764 0.883000
-0.002292 -0.012411 0.890000
-0.019809 -0.009448 0.887000
-0.007787 -0.018638 0.890000
0.003565 -0.012762 0.889000
-0.015330 0.039023 0.861000
-0.038662 0.010231 0.884000
0.011725 0.008637 0.870000
-0.008434 -0.038030 0.881000
0.010458 -0.014510 0.884000
0.016078 0.002199 0.873000
-0.025159 0.027973 0.870000
0.034148 -0.027275 0.885000
0.003927 -0.015672 0.888000
-0.001563 -0.020882 0.892000
0.008747 -0.032740 0.895000
0.036046 0.000766 0.878000
0.008322 -0.021178 0.889000
-0.007988 0.016194 0.872000
0.004292 -0.013845 0.888000
0.034512 -0.026911 0.885000
-0.031066 0.023452 0.875000
0.006478 -0.012369 0.887000
0.031092 -0.020262 0.881000
0.025927 0.014859 0.878000
-0.031749 0.000407 0.884000
-0.028740 0.017448 0.881000
0.037833 0.007702 0.886000
-0.015958 0.013383 0.876000
0.021060 0.011515 0.871000
0.002101 -0.012762 0.889000
-0.016698 0.011594 0.877000
-0.031968 0.016342 0.880000
0.000265 0.021429 0.866000
-0.031246 0.029405 0.870000
-0.007682 0.011607 0.878000
-0.025905 0.026571 0.871000
0.011300 -0.040018 0.893000
0.001370 -0.015324 0.889000
-0.017253 -0.012004 0.887000
0.012022 -0.025655 0.892000
-0.002581 0.032403 0.864000
0.037363 -0.012201 0.875000
-0.003038 -0.025345 0.894000
0.026340 -0.035200 0.892000
0.013173 0.006854 0.871000
-0.026776 -0.006900 0.888000
0.019961 0.008279 0.870000
-0.032729 0.013460 0.881000
-0.000460 -0.008738 0.889000
-0.026321 -0.006513 0.885000
0.012584 0.034452 0.880000
0.033457 0.014266 0.886000
0.026589 -0.008970 0.876000
0.016006 -0.021178 0.889000
-0.040072 0.013127 0.883000
-0.018307 0.002229 0.885000
-0.005123 0.049987 0.873000
0.020214 0.025426 0.881000
-0.023095 -0.005797 0.887000
0.014724 -0.003570 0.878000
-0.028740 0.012735 0.881000
-0.007396 -0.030987 0.887000
-0.002617 0.012302 0.876000
0.010209 -0.039695 0.894000
0.026229 0.011941 0.876000
0.015017 0.000763 0.874000
0.034955 -0.031352 0.887000
-0.012507 -0.000686 0.887000
0.035283 -0.014756 0.877000
0.003214 -0.025684 0.893000
0.022597 -0.004278 0.875000
0.006339 0.028980 0.868000
0.030555 0.005451 0.876000
-0.023825 -0.001416 0.887000
-0.012019 0.010884 0.878000
0.010257 0.020740 0.867000
0.021910 -0.031494 0.891000
-0.023261 0.034973 0.866000
-0.007787 -0.015707 0.890000
-0.034542 0.014548 0.881000
0.009775 -0.020423 0.888000
-0.001524 0.015798 0.870000
0.023246 -0.018189 0.886000
0.002481 -0.026449 0.894000
0.046325 -0.001418 0.888000
0.005328 0.004741 0.878000
0.019408 -0.040799 0.894000
0.025927 -0.012243 0.878000
-0.031785 0.001501 0.885000
-0.010417 0.028880 0.865000
0.001689 0.022828 0.865000
0.027671 -0.009331 0.876000
0.002409 0.017548 0.868000
0.034590 -0.032448 0.887000
-0.017740 0.015889 0.875000
0.023678 -0.005359 0.875000
-0.011059 -0.017499 0.888000
-0.001197 -0.031565 0.893000
-0.008886 -0.013876 0.890000
-0.000831 -0.029057 0.895000
-0.012998 0.020477 0.871000
0.002478 -0.034872 0.893000
-0.001190 -0.009093 0.888000
-0.039390 0.007320 0.884000
0.033707 0.010220 0.883000
-0.004867 -0.020515 0.892000
0.045546 -0.009374 0.880000
0.008285 -0.009063 0.885000
-0.020493 0.002229 0.885000
0.015412 0.026003 0.876000
0.002836 -0.019737 0.890000
-0.016121 0.004050 0.885000
-0.013163 0.007304 0.882000
0.006339 0.028266 0.868000
0.021877 -0.005359 0.875000
0.002467 -0.011665 0.889000
-0.010154 0.015493 0.873000
0.028654 -0.002472 0.873000
-0.008520 -0.023400 0.890000
-0.025159 0.028331 0.870000
0.019533 -0.015584 0.883000
0.022957 -0.005719 0.875000
0.017200 -0.040063 0.894000
-0.039846 0.019196 0.878000
0.013020 -0.017440 0.885000
0.005670 0.038217 0.875000
-0.004505 -0.027522 0.893000
0.021105 -0.023713 0.888000
-0.002243 0.044137 0.871000
0.005968 0.021072 0.866000
-0.014316 0.000773 0.886000
0.027935 -0.004628 0.873000
0.013152 -0.032704 0.894000
-0.007187 0.033747 0.862000
0.041480 0.002961 0.886000
0.028884 -0.016255 0.880000
-0.006888 0.021145 0.869000
0.037363 -0.010401 0.875000
0.012111 0.025525 0.872000
-0.007787 -0.009846 0.890000
0.021418 0.003986 0.871000
0.016059 0.020859 0.872000
-0.030671 0.023785 0.874000
-0.027339 0.027647 0.871000
0.010494 -0.019670 0.887000
-0.030384 0.033469 0.846000
0.031276 0.004370 0.876000
0.009731 -0.010508 0.884000
-0.017281 0.026183 0.870000
-0.027747 0.005865 0.884000
0.028018 -0.028432 0.887000
0.011698 0.020406 0.868000
0.008492 0.011846 0.869000
-0.011803 -0.013494 0.889000
0.038155 -0.029825 0.885000
0.027955 -0.025454 0.885000
-0.017360 0.016950 0.874000
0.014215 0.011846 0.869000
0.005255 0.021072 0.866000
0.007929 -0.011625 0.886000
0.015790 0.026754 0.877000
-0.018584 0.035603 0.864000
0.020506 0.022087 0.878000
-0.018004 -0.008362 0.888000
0.000637 -0.009459 0.888000
-0.029828 0.015273 0.881000
0.002101 -0.017885 0.889000
-0.030769 0.033857 0.847000
0.010969 -0.034990 0.896000
-0.000092 0.043520 0.873000
-0.021578 0.027257 0.870000
-0.033205 0.009503 0.884000
-0.015939 0.014449 0.875000
0.024816 -0.041349 0.890000
0.041372 -0.015100 0.876000
0.023062 -0.035240 0.893000
0.006681 0.024280 0.866000
0.035964 -0.013297 0.876000
-0.016262 0.022680 0.873000
-0.002228 0.024252 0.865000
-0.029591 0.024504 0.874000
0.010675 0.006862 0.872000
-0.027414 -0.005420 0.885000
-0.034699 0.006964 0.885000
-0.016176 -0.003611 0.888000
0.028684 0.018985 0.885000
0.030175 -0.028400 0.886000
0.000638 -0.017153 0.889000
0.016114 -0.036792 0.895000
0.013858 0.010415 0.869000
-0.013296 0.027876 0.867000
0.011287 -0.027491 0.892000
0.029541 0.009078 0.878000
-0.009500 0.010897 0.879000
0.035524 0.008039 0.883000
0.013858 0.019357 0.869000
-0.005795 0.024993 0.866000
0.000268 0.045420 0.875000
-0.003372 -0.037838 0.885000
0.016372 -0.021178 0.889000
0.026139 -0.003191 0.873000
0.009095 -0.038548 0.893000
0.026318 -0.014066 0.879000
0.032966 -0.042715 0.873000
-0.012169 -0.008006 0.889000
-0.039754 0.012050 0.884000
0.004547 0.029661 0.867000
-0.004003 0.028491 0.864000
0.025267 -0.038548 0.893000
-0.018821 0.019490 0.875000
0.020366 0.014758 0.872000
-0.004856 -0.012411 0.890000
-0.019057 0.000044 0.886000
0.037104 0.009525 0.886000
0.018952 0.000762 0.873000
-0.025810 0.015256 0.880000
0.013500 0.011846 0.869000
0.016493 0.024921 0.876000
-0.023583 0.019557 0.878000
-0.007196 0.032010 0.863000
0.014641 -0.034951 0.895000
-0.028806 0.007676 0.883000
0.019245 0.008279 0.870000
-0.026535 0.018515 0.880000
-0.041056 0.020165 0.873000
-0.025815 0.032553 0.868000
0.025507 0.012662 0.876000
0.000267 0.043570 0.874000
-0.014366 0.027520 0.867000
-0.037081 0.016361 0.881000
0.017313 0.030140 0.881000
-0.031210 0.029729 0.869000
0.019365 -0.031529 0.892000
-0.037528 0.004405 0.883000
0.013500 0.010773 0.869000
0.006536 -0.036056 0.895000
-0.029862 0.009845 0.882000
-0.038761 0.020280 0.878000
0.002061 0.011887 0.872000
-0.001176 0.009789 0.877000
0.008010 -0.036424 0.895000
0.025391 0.006503 0.872000
-0.003038 -0.024609 0.894000
0.028980 -0.001393 0.872000
0.024956 0.020009 0.882000
-0.037061 0.022295 0.872000
-0.014582 0.009098 0.880000
-0.040743 0.019108 0.874000
0.029844 -0.029162 0.887000
0.013142 0.010058 0.869000
-0.027653 0.016723 0.881000
-0.023069 -0.007249 0.886000
-0.010316 -0.001782 0.887000
0.016133 -0.003562 0.876000
-0.009242 -0.008006 0.889000
0.016989 -0.015220 0.883000
0.018325 -0.039739 0.895000
0.042863 -0.009342 0.877000
0.015552 -0.016693 0.884000
0.036010 -0.030952 0.886000
0.023325 -0.028862 0.889000
-0.003300 0.023567 0.866000
-0.002658 -0.014975 0.890000
-0.004747 0.017589 0.870000
0.035603 -0.013297 0.876000
0.035484 0.006215 0.882000
-0.007551 0.041245 0.863000
-0.019924 0.019513 0.876000
-0.001173 0.012288 0.875000
-0.001176 0.010872 0.877000
-0.011072 -0.011665 0.889000
0.009588 0.008647 0.871000
0.017156 0.001121 0.873000
0.024342 0.010463 0.873000
-0.014698 -0.014559 0.887000
0.001696 0.016853 0.869000
-0.017831 0.038359 0.862000
0.010129 -0.019305 0.887000
-0.015463 -0.010201 0.889000
-0.011090 0.036230 0.862000
0.029709 -0.022125 0.883000
0.047464 -0.009395 0.882000
-0.002272 -0.041703 0.882000
-0.003719 -0.042018 0.881000
-0.002581 0.029202 0.864000
0.016380 0.017589 0.870000
0.021443 0.013322 0.872000
-0.008606 0.040133 0.862000
-0.012901 -0.011299 0.889000
-0.022217 0.032159 0.867000
-0.001893 0.047581 0.875000
-0.000460 -0.008372 0.889000
0.013733 -0.016329 0.884000
0.007054 0.015047 0.868000
0.014081 -0.013767 0.883000
-0.028013 0.035991 0.848000
0.006905 -0.035687 0.895000
0.036739 -0.031317 0.886000
0.029313 -0.021011 0.882000
0.032247 -0.003191 0.873000
0.016512 0.026032 0.877000
-0.009013 0.025735 0.867000
0.026888 -0.046001 0.874000
0.011393 0.006503 0.872000
0.027165 -0.020672 0.883000
0.027766 -0.013704 0.879000
0.017956 -0.038634 0.895000
-0.007621 0.016892 0.871000
0.034482 -0.009680 0.875000
0.003221 -0.031635 0.895000
-0.017253 -0.001782 0.887000
0.014674 0.025613 0.875000
-0.025756 0.035686 0.866000
-0.008606 0.039069 0.862000
-0.012901 -0.008372 0.889000
-0.038299 0.010231 0.884000
0.030987 -0.015134 0.878000
0.040337 -0.005732 0.877000
0.012627 -0.013767 0.883000
0.023690 -0.029228 0.889000
0.004684 -0.027154 0.893000
0.048300 -0.008688 0.884000
-0.005188 -0.036340 0.884000
-0.019787 0.026541 0.870000
-0.003032 -0.020148 0.892000
-0.010525 0.014072 0.874000
0.012250 -0.009758 0.882000
0.020389 -0.000676 0.873000
0.018192 0.004703 0.871000
0.027373 0.012691 0.878000
-0.010212 0.011969 0.878000
-0.003319 0.045571 0.871000
0.005806 -0.033883 0.896000
0.026893 -0.041528 0.886000
-0.020692 0.011969 0.878000
0.002757 0.025320 0.865000
-0.011072 -0.009103 0.889000
0.021495 -0.028130 0.889000
0.048627 -0.002154 0.890000
-0.010328 -0.003976 0.888000
0.024314 -0.001393 0.872000
0.029578 -0.034023 0.890000
0.032180 -0.019900 0.881000
0.021105 -0.025906 0.888000
0.040202 0.001509 0.890000
-0.023771 0.002229 0.885000
-0.021355 0.041150 0.861000
0.024649 0.022965 0.884000
-0.022112 0.017730 0.877000
-0.020692 0.011607 0.878000
0.000623 0.016853 0.869000
0.003497 0.010810 0.872000
0.026468 0.004709 0.872000
0.026888 0.008677 0.874000
0.005754 -0.012748 0.888000
-0.001928 -0.032227 0.891000
0.021777 0.010798 0.871000
-0.005117 0.048853 0.872000
0.031375 -0.033619 0.889000
-0.008961 0.036585 0.862000
-0.014714 -0.003246 0.888000
0.026468 -0.021059 0.884000
0.001743 -0.025684 0.893000
0.004307 -0.022693 0.891000
0.011072 0.031015 0.875000
0.007143 0.001852 0.879000
-0.022268 0.028656 0.869000
0.022907 -0.020765 0.887000
-0.004017 0.023238 0.867000
0.003116 0.029983 0.866000
-0.038761 0.019919 0.878000
-0.029998 0.000773 0.886000
0.023456 -0.040063 0.894000
-0.036519 0.027712 0.851000
0.000982 0.015082 0.870000
-0.004354 0.032010 0.863000
0.012513 0.001844 0.875000
0.016587 -0.011922 0.881000
-0.018186 0.038714 0.862000
-0.031350 0.009856 0.883000
0.008871 0.028364 0.871000
-0.008961 0.040133 0.862000
-0.032113 0.000044 0.884000
-0.030623 0.008766 0.883000
0.021224 -0.034872 0.893000
-0.035428 0.004415 0.885000
0.011941 -0.018919 0.886000
0.042454 -0.011494 0.876000
-0.003383 -0.034677 0.888000
-0.016806 0.033825 0.864000
-0.024084 0.028689 0.870000
0.019896 -0.015584 0.883000
-0.031385 -0.002139 0.884000
-0.020284 0.016268 0.876000
0.006851 -0.019692 0.888000
0.011393 0.005785 0.872000
-0.020470 0.002591 0.884000
0.008473 0.017528 0.867000
0.006161 -0.028288 0.894000
-0.012535 -0.013128 0.889000
0.025740 -0.018876 0.884000
0.023705 -0.007528 0.876000
0.011698 0.015047 0.868000
0.001712 0.045885 0.877000
-0.030259 0.008039 0.883000
0.007402 0.017528 0.867000
-0.001885 0.015458 0.871000
0.037620 -0.035492 0.881000
-0.011412 0.000409 0.887000
0.024285 0.023329 0.884000
-0.002228 0.036713 0.865000
-0.008153 -0.018271 0.890000
-0.036115 0.009867 0.884000
-0.030779 0.036020 0.857000
0.023167 0.024393 0.883000
0.046480 -0.005778 0.884000
0.026711 -0.015893 0.880000
-0.004040 0.015117 0.872000
0.031057 -0.018428 0.880000
-0.004764 0.049628 0.873000
0.018635 -0.002478 0.875000
0.016835 -0.002478 0.875000
0.023424 -0.012981 0.879000
0.032253 0.012400 0.883000
0.030987 0.007271 0.878000
0.027248 0.007957 0.874000
-0.009608 -0.010201 0.889000
0.024398 -0.006439 0.875000
-0.008108 -0.032739 0.885000
-0.024948 -0.008362 0.888000
0.021495 -0.027398 0.889000
-0.009974 -0.005810 0.889000
-0.041842 0.006578 0.882000
0.003577 -0.039606 0.892000
0.024398 -0.005719 0.875000
0.025595 -0.013342 0.879000
0.015664 0.006488 0.870000
-0.032904 0.022037 0.876000
0.001710 0.044030 0.876000
-0.019203 0.015186 0.876000
-0.001537 0.010511 0.877000
0.012194 0.000043 0.878000
-0.017983 -0.002147 0.887000
-0.007542 0.036585 0.862000
-0.019079 -0.002512 0.887000
0.002104 -0.020103 0.890000
0.042093 -0.010413 0.876000
-0.010247 0.007296 0.881000
-0.016158 0.001139 0.887000
-0.006329 -0.027460 0.891000
0.009013 -0.010520 0.885000
0.023637 -0.026607 0.887000
-0.016355 0.010162 0.878000
0.033364 -0.001036 0.874000
0.013505 -0.031197 0.893000
-0.028378 0.014548 0.881000
0.042019 -0.002498 0.882000
0.002045 0.024608 0.865000
0.008219 0.038348 0.878000
0.019311 0.017649 0.873000
0.034803 -0.009310 0.874000
-0.012169 -0.009835 0.889000
0.000990 0.008706 0.877000
0.021471 -0.025175 0.888000
-0.019246 0.011246 0.878000
-0.027653 0.017448 0.881000
0.021777 0.002194 0.871000
-0.019809 -0.001782 0.887000
0.020076 -0.031127 0.891000
0.010209 -0.030864 0.894000
0.028095 -0.013689 0.878000
0.028511 -0.035161 0.891000
-0.024054 0.006578 0.882000
0.019603 0.007563 0.870000
0.018678 -0.007176 0.877000
0.019511 -0.015203 0.882000
0.028319 -0.025454 0.885000
0.033004 -0.000317 0.874000
0.018909 0.015458 0.871000
0.047101 -0.009758 0.882000
-0.029103 0.013460 0.881000
-0.015702 0.037295 0.862000
-0.008666 0.023264 0.868000
-0.029930 -0.002867 0.884000
-0.000810 0.013681 0.872000
-0.013983 -0.003976 0.888000
0.023246 -0.023295 0.886000
0.010822 -0.010144 0.884000
-0.008520 -0.013509 0.890000
0.022984 -0.030360 0.890000
0.016151 -0.004649 0.877000
0.023824 -0.038959 0.894000
-0.019246 0.012330 0.878000
-0.017201 0.031052 0.866000
0.003120 0.018955 0.867000
-0.027019 -0.005050 0.884000
0.030160 -0.008960 0.875000
0.017435 0.009342 0.869000
0.022957 -0.005359 0.875000
0.017455 0.007921 0.870000
0.022669 -0.033365 0.892000
-0.004862 -0.019025 0.891000
0.029936 -0.016237 0.879000
0.003221 -0.040108 0.895000
0.039203 -0.032338 0.884000
-0.005445 0.023594 0.867000
-0.006300 -0.032448 0.887000
-0.013983 -0.003611 0.888000
-0.031821 0.002961 0.886000
0.004239 0.042275 0.877000
0.006522 -0.026786 0.893000
-0.006959 0.011607 0.878000
0.014145 -0.019670 0.887000
-0.010633 0.005858 0.883000
0.040744 -0.005377 0.878000
-0.000806 0.038269 0.868000
0.022907 -0.025146 0.887000
0.030416 -0.044460 0.872000
0.002429 0.040378 0.875000
-0.001928 -0.018659 0.891000
-0.010368 0.037252 0.861000
0.013655 -0.002851 0.879000
0.016738 0.007204 0.870000
-0.026565 0.017086 0.881000
-0.004003 0.036315 0.864000
-0.000094 -0.023846 0.893000
0.037620 -0.034766 0.881000
-0.039123 0.019557 0.878000
-0.034464 0.017409 0.879000
-0.021245 -0.001415 0.886000
0.026618 -0.031057 0.889000
0.022907 -0.019670 0.887000
0.017352 -0.016311 0.883000
0.030660 -0.015875 0.879000
-0.020151 -0.010531 0.886000
0.038084 -0.007520 0.875000
0.041986 0.005532 0.889000
-0.011103 0.033786 0.863000
0.031241 -0.041372 0.875000
-0.019362 0.030017 0.867000
-0.020030 0.033864 0.865000
0.007488 0.004736 0.877000
-0.030427 0.036373 0.857000
-0.007054 -0.016440 0.890000
0.020553 -0.012995 0.880000
0.022212 0.014072 0.874000
-0.000092 0.024964 0.865000
-0.006696 -0.020492 0.891000
-0.005099 0.045109 0.869000
0.023975 -0.021107 0.886000
0.034434 -0.035936 0.883000
-0.003757 -0.011678 0.890000
-0.001160 0.025676 0.865000
0.030277 -0.032887 0.889000
0.024816 -0.032191 0.890000
-0.014842 0.016231 0.874000
0.001698 0.014366 0.870000
0.039612 0.004779 0.885000
-0.039026 0.010231 0.884000
0.019408 -0.035279 0.894000
0.015746 -0.036424 0.895000
-0.001932 -0.023479 0.893000
-0.005223 -0.012777 0.890000
0.008359 -0.038915 0.893000
0.000273 -0.022718 0.892000
0.042551 -0.008268 0.878000
0.008830 0.017171 0.867000
0.015343 -0.041488 0.893000
-0.027959 0.033267 0.868000
-0.017273 -0.010921 0.888000
0.023786 0.018856 0.879000
-0.017517 0.034537 0.864000
-0.027290 0.014910 0.881000
-0.022799 0.040488 0.862000
0.000266 0.015798 0.870000
0.024565 0.019624 0.881000
0.018529 0.012218 0.870000
0.037426 0.007693 0.885000
0.021105 -0.021885 0.888000
-0.017360 0.019828 0.874000
-0.039259 0.020524 0.873000
-0.006872 0.023951 0.867000
0.034590 -0.031718 0.887000
0.032691 -0.027639 0.885000
0.039930 -0.014018 0.876000
0.016625 -0.014857 0.883000
-0.004742 0.020072 0.869000
-0.008144 -0.012031 0.889000
0.024645 0.003269 0.871000
-0.035388 0.003682 0.884000
0.006820 -0.005778 0.884000
0.008473 0.024308 0.867000
0.025449 0.009756 0.874000
-0.004142 -0.025345 0.894000
0.020099 0.019513 0.876000
0.038084 -0.007159 0.875000
-0.036618 0.023318 0.870000
-0.034707 0.027163 0.867000
0.000265 0.021785 0.866000
-0.002611 0.048246 0.874000
0.022110 0.006130 0.870000
0.020833 -0.033732 0.892000
0.019444 0.024644 0.879000
0.001693 0.033229 0.867000
0.037046 -0.003562 0.876000
-0.010694 -0.003611 0.888000
0.024454 -0.010063 0.877000
0.002840 -0.021226 0.891000
-0.013418 0.013728 0.875000
0.014379 -0.004298 0.879000
-0.009315 -0.025770 0.896000
0.010083 -0.006135 0.883000
0.009013 -0.014526 0.885000
-0.014723 0.027876 0.867000
0.015103 -0.007192 0.879000
-0.008338 0.018684 0.871000
-0.031785 0.006600 0.885000
0.020168 -0.011172 0.879000
0.009293 0.035778 0.877000
0.036374 -0.030588 0.886000
0.037492 -0.017664 0.878000
-0.026918 0.031517 0.869000
-0.014171 0.011955 0.877000
-0.011077 0.041858 0.861000
-0.026655 -0.005050 0.884000
0.009544 0.017528 0.867000
0.001743 -0.033770 0.893000
0.037748 -0.032338 0.884000
0.007804 0.008298 0.872000
-0.028773 0.028364 0.871000
-0.028142 -0.002142 0.885000
0.005612 0.022141 0.866000
0.041733 -0.016181 0.876000
0.022720 -0.039327 0.894000
0.000627 0.040692 0.874000
0.015464 0.029709 0.879000
0.009555 0.015405 0.868000
0.016550 -0.009363 0.879000
0.004292 -0.010921 0.888000
-0.027809 0.000408 0.886000
0.029575 -0.015513 0.879000
0.021861 -0.028496 0.889000
-0.033379 0.017409 0.879000
0.022440 -0.015584 0.883000
0.010095 -0.011235 0.884000
-0.029070 0.017791 0.880000
0.030643 -0.036912 0.889000
-0.027653 0.011647 0.881000
-0.003323 0.014399 0.872000
-0.040799 0.012400 0.883000
0.032906 0.008383 0.881000
0.029379 -0.023242 0.884000
-0.024555 -0.004337 0.887000
0.030209 -0.028797 0.887000
-0.020716 0.010897 0.879000
0.016851 -0.037161 0.895000
0.021129 -0.027032 0.889000
-0.000827 -0.012044 0.890000
0.018887 0.008279 0.870000
0.014674 0.000403 0.875000
0.008911 0.033896 0.875000
0.017856 -0.026696 0.890000
-0.005445 0.022881 0.867000
-0.002670 -0.023873 0.894000
-0.024920 -0.002147 0.887000
-0.040072 0.014217 0.883000
-0.000810 0.043470 0.872000
0.037172 -0.019854 0.879000
0.038198 -0.029494 0.886000
-0.026927 0.015998 0.881000
0.007929 -0.013813 0.886000
-0.014074 0.021911 0.871000
-0.004124 -0.012411 0.890000
0.044082 0.001139 0.887000
-0.029998 0.000408 0.886000
-0.033265 0.022037 0.876000
0.014641 -0.037161 0.895000
-0.007304 0.013383 0.876000
0.020868 -0.008629 0.878000
0.033117 -0.014395 0.877000
-0.003757 -0.012044 0.890000
-0.020083 0.004768 0.883000
0.000979 0.020383 0.867000
0.003113 0.023896 0.865000
0.040475 -0.003216 0.880000
0.016362 0.014349 0.869000
0.029146 -0.038697 0.888000
-0.025693 0.021315 0.876000
0.004186 0.028914 0.866000
0.014556 0.014333 0.868000
0.010037 0.036945 0.879000
-0.031350 0.010220 0.883000
0.010129 -0.018575 0.887000
0.002470 -0.038052 0.890000
-0.000808 0.016514 0.870000
0.004921 0.032628 0.870000
0.026229 -0.008970 0.876000
0.041372 -0.014018 0.876000
-0.002302 -0.026816 0.894000
-0.013073 0.013023 0.876000
-0.010694 -0.016768 0.888000
-0.020433 0.031802 0.867000
0.034551 -0.034599 0.886000
0.029373 -0.044871 0.873000
0.000639 -0.014242 0.890000
0.019648 0.016194 0.872000
0.022135 0.009364 0.871000
-0.020694 0.038759 0.863000
0.005683 0.040831 0.877000
-0.011309 0.010535 0.879000
-0.005420 0.029879 0.863000
-0.017078 0.010884 0.878000
0.025098 -0.026241 0.887000
0.033364 -0.004993 0.874000
0.031163 -0.038843 0.883000
0.015085 -0.005377 0.878000
-0.014714 -0.004707 0.888000
-0.006229 0.012316 0.877000
-0.019036 0.001865 0.885000
-0.014332 -0.014559 0.887000
0.002429 0.010127 0.875000
0.005982 0.015762 0.868000
-0.001535 0.011941 0.876000
-0.029165 0.027678 0.872000
0.027497 -0.042066 0.882000
-0.006336 -0.026389 0.892000
0.016587 -0.012648 0.881000
0.012770 0.012189 0.868000
0.028159 -0.016617 0.880000
0.000620 0.027780 0.864000
-0.011538 0.023291 0.869000
0.029776 -0.025818 0.885000
-0.014842 0.016950 0.874000
-0.018627 0.031409 0.866000
-0.027464 0.022011 0.875000
0.000272 -0.018271 0.890000
-0.026856 0.033586 0.867000
-0.003643 0.030589 0.863000
0.038444 -0.011841 0.875000
-0.025605 0.024476 0.873000
-0.008261 0.042311 0.863000
-0.005223 -0.014975 0.890000
-0.001554 -0.036829 0.887000
0.021517 0.016970 0.875000
0.033055 0.012792 0.885000
-0.008696 0.017967 0.871000
0.024165 -0.037078 0.893000
0.005748 -0.013829 0.887000
-0.017638 -0.007631 0.888000
0.025211 -0.034428 0.891000
0.001334 0.021785 0.866000
0.000982 0.015440 0.870000
0.016399 0.018684 0.871000
-0.021005 0.016989 0.876000
-0.012295 0.017629 0.872000
0.021060 0.004345 0.871000
-0.019181 0.021651 0.875000
0.005754 -0.018961 0.888000
0.038737 0.003341 0.890000
-0.044283 0.010909 0.880000
0.033723 -0.040246 0.874000
-0.011206 0.018684 0.871000
0.000620 0.027424 0.864000
-0.009794 0.015853 0.873000
-0.005076 0.025676 0.865000
-0.031175 0.031838 0.868000
0.001739 -0.035894 0.891000
0.003149 0.040378 0.875000
0.006704 0.012919 0.869000
-0.005229 -0.017559 0.891000
0.012829 0.005785 0.872000
0.037088 -0.001761 0.877000
0.032681 -0.009320 0.875000
0.031169 0.000402 0.873000
-0.005082 0.024636 0.866000
-0.008616 0.033076 0.863000
0.003829 0.021429 0.866000
0.047680 -0.005426 0.886000
-0.027959 0.032553 0.868000
0.041386 -0.001048 0.884000
-0.021073 0.037026 0.864000
-0.022392 0.043580 0.860000
0.037363 -0.006079 0.875000
0.003589 -0.030162 0.895000
-0.028217 0.020955 0.876000
-0.002277 -0.039615 0.884000
0.036324 -0.002481 0.876000
0.024286 0.004345 0.871000
0.012055 0.016476 0.868000
-0.000827 -0.018638 0.890000
-0.044182 0.014137 0.878000
0.027319 -0.028829 0.888000
-0.024444 0.005495 0.883000
0.024203 -0.015186 0.881000
0.003477 0.018955 0.867000
-0.034621 0.001134 0.883000
-0.029202 0.005865 0.884000
-0.024687 0.035686 0.866000
-0.030727 0.002596 0.886000
0.029146 0.008345 0.877000
0.004647 -0.007614 0.886000
-0.032321 0.027615 0.870000
-0.015080 -0.001784 0.888000
0.028781 -0.039063 0.888000
-0.030072 0.032463 0.847000
0.008830 0.019312 0.867000
0.022567 -0.027733 0.888000
0.030660 0.009811 0.879000
0.026650 -0.012243 0.878000
0.027544 -0.001393 0.872000
0.039203 -0.032702 0.884000
0.020122 0.020979 0.877000
-0.007568 0.027812 0.865000
0.029676 0.014201 0.882000
-0.038169 0.015998 0.881000
-0.028015 0.014185 0.881000
-0.003311 0.042247 0.869000
0.031673 -0.012951 0.877000
-0.024956 0.039114 0.863000
0.014256 -0.038223 0.894000
0.012541 0.000404 0.877000
-0.012611 0.024006 0.869000
0.006037 0.038982 0.876000
0.008512 0.009364 0.871000
0.019334 -0.000676 0.874000
0.006522 -0.027889 0.893000
0.002057 0.013650 0.870000
0.015326 -0.026756 0.892000
0.037384 0.005865 0.884000
-0.016176 -0.003976 0.888000
-0.028442 0.008766 0.883000
0.013123 -0.027491 0.892000
-0.012507 -0.017115 0.887000
0.022905 0.012260 0.873000
-0.014349 -0.006169 0.888000
-0.011193 0.021886 0.870000
0.019665 -0.021910 0.889000
0.009731 -0.009052 0.884000
0.009013 -0.012705 0.885000
0.032210 -0.043025 0.872000
0.009013 -0.013434 0.885000
0.011354 0.011846 0.869000
0.015009 -0.034951 0.895000
-0.036618 0.030479 0.870000
-0.023449 0.024476 0.873000
-0.023835 0.040795 0.861000
-0.003660 0.041080 0.867000
0.014914 0.013261 0.868000
-0.022957 0.031481 0.868000
-0.027761 0.024117 0.873000
0.009935 0.025824 0.870000
-0.003025 -0.010579 0.890000
0.010883 -0.022642 0.889000
-0.029633 0.000044 0.886000
-0.005489 0.050764 0.874000
-0.006478 0.034457 0.862000
0.015718 0.002558 0.873000
-0.008876 -0.006176 0.889000
0.006427 0.001492 0.880000
0.014477 -0.017805 0.885000
-0.035503 0.026152 0.869000
-0.020646 0.041150 0.861000
-0.035035 0.029045 0.849000
0.034962 -0.016580 0.878000
0.010614 0.020026 0.867000
0.033155 -0.014773 0.878000
0.002047 0.021785 0.866000
-0.016542 -0.002515 0.888000
0.030091 -0.002831 0.873000
-0.030565 0.028364 0.871000
-0.005432 0.027456 0.865000
-0.039026 0.008412 0.884000
-0.014333 0.030660 0.865000
0.012236 -0.003220 0.881000
-0.008746 0.013023 0.876000
0.023975 -0.019648 0.886000
-0.015775 0.002596 0.886000
-0.035063 0.005143 0.885000
-0.000092 0.043929 0.874000
0.001350 0.009778 0.876000
0.020168 0.022836 0.879000
0.034225 -0.033543 0.887000
-0.016393 0.008374 0.880000
0.027442 -0.035935 0.892000
0.035243 -0.000317 0.876000
0.028159 0.013445 0.880000
0.013749 -0.016712 0.885000
0.019783 -0.008991 0.878000
-0.014219 0.009098 0.880000
0.001745 -0.032704 0.894000
-0.022138 0.013053 0.878000
0.014526 -0.020789 0.888000
0.014573 0.012204 0.869000
0.031962 0.014249 0.885000
0.024505 -0.035200 0.892000
-0.001517 0.022141 0.866000
-0.011437 -0.012031 0.889000
0.014931 0.010773 0.869000
-0.015028 0.033114 0.864000
-0.012611 0.024364 0.869000
-0.026774 0.020955 0.876000
-0.032146 0.022732 0.875000
-0.008261 0.031300 0.863000
0.001695 0.034339 0.868000
0.023220 -0.017076 0.885000
0.018593 0.000762 0.873000
-0.025592 -0.006149 0.885000
0.009187 0.016458 0.867000
-0.014349 -0.013845 0.888000
-0.040743 0.019468 0.874000
0.043685 -0.008278 0.879000
0.026163 -0.026212 0.886000
0.030160 -0.008240 0.875000
-0.004709 0.032010 0.863000
-0.015775 0.001502 0.886000
0.000267 0.040692 0.874000
0.002470 -0.038418 0.890000
0.043585 -0.012229 0.877000
0.007590 -0.020812 0.889000
-0.026561 0.030802 0.869000
0.012770 0.018977 0.868000
-0.036115 0.004410 0.884000
0.019738 0.020234 0.876000
0.040066 0.001869 0.887000
0.041733 -0.009691 0.876000
0.004684 -0.037445 0.893000
-0.014757 0.024722 0.869000
0.016151 0.026393 0.877000
-0.005815 0.020787 0.869000
-0.033792 0.025496 0.871000
0.001336 0.033586 0.867000
0.038883 0.005507 0.885000
-0.012324 0.015511 0.874000
-0.005445 0.043577 0.867000
0.014608 -0.040018 0.893000
-0.015757 0.031372 0.865000
0.002045 0.027456 0.865000
-0.018460 0.019851 0.875000
-0.022678 -0.009063 0.885000
-0.031021 0.006957 0.884000
-0.006485 0.030234 0.863000
-0.010340 -0.006908 0.889000
-0.008961 0.039424 0.862000
0.019321 -0.029261 0.890000
-0.003665 0.021478 0.868000
-0.041432 0.015998 0.881000
0.022052 -0.014840 0.882000
0.023237 0.001120 0.872000
0.048409 -0.010531 0.886000
0.001365 -0.041528 0.886000
0.013624 -0.000679 0.877000
-0.026143 0.033943 0.867000
0.013671 -0.006114 0.880000
0.032321 -0.040652 0.875000
-0.007023 -0.041163 0.886000
0.037449 -0.016200 0.877000
-0.001166 0.015440 0.870000
0.019321 -0.022667 0.890000
-0.002649 -0.035733 0.887000
0.003113 0.024608 0.865000
0.012642 -0.014874 0.884000
0.004621 0.035941 0.881000
0.003825 0.027100 0.865000
0.028255 0.017125 0.883000
0.008019 -0.034990 0.896000
0.030209 -0.029527 0.887000
0.033079 0.002567 0.876000
-0.033417 0.015980 0.880000
0.007777 0.012919 0.869000
-0.019181 0.020571 0.875000
-0.037334 0.024034 0.870000
0.008266 -0.005771 0.883000
0.021777 0.002911 0.871000
-0.001885 0.043062 0.871000
0.008688 -0.021910 0.889000
-0.039390 0.009867 0.884000
0.015808 0.028230 0.878000
-0.023610 0.018494 0.879000
0.005644 0.011156 0.871000
-0.004445 -0.042018 0.881000
0.022302 -0.034466 0.892000
-0.000460 -0.013143 0.890000
0.001747 -0.029793 0.895000
-0.033017 0.017047 0.879000
0.023377 -0.031861 0.891000
0.020915 -0.011909 0.880000
0.006478 -0.014194 0.887000
0.014948 0.018663 0.870000
-0.035792 0.006600 0.885000
0.011354 0.012204 0.869000
0.001734 -0.010921 0.888000
0.010277 -0.040702 0.900000
-0.028474 0.005865 0.884000
-0.016299 0.015889 0.875000
0.041971 -0.003583 0.881000
0.031269 -0.028035 0.886000
-0.001519 0.020740 0.867000
0.032756 -0.012951 0.877000
-0.020790 0.030731 0.867000
0.017181 -0.042958 0.893000
0.006346 0.029729 0.869000
0.020891 0.022474 0.879000
0.035201 0.009140 0.884000
0.022542 -0.025146 0.887000
-0.028013 0.034944 0.848000
0.003214 -0.025316 0.893000
0.017332 -0.014840 0.882000
-0.001547 -0.041750 0.883000
-0.030853 0.031160 0.869000
-0.041479 0.006941 0.882000
0.016520 -0.043151 0.897000
-0.036660 0.022986 0.871000
-0.003311 0.042963 0.869000
-0.004720 0.039561 0.865000
-0.026774 0.021315 0.876000
-0.005962 -0.018659 0.891000
0.017435 0.011131 0.869000
0.039164 -0.011481 0.875000
0.023611 -0.018189 0.886000
-0.008896 -0.025260 0.891000
-0.027809 0.001867 0.886000
-0.007015 -0.033832 0.885000
-0.003300 0.039250 0.866000
-0.011697 0.008746 0.881000
-0.011578 0.017629 0.872000
-0.000448 0.021785 0.866000
-0.000463 -0.027215 0.895000
0.024482 -0.010798 0.878000
0.004938 0.034537 0.873000
0.021177 -0.031494 0.891000
0.013874 0.020811 0.870000
0.036415 0.010996 0.887000
0.033745 -0.026517 0.884000
0.015154 -0.012662 0.882000
0.017854 0.002914 0.872000
0.030416 -0.044819 0.872000
0.006332 0.027876 0.867000
-0.006848 0.028491 0.864000
0.008341 -0.024159 0.891000
0.032765 -0.030257 0.887000
0.040021 -0.018386 0.878000
-0.023380 0.004410 0.884000
-0.017221 0.028590 0.867000
0.008228 0.002576 0.879000
0.008983 -0.003950 0.882000
0.008483 0.014333 0.868000
0.020903 -0.039371 0.895000
-0.002670 -0.024609 0.894000
0.031128 0.012749 0.882000
0.018742 -0.010822 0.880000
-0.041023 0.017429 0.880000
-0.024278 0.021340 0.877000
0.028654 -0.004987 0.873000
-0.034628 0.024145 0.874000
-0.023248 0.013068 0.879000
0.000265 0.036483 0.868000
-0.008786 0.009460 0.880000
0.038084 -0.006799 0.875000
0.036324 -0.014379 0.876000
0.016795 -0.030795 0.892000
0.037876 0.004060 0.887000
-0.007770 -0.004707 0.888000
0.031601 -0.009320 0.875000
0.006766 0.005819 0.877000
-0.031749 0.008048 0.884000
0.007929 -0.016731 0.886000
0.001370 -0.011665 0.889000
-0.009597 -0.018596 0.888000
-0.011425 -0.003611 0.888000
-0.007595 0.022193 0.868000
0.016096 -0.033808 0.894000
0.013520 -0.037855 0.894000
0.032436 -0.035043 0.888000
-0.003648 0.029202 0.864000
-0.001168 0.042345 0.871000
-0.009338 0.030980 0.864000
-0.004505 -0.026786 0.893000
0.019169 -0.015947 0.883000
0.033268 -0.020625 0.881000
0.033723 -0.008590 0.874000
0.027903 0.000761 0.872000
-0.019583 0.040795 0.861000
0.005413 -0.024554 0.892000
-0.006336 -0.023452 0.892000
0.009852 -0.036792 0.895000
0.011313 -0.030864 0.894000
0.007849 0.037222 0.877000
-0.027125 0.039363 0.853000
0.018909 0.004703 0.871000
0.018930 0.016911 0.872000
0.038562 -0.030223 0.886000
0.020397 -0.024105 0.889000
-0.015202 0.016590 0.874000
0.007224 -0.020812 0.889000
0.014657 0.001482 0.874000
0.045081 -0.011159 0.878000
0.013655 0.031880 0.879000
0.014199 0.015762 0.868000
-0.014808 0.019065 0.872000
-0.017943 0.003686 0.885000
0.040291 -0.014739 0.876000
-0.012849 0.038315 0.861000
-0.020284 0.017349 0.876000
0.017916 -0.033035 0.893000
0.042961 -0.006830 0.879000
0.008860 0.011143 0.870000
0.020099 -0.005365 0.876000
0.032681 -0.009680 0.875000
-0.000094 -0.041434 0.884000
0.047315 -0.005061 0.886000
0.037724 -0.009680 0.875000
-0.002943 0.023211 0.866000
0.039343 -0.002127 0.879000
0.020413 -0.002835 0.874000
-0.016095 0.033825 0.864000
0.022327 -0.041121 0.893000
-0.040707 0.015998 0.881000
0.026498 -0.023997 0.885000
0.017097 0.016873 0.870000
0.005975 0.027876 0.867000
-0.011764 0.000044 0.886000
0.000636 -0.040798 0.886000
0.029970 0.011271 0.880000
-0.027111 0.000044 0.887000
0.041372 -0.011134 0.876000
-0.002225 0.026358 0.864000
0.019671 0.016571 0.873000
0.019019 -0.034137 0.893000
-0.010706 -0.006176 0.889000
-0.008666 0.023622 0.868000
0.008668 -0.018575 0.887000
-0.026742 0.039317 0.852000
-0.002605 0.045623 0.872000
0.013050 -0.020400 0.887000
-0.028316 0.033982 0.868000
0.014081 -0.013403 0.883000
-0.012142 -0.001782 0.887000
0.012976 -0.008669 0.882000
0.003521 0.006548 0.878000
0.024565 -0.015548 0.881000
0.020237 0.027270 0.882000
-0.018460 0.019130 0.875000
0.034561 0.001126 0.877000
-0.031785 0.005507 0.885000
-0.026323 0.023758 0.873000
-0.040072 0.013490 0.883000
-0.013372 0.019065 0.872000
0.035323 -0.016580 0.878000
0.031009 -0.033619 0.889000
0.014674 -0.000677 0.875000
-0.031462 0.022037 0.876000
-0.017340 0.024836 0.873000
0.038804 -0.009320 0.875000
0.003221 -0.033845 0.895000
0.011537 -0.010859 0.883000
0.038804 -0.008960 0.875000
0.016796 0.020883 0.873000
0.004191 0.030017 0.867000
0.020530 -0.011534 0.879000
-0.003648 0.028136 0.864000
-0.024527 -0.004697 0.886000
0.009742 -0.014891 0.885000
0.001706 0.042131 0.874000
-0.014300 0.035562 0.863000
-0.000460 -0.016074 0.890000
0.027544 0.003632 0.872000
0.009912 0.023622 0.868000
-0.031889 0.029695 0.868000
0.024758 0.011928 0.875000
-0.031786 0.022732 0.875000
0.033440 -0.012215 0.876000
-0.006530 0.019714 0.869000
0.011287 -0.026389 0.892000
-0.004856 -0.014975 0.890000
0.008502 0.010069 0.870000
0.013826 -0.022301 0.890000
0.025061 -0.002113 0.873000
0.029776 -0.026182 0.885000
-0.032149 0.002593 0.885000
0.001739 -0.021226 0.891000
-0.009651 -0.033035 0.893000
0.010186 -0.026389 0.892000
-0.003292 0.026713 0.864000
0.022135 0.001835 0.871000
0.002782 0.011182 0.873000
0.014965 0.020118 0.871000
-0.014808 0.020500 0.872000
0.004186 0.021785 0.866000
-0.038894 0.017086 0.881000
-0.029432 0.017791 0.880000
-0.006920 0.014775 0.873000
-0.006485 0.030945 0.863000
-0.022294 0.027257 0.870000
0.028415 -0.039428 0.888000
0.000641 -0.031600 0.894000
-0.016622 0.020883 0.873000
0.000273 -0.032300 0.893000
0.020031 -0.025203 0.889000
0.010220 -0.040108 0.895000
0.009187 0.021453 0.867000
0.013324 0.034491 0.881000
0.014272 -0.034214 0.895000
-0.018918 0.037693 0.863000
-0.009076 0.015853 0.873000
-0.008616 0.032365 0.863000
-0.002302 -0.025345 0.894000
0.047882 -0.008679 0.883000
0.003489 0.012934 0.870000
0.016832 -0.034911 0.894000
-0.000463 -0.030128 0.894000
0.031169 -0.001394 0.873000
0.031998 -0.011494 0.876000
-0.008199 -0.040844 0.895000
0.027435 -0.043057 0.880000
0.018529 0.005772 0.870000
0.027075 -0.038505 0.892000
0.005968 0.022498 0.866000
-0.009044 0.019379 0.870000
-0.006840 0.033076 0.863000
0.012250 -0.005039 0.882000
0.006140 -0.024159 0.891000
-0.021610 -0.001050 0.886000
0.033364 -0.004633 0.874000
0.016060 -0.030061 0.892000
0.022052 -0.015203 0.882000
0.045081 -0.014773 0.878000
0.003203 -0.039517 0.890000
0.040651 -0.012576 0.876000
0.000621 0.021429 0.866000
0.005419 -0.039283 0.893000
-0.002259 0.011233 0.877000
-0.004379 0.042556 0.868000
0.007633 -0.030128 0.894000
0.003113 0.028524 0.865000
-0.019005 0.030731 0.867000
-0.041842 0.013112 0.882000
-0.041479 0.013838 0.882000
-0.019057 -0.010896 0.886000
0.024286 0.004703 0.871000
-0.006493 0.029914 0.864000
-0.028153 0.039824 0.863000
0.036374 -0.031317 0.886000
0.025362 0.003628 0.871000
-0.043147 0.013068 0.879000
-0.030179 0.037208 0.860000
0.000272 -0.020859 0.891000
-0.015544 0.017649 0.873000
-0.009003 0.027488 0.866000
0.032793 -0.014773 0.878000
0.023141 -0.015203 0.882000
0.023451 0.020688 0.880000
0.022542 -0.019305 0.887000
-0.014532 0.011594 0.877000
0.031962 -0.026182 0.885000
-0.035630 0.015273 0.881000
-0.004856 -0.016806 0.890000
-0.000457 -0.041434 0.884000
0.026468 0.005427 0.872000
-0.013794 0.012662 0.876000
-0.005123 0.014416 0.873000
0.011224 -0.018940 0.887000
-0.042785 0.014515 0.879000
-0.016281 0.016590 0.874000
0.028884 -0.016980 0.880000
-0.007421 -0.017539 0.890000
0.017833 0.003628 0.871000
-0.021900 0.004768 0.883000
-0.006999 -0.035572 0.883000
0.007062 0.012561 0.869000
-0.006493 0.029558 0.864000
-0.007054 -0.009846 0.890000
-0.000463 -0.026449 0.894000
0.040112 -0.002492 0.880000
0.021935 -0.034099 0.892000
-0.021479 0.032478 0.866000
0.029800 -0.042813 0.875000
0.016114 -0.036056 0.895000
0.024038 -0.005359 0.875000
-0.028474 -0.003595 0.884000
-0.022339 0.000044 0.886000
0.006471 -0.009437 0.886000
-0.033559 0.027812 0.865000
-0.037763 0.018515 0.880000
-0.020516 -0.001415 0.886000
-0.026232 0.008030 0.882000
-0.002295 -0.018659 0.891000
0.006140 -0.023426 0.891000
0.018997 -0.032631 0.892000
-0.008696 0.018326 0.871000
0.003829 0.022141 0.866000
-0.034257 0.011310 0.883000
0.024872 -0.034833 0.892000
-0.004389 0.045519 0.870000
0.017352 -0.015947 0.883000
0.021977 0.021388 0.879000
0.023246 -0.017825 0.886000
-0.008606 0.039424 0.862000
-0.007761 -0.003972 0.887000
-0.015097 0.027194 0.868000
-0.000830 -0.031932 0.893000
0.015343 -0.031565 0.893000
0.029945 -0.035122 0.890000
-0.040753 0.005489 0.882000
-0.031641 0.013822 0.881000
0.039930 -0.008249 0.876000
0.038848 -0.005725 0.876000
0.003958 -0.033109 0.895000
0.040337 -0.006815 0.877000
0.004899 0.019290 0.866000
-0.022964 0.007304 0.882000
-0.031456 0.003326 0.886000
-0.029490 0.028005 0.871000
-0.043509 0.012344 0.879000
0.001337 0.018263 0.868000
0.007858 0.003657 0.878000
-0.016825 0.032440 0.865000
-0.030986 0.008402 0.883000
0.022720 -0.038223 0.894000
0.045701 -0.006498 0.883000
0.014412 -0.009022 0.881000
0.000977 0.031728 0.865000
0.002840 -0.021959 0.891000
0.048518 -0.004342 0.888000
0.029212 -0.035488 0.890000
-0.022860 0.014137 0.878000
-0.007542 0.039424 0.862000
0.011833 0.033289 0.878000
-0.015080 -0.006169 0.888000
-0.000814 0.048356 0.876000
0.041372 -0.009691 0.876000
0.002757 0.024964 0.865000
0.007127 0.004736 0.877000
-0.030588 0.010934 0.882000
0.016004 0.016138 0.869000
-0.002599 0.016156 0.870000
0.034161 -0.038535 0.876000
-0.034628 0.024504 0.874000
0.012035 -0.038915 0.893000
-0.000460 -0.017173 0.890000
0.030765 -0.021374 0.882000
-0.042472 0.014169 0.880000
-0.019563 0.020955 0.876000
0.015324 0.005420 0.871000
0.028748 -0.029162 0.887000
0.003113 0.025676 0.865000
0.032326 0.014614 0.885000
-0.038575 0.005126 0.882000
-0.009608 -0.017153 0.889000
-0.019924 0.015186 0.876000
0.017495 0.018706 0.872000
0.003829 0.020003 0.866000
0.016813 -0.033035 0.893000
-0.018249 0.032796 0.865000
0.023894 -0.015947 0.883000
-0.009148 0.009098 0.880000
0.024701 0.010463 0.873000
-0.005229 -0.017192 0.891000
0.018952 0.017649 0.873000
-0.032885 0.028557 0.866000
-0.025992 0.038359 0.862000
-0.003038 -0.024977 0.894000
-0.016831 0.004774 0.884000
-0.023825 -0.003607 0.887000
-0.035630 0.015635 0.881000
-0.008876 -0.022642 0.889000
0.023928 0.002194 0.871000
0.009023 -0.017460 0.886000
-0.015508 0.023703 0.871000
-0.027383 0.005865 0.884000
-0.001186 -0.039295 0.885000
-0.019960 0.039424 0.862000
-0.001528 0.044188 0.872000
-0.012969 0.023649 0.869000
-0.008510 -0.008006 0.889000
0.041208 0.005526 0.888000
0.033167 -0.032484 0.888000
0.017856 -0.021934 0.890000
-0.031713 0.008766 0.883000
0.013233 0.027774 0.875000
0.014959 -0.024554 0.892000
0.004331 -0.031302 0.896000
0.003203 -0.020469 0.890000
-0.006336 -0.022351 0.892000
0.007929 -0.014543 0.886000
0.003196 -0.010555 0.888000
0.001005 -0.013143 0.890000
-0.031889 0.030409 0.868000
0.008331 -0.023033 0.890000
0.012470 0.006144 0.872000
0.008649 -0.011248 0.885000
0.011537 -0.007952 0.883000
0.012858 0.002921 0.874000
-0.012535 -0.010201 0.889000
-0.008472 -0.032739 0.885000
-0.021659 -0.005438 0.888000
-0.025086 0.017066 0.880000
0.022313 0.019196 0.878000
0.027987 -0.025847 0.886000
-0.009705 0.028880 0.865000
-0.029930 0.007684 0.884000
0.033800 -0.011855 0.876000
0.007054 0.014333 0.868000
-0.016504 -0.013449 0.886000
0.030904 -0.027306 0.886000
-0.014714 -0.013479 0.888000
-0.006575 0.013728 0.875000
0.030987 -0.014050 0.878000
0.024340 -0.019648 0.886000
0.010945 -0.031968 0.894000
-0.024386 0.032196 0.868000
0.005431 -0.034951 0.895000
-0.000831 -0.027952 0.895000
0.026832 0.020055 0.884000
0.031009 -0.036546 0.889000
0.025566 -0.012243 0.878000
0.014774 -0.011560 0.881000
0.037363 -0.008240 0.875000
0.009742 -0.013798 0.885000
-0.003707 0.009800 0.878000
-0.006315 -0.006908 0.889000
0.016133 0.024560 0.876000
-0.024752 0.008746 0.881000
0.019829 -0.012271 0.880000
0.034482 -0.001037 0.875000
0.006544 -0.034621 0.896000
0.037003 -0.011841 0.875000
0.015288 0.016138 0.869000
0.029179 -0.032521 0.889000
0.021752 0.007921 0.870000
-0.007943 0.046432 0.867000
0.000981 0.016495 0.869000
0.008116 0.017885 0.867000
0.026559 0.009767 0.875000
0.033783 0.012792 0.885000
0.005012 -0.007979 0.886000
-0.023798 0.000408 0.886000
-0.007943 0.023951 0.867000
0.000990 0.046968 0.877000
-0.033869 0.025195 0.873000
-0.025898 0.007312 0.883000
-0.025285 -0.002512 0.887000
0.010675 0.006144 0.872000
0.004899 0.022498 0.866000
-0.009884 0.007296 0.881000
0.006113 -0.010543 0.887000
0.001004 -0.038009 0.889000
0.036739 -0.030952 0.886000
0.029578 -0.036587 0.890000
0.027716 -0.039473 0.889000
0.027217 -0.003909 0.873000
0.008219 0.037987 0.878000
-0.005902 -0.038073 0.882000
0.021084 0.001838 0.872000
-0.036260 0.023318 0.870000
0.008551 0.034256 0.875000
0.024175 -0.014082 0.880000
-0.005234 -0.020148 0.892000
-0.012253 0.022933 0.869000
-0.022112 0.015925 0.877000
-0.037892 0.013490 0.883000
0.006051 0.041239 0.878000
-0.004110 -0.034273 0.887000
-0.014058 0.023676 0.870000
0.026498 -0.002831 0.873000
0.030209 -0.029892 0.887000
0.018296 -0.003562 0.876000
-0.011167 0.025408 0.868000
0.005012 -0.007614 0.886000
0.037577 -0.035814 0.880000
-0.001917 -0.037881 0.886000
0.009753 -0.017460 0.886000
-0.008866 -0.005073 0.888000
-0.018460 0.022372 0.875000
-0.012142 -0.016750 0.887000
0.023975 -0.018189 0.886000
0.027747 -0.039151 0.890000
-0.030191 0.015635 0.881000
-0.008071 -0.039480 0.881000
0.018657 -0.005365 0.876000
0.019061 -0.040108 0.895000
0.007911 -0.004686 0.884000
0.009852 -0.036056 0.895000
-0.007221 0.026419 0.866000
0.016262 -0.014493 0.883000
0.027671 -0.008610 0.876000
-0.039214 0.020859 0.872000
0.004910 0.015405 0.868000
-0.012909 0.030304 0.865000
0.019300 -0.021910 0.889000
-0.021999 -0.002877 0.887000
0.035644 -0.014756 0.877000
0.013857 -0.023452 0.892000
0.027011 -0.011520 0.878000
-0.019071 0.026541 0.870000
0.029676 -0.021374 0.882000
0.005261 0.028590 0.867000
0.032436 -0.033946 0.888000
0.012035 -0.029359 0.893000
0.003865 0.009756 0.874000
0.016024 -0.021568 0.890000
0.028522 -0.016617 0.880000
0.027935 0.004355 0.873000
0.035685 0.011726 0.887000
-0.035902 0.023676 0.870000
-0.001934 -0.026449 0.894000
0.029279 -0.019174 0.881000
0.000642 -0.027952 0.895000
-0.010380 0.035166 0.862000
0.016719 0.012561 0.869000
-0.008886 -0.016074 0.890000
-0.003399 -0.020882 0.892000
0.000623 0.018977 0.868000
-0.002641 -0.039251 0.884000
-0.020354 0.011259 0.879000
0.043323 -0.007192 0.879000
0.005696 0.003661 0.879000
0.014314 0.000043 0.875000
0.031022 -0.015875 0.879000
0.009923 0.012561 0.869000
0.032607 -0.002831 0.873000
0.001710 0.010499 0.876000
0.006383 0.035656 0.874000
-0.014808 0.020859 0.872000
0.008172 0.006870 0.873000
0.021253 0.021388 0.879000
0.042745 -0.002861 0.882000
-0.013434 0.012302 0.876000
0.008541 0.032778 0.874000
-0.012140 0.037960 0.861000
-0.000803 0.028491 0.864000
0.005401 -0.020836 0.890000
-0.002670 -0.027920 0.894000
-0.043344 0.008039 0.883000
0.032543 0.009471 0.881000
-0.028871 0.004415 0.885000
-0.009003 0.046022 0.866000
0.028457 -0.013689 0.878000
-0.004096 -0.037432 0.884000
