-0.025029 0.030760 0.878000
0.016685 0.028012 0.906000
0.002846 0.032388 0.893000
0.023527 0.019167 0.911000
0.004857 -0.019392 0.926000
0.032598 -0.016113 0.913000
0.021292 -0.032802 0.928000
0.011074 -0.036937 0.936000
0.043972 -0.018189 0.923000
-0.012959 0.038636 0.893000
0.038695 0.002327 0.924000
-0.035538 0.019273 0.916000
0.019381 0.029634 0.910000
0.011085 -0.037748 0.937000
-0.035538 0.011356 0.916000
-0.008749 0.011331 0.914000
-0.025035 0.010625 0.918000
0.040553 -0.006413 0.923000
0.020255 -0.040275 0.933000
0.018509 0.004509 0.904000
-0.010389 -0.006433 0.926000
0.006046 -0.027986 0.933000
-0.016759 0.006483 0.920000
0.041890 -0.021136 0.919000
0.038066 -0.011290 0.918000
0.032186 -0.008588 0.912000
0.002983 -0.037707 0.936000
0.017412 0.022766 0.905000
0.017096 -0.001450 0.908000
0.021184 0.015724 0.907000
0.002476 0.040061 0.892000
0.035955 0.006117 0.922000
0.009748 -0.008285 0.920000
-0.027710 0.003828 0.919000
-0.015493 -0.020350 0.935000
0.017454 -0.024373 0.927000
0.009547 0.013765 0.901000
0.007598 -0.033819 0.935000
-0.014016 0.011707 0.914000
0.011038 -0.032978 0.933000
0.005825 0.047776 0.899000
-0.008529 -0.033291 0.931000
-0.016377 0.032605 0.899000
-0.015393 0.041568 0.885000
0.009568 0.045015 0.903000
-0.016434 -0.032245 0.923000
-0.032934 0.010990 0.917000
0.012930 -0.031375 0.931000
0.026905 -0.042168 0.924000
0.024679 0.017687 0.912000
0.003581 0.030550 0.893000
-0.010706 0.042122 0.889000
0.024703 -0.033148 0.927000
-0.019337 0.033715 0.899000
0.020440 -0.023153 0.924000
-0.007796 -0.025353 0.935000
-0.014644 -0.023686 0.930000
-0.023275 0.033727 0.880000
0.017508 -0.004450 0.910000
-0.020902 0.007232 0.919000
-0.029247 0.027326 0.908000
-0.011482 0.001943 0.922000
0.022777 0.022542 0.911000
0.022414 -0.031240 0.927000
-0.017307 0.022493 0.909000
0.020572 -0.035169 0.930000
-0.006386 0.025945 0.899000
-0.011582 -0.017179 0.930000
0.021882 0.005632 0.905000
0.032257 -0.002588 0.914000
-0.035875 0.014356 0.915000
0.020662 -0.016184 0.917000
0.033190 0.007610 0.919000
-0.033212 0.027206 0.904000
0.024944 -0.004440 0.908000
-0.009759 0.025689 0.903000
0.033947 0.006097 0.919000
0.025692 0.002287 0.908000
-0.007086 0.033896 0.894000
0.011079 0.045487 0.905000
-0.026460 0.016239 0.915000
0.016344 -0.045455 0.929000
-0.023171 0.007610 0.919000
-0.023850 0.012864 0.916000
0.021315 -0.042778 0.929000
0.009896 0.015955 0.899000
-0.010444 0.029612 0.898000
-0.010051 -0.016413 0.930000
-0.006329 0.038550 0.891000
0.028745 -0.005199 0.910000
-0.004161 0.025916 0.898000
0.026439 0.001166 0.908000
0.015922 0.027608 0.905000
0.006306 0.000422 0.915000
0.033762 -0.016883 0.914000
0.027020 -0.017655 0.915000
-0.012321 -0.030510 0.928000
-0.014231 -0.025163 0.928000
-0.022781 0.037365 0.889000
0.023823 -0.003319 0.908000
0.008388 0.027334 0.896000
0.024017 -0.036700 0.930000
-0.027530 0.020337 0.913000
0.014059 0.036175 0.905000
-0.018571 0.009847 0.916000
0.035877 0.000803 0.920000
0.005068 0.041347 0.896000
-0.037382 0.016239 0.915000
0.022269 -0.045822 0.921000
-0.009016 0.022344 0.903000
-0.012042 0.018710 0.907000
-0.007403 -0.029554 0.934000
-0.009770 0.020508 0.904000
-0.002793 -0.026892 0.935000
-0.003055 0.023725 0.899000
0.025777 -0.011578 0.911000
-0.010805 -0.032072 0.929000
0.016690 -0.022083 0.927000
0.013594 -0.049013 0.924000
0.005799 0.026567 0.895000
-0.006371 0.028472 0.897000
0.031677 0.011771 0.919000
0.019062 -0.034440 0.931000
0.009147 -0.036166 0.936000
0.024269 -0.042975 0.925000
0.013611 0.014121 0.900000
0.017604 -0.011629 0.915000
-0.028064 0.029130 0.906000
-0.001573 0.024438 0.898000
0.000285 -0.024504 0.932000
-0.007004 -0.034477 0.932000
0.021581 -0.003319 0.908000
-0.009255 -0.040016 0.927000
-0.005962 0.036349 0.891000
0.005955 0.000424 0.919000
-0.013970 0.013918 0.911000
-0.012281 -0.005665 0.925000
-0.034444 0.017029 0.917000
0.020414 -0.000328 0.906000
-0.034784 0.011356 0.916000
-0.000462 0.032352 0.892000
-0.015623 0.007240 0.920000
-0.018587 0.037754 0.881000
0.030542 -0.025675 0.919000
-0.001960 0.014588 0.906000
-0.005270 0.027025 0.898000
0.023398 0.006384 0.906000
0.019658 -0.020848 0.923000
-0.028095 0.028043 0.907000
-0.016024 0.030419 0.900000
-0.011913 -0.006815 0.926000
-0.010526 0.020904 0.905000
0.009137 -0.043824 0.935000
0.015646 -0.035666 0.933000
0.010837 -0.003348 0.916000
-0.033166 0.022216 0.913000
-0.008916 0.035696 0.893000
0.039793 -0.003373 0.923000
-0.026897 0.031192 0.880000
-0.005446 -0.010649 0.928000
0.001382 0.023672 0.897000
0.005534 0.005675 0.912000
0.013358 0.032932 0.908000
-0.016071 -0.030378 0.924000
-0.025827 0.028012 0.906000
0.002196 -0.020984 0.929000
-0.012621 0.003081 0.922000
-0.036389 0.025486 0.909000
0.041313 -0.010211 0.923000
-0.028467 0.002693 0.919000
-0.019356 0.037840 0.883000
-0.011557 -0.031274 0.928000
0.015704 -0.009359 0.914000
0.002476 0.037859 0.892000
0.008444 0.046079 0.902000
-0.034219 0.026292 0.911000
-0.033312 0.013255 0.917000
0.028119 0.012459 0.914000
0.046502 -0.013322 0.928000
0.027374 -0.033529 0.927000
0.032598 -0.013107 0.913000
0.005819 0.044766 0.898000
0.000655 0.008688 0.913000
-0.008282 0.019392 0.904000
-0.031837 0.011758 0.918000
0.020707 -0.047613 0.919000
-0.028635 0.032243 0.889000
0.024170 -0.000702 0.907000
-0.010008 -0.007196 0.926000
0.025792 -0.042213 0.925000
-0.012958 0.007232 0.919000
-0.035538 0.013995 0.916000
0.026843 -0.006315 0.909000
0.014354 -0.020110 0.924000
0.023902 0.017668 0.911000
0.015197 -0.029013 0.929000
0.011629 -0.013571 0.919000
0.002210 -0.038052 0.935000
0.005295 -0.041945 0.936000
-0.000845 0.012405 0.910000
0.006912 0.033972 0.896000
-0.032144 0.018142 0.916000
0.012129 0.015232 0.900000
-0.019259 -0.011066 0.931000
0.021177 -0.045921 0.923000
-0.009710 -0.024557 0.934000
0.017970 -0.039549 0.934000
0.003217 0.028377 0.894000
-0.022488 -0.001093 0.922000
-0.017593 -0.002997 0.924000
0.008046 0.038526 0.899000
0.017472 -0.029746 0.928000
0.010369 0.003408 0.908000
0.004904 -0.031895 0.935000
-0.033689 0.015897 0.917000
-0.018967 0.034085 0.899000
-0.023876 0.011745 0.917000
-0.009585 0.001563 0.922000
0.014448 0.036961 0.906000
0.006072 -0.035819 0.937000
-0.021470 0.023292 0.911000
0.023152 -0.043021 0.926000
-0.027710 0.002693 0.919000
0.011398 -0.026777 0.931000
-0.034030 0.018519 0.916000
0.007306 0.042596 0.899000
0.016276 0.005626 0.904000
0.008766 0.020350 0.897000
0.008942 -0.000708 0.915000
0.016168 -0.016976 0.919000
0.008776 0.020003 0.898000
0.022727 -0.006315 0.909000
0.020572 -0.010477 0.913000
0.028168 -0.038149 0.928000
0.004108 -0.022896 0.929000
0.016667 0.027236 0.905000
0.000667 -0.022538 0.930000
0.011389 0.029678 0.900000
0.028776 0.000045 0.911000
0.029124 -0.028036 0.922000
0.022279 0.010113 0.906000
0.002986 -0.035434 0.937000
0.008756 0.027334 0.896000
0.015498 0.023062 0.902000
0.009186 0.011182 0.902000
0.034628 -0.001842 0.917000
-0.011520 -0.037645 0.925000
-0.007411 -0.025353 0.935000
-0.007403 -0.028401 0.934000
0.011793 -0.032176 0.932000
0.034590 -0.022952 0.916000
0.019320 -0.025462 0.925000
-0.007379 -0.018347 0.931000
-0.007901 0.020486 0.903000
-0.002658 0.038140 0.890000
-0.026778 0.020337 0.913000
0.007727 0.008612 0.905000
0.036098 -0.022198 0.916000
-0.019079 0.039472 0.887000
-0.012321 -0.029746 0.928000
0.027834 -0.021468 0.917000
-0.031767 0.018142 0.916000
-0.009867 0.012446 0.913000
0.037432 -0.001092 0.921000
0.011398 -0.025244 0.931000
0.008216 -0.003733 0.918000
-0.034067 0.014010 0.917000
0.013762 -0.001828 0.910000
-0.003566 -0.030003 0.936000
0.015481 0.016732 0.901000
0.001373 0.036716 0.891000
0.044067 -0.012518 0.925000
0.036475 -0.022198 0.916000
0.012805 -0.018928 0.922000
0.020550 -0.032837 0.929000
-0.015344 -0.028539 0.926000
-0.035161 0.014749 0.916000
0.025402 0.011668 0.911000
0.013770 -0.038093 0.936000
0.019871 -0.038738 0.933000
0.008388 0.030653 0.896000
-0.003566 -0.032314 0.936000
0.009738 -0.007141 0.919000
0.028370 -0.000704 0.910000
-0.013804 -0.033838 0.925000
-0.023020 0.021088 0.913000
0.001778 0.008669 0.911000
0.018197 -0.045689 0.926000
-0.012775 0.025774 0.906000
-0.010019 -0.009493 0.927000
-0.011656 0.019062 0.906000
0.010778 0.037540 0.911000
0.008734 -0.027602 0.933000
-0.015725 -0.007196 0.926000
0.015851 0.014136 0.901000
0.014837 0.001911 0.907000
-0.037428 0.025056 0.907000
-0.001193 0.038506 0.890000
-0.013774 0.002325 0.923000
-0.035654 0.010636 0.919000
-0.004304 -0.017543 0.929000
0.002974 -0.027986 0.933000
0.002109 0.037124 0.892000
-0.029947 0.004579 0.918000
0.026527 0.009419 0.911000
0.033046 -0.021421 0.915000
0.008019 0.032497 0.896000
-0.010805 -0.015248 0.929000
-0.011557 -0.012940 0.928000
-0.003918 -0.015614 0.928000
-0.038803 0.018082 0.913000
-0.002679 0.025888 0.897000
0.039664 -0.011314 0.920000
0.002849 0.028745 0.894000
0.016630 0.020486 0.903000
-0.007621 0.010578 0.914000
-0.028058 0.012892 0.918000
0.016704 0.031776 0.907000
0.037229 -0.023329 0.916000
0.003750 -0.040361 0.935000
0.012856 0.022615 0.899000
-0.021611 0.009481 0.917000
0.042164 -0.007188 0.925000
0.036634 -0.002226 0.920000
0.016685 0.030249 0.906000
-0.004636 0.009501 0.919000
-0.009658 -0.013719 0.929000
0.037852 0.001184 0.922000
0.011043 0.010439 0.902000
0.025430 0.015810 0.912000
-0.039425 0.022517 0.910000
-0.032863 0.019628 0.915000
0.015481 0.020440 0.901000
-0.026925 0.012136 0.918000
0.002849 0.027273 0.894000
0.017529 -0.034440 0.931000
-0.017821 0.037669 0.879000
0.024017 -0.037466 0.930000
-0.006996 -0.036356 0.931000
-0.037885 0.023989 0.909000
0.029721 0.014387 0.917000
0.023101 0.015010 0.909000
-0.012703 -0.016378 0.928000
0.020459 0.020226 0.908000
0.014354 -0.020491 0.924000
0.007136 -0.019751 0.925000
0.036812 -0.019161 0.915000
0.022677 0.012364 0.907000
-0.009619 0.042536 0.890000
-0.027273 0.014010 0.917000
-0.010008 -0.004528 0.926000
0.032705 -0.021821 0.916000
-0.032592 0.011380 0.918000
0.018923 0.001163 0.906000
0.027996 0.000419 0.910000
0.003210 0.035289 0.892000
-0.022704 0.036510 0.886000
0.019299 -0.046351 0.924000
0.020369 0.010835 0.904000
0.017472 -0.030128 0.928000
0.004846 -0.010983 0.924000
0.019402 -0.007079 0.911000
-0.029532 0.031320 0.894000
0.009167 -0.039332 0.938000
0.016456 -0.009359 0.914000
-0.003178 -0.026892 0.935000
-0.021869 0.019564 0.912000
-0.023222 0.005352 0.921000
-0.010062 -0.030225 0.931000
-0.032215 0.014781 0.918000
-0.016089 -0.028508 0.925000
-0.003838 0.013888 0.909000
0.023025 0.005265 0.906000
-0.013453 -0.029332 0.927000
0.019123 -0.039549 0.934000
0.038779 -0.020335 0.917000
0.026556 -0.013468 0.912000
-0.035084 0.022616 0.914000
0.005662 -0.028754 0.933000
-0.014200 -0.012531 0.926000
0.004500 -0.024095 0.931000
0.012514 0.029340 0.901000
0.014352 0.021159 0.900000
-0.013789 -0.040266 0.924000
0.011811 0.007486 0.904000
-0.025117 0.002699 0.921000
0.005819 0.020003 0.898000
0.014984 -0.011642 0.916000
0.010719 0.005265 0.906000
0.007273 0.027303 0.895000
-0.012775 0.023164 0.906000
0.023902 -0.009704 0.911000
-0.022289 0.036064 0.884000
0.014804 0.032451 0.905000
0.003210 0.036390 0.892000
0.042118 -0.009082 0.924000
-0.016054 -0.033005 0.923000
0.013142 -0.013950 0.919000
0.009918 -0.036552 0.936000
0.017765 0.020881 0.904000
0.044780 -0.018209 0.924000
-0.011199 -0.029045 0.930000
-0.025875 -0.001092 0.921000
-0.029947 0.012892 0.918000
0.009146 0.033678 0.898000
0.002476 0.036757 0.892000
0.002567 -0.012518 0.925000
0.007221 -0.041174 0.936000
0.023928 0.019939 0.912000
0.007880 -0.017429 0.923000
-0.017973 -0.008701 0.924000
0.002849 0.043463 0.894000
-0.010467 -0.022226 0.933000
-0.016832 -0.003377 0.924000
0.018959 -0.024727 0.926000
-0.002346 0.012043 0.911000
-0.003547 -0.020263 0.931000
0.013357 -0.044162 0.934000
-0.008346 0.013168 0.911000
-0.036509 0.024068 0.912000
0.023102 -0.027716 0.924000
-0.001208 0.019328 0.901000
0.005492 0.010474 0.905000
0.006682 0.000422 0.915000
0.026582 -0.033112 0.926000
-0.029409 0.021088 0.913000
-0.010176 0.017590 0.907000
-0.017837 0.009103 0.917000
0.008046 0.039636 0.899000
-0.007011 -0.031442 0.933000
0.001819 -0.025271 0.932000
-0.001630 -0.020241 0.930000
0.013142 -0.015084 0.919000
0.014432 -0.024425 0.929000
0.001444 -0.035434 0.937000
0.032292 -0.000331 0.915000
-0.016858 0.026863 0.905000
0.001009 0.028745 0.894000
0.004514 -0.029554 0.934000
-0.020345 0.019542 0.911000
-0.007340 -0.006052 0.926000
0.021866 -0.046529 0.920000
-0.008538 -0.029874 0.932000
0.046884 -0.014850 0.928000
0.037606 -0.022575 0.916000
-0.030469 0.024042 0.911000
-0.024385 0.003461 0.922000
0.042118 -0.010223 0.924000
-0.009056 0.015724 0.907000
0.023002 -0.046150 0.920000
0.013929 -0.018150 0.921000
0.009108 -0.028340 0.932000
-0.011199 -0.016796 0.930000
0.020482 0.023241 0.909000
0.031436 -0.009714 0.912000
0.024217 -0.026547 0.923000
0.019690 0.020950 0.907000
-0.019970 0.019917 0.911000
0.013042 0.033828 0.912000
-0.038010 0.022567 0.912000
0.024543 -0.045063 0.921000
0.019215 -0.019266 0.920000
0.016274 -0.047163 0.925000
0.001825 -0.029970 0.935000
0.011680 -0.018569 0.923000
-0.015470 0.014668 0.911000
0.004103 -0.021725 0.928000
-0.006763 0.024122 0.900000
-0.005658 0.022665 0.901000
0.019232 0.008593 0.903000
0.017209 -0.010488 0.914000
0.003329 -0.015564 0.925000
0.015563 -0.026691 0.928000
-0.009284 0.035696 0.893000
0.003585 0.040887 0.894000
-0.000479 -0.007949 0.925000
-0.017526 0.029340 0.901000
0.020255 -0.039891 0.933000
-0.011084 0.041070 0.890000
0.034138 -0.014250 0.914000
-0.020833 0.032425 0.884000
0.002856 0.023646 0.896000
-0.015845 0.015043 0.911000
-0.022867 0.000804 0.922000
-0.002025 -0.035396 0.936000
-0.006876 0.009460 0.915000
0.014799 -0.022107 0.928000
0.023656 -0.016543 0.916000
-0.010561 0.016488 0.908000
0.005425 0.035368 0.894000
-0.010561 0.015741 0.908000
-0.003181 -0.028462 0.936000
0.025430 0.014684 0.912000
0.005662 -0.028370 0.933000
0.003971 0.020372 0.898000
0.003997 0.012695 0.904000
0.020081 -0.022797 0.925000
-0.028312 0.019231 0.914000
-0.020613 -0.007552 0.923000
-0.013057 -0.032350 0.926000
0.023508 -0.029269 0.925000
-0.010423 -0.013719 0.929000
-0.026254 0.004594 0.921000
0.002567 -0.014041 0.925000
0.023797 0.000418 0.907000
-0.000484 -0.028431 0.935000
-0.019401 0.029744 0.902000
-0.004982 0.011318 0.913000
-0.000485 -0.034662 0.937000
0.030719 -0.015737 0.913000
0.034779 0.007248 0.921000
-0.011926 -0.034292 0.927000
0.002964 -0.023303 0.930000
0.005114 0.011207 0.904000
-0.000837 0.019699 0.901000
0.012870 0.013750 0.900000
0.001808 -0.013294 0.926000
0.019027 -0.006704 0.911000
0.025054 -0.011591 0.912000
-0.012279 0.032533 0.897000
-0.014282 0.023190 0.907000
-0.025275 0.019585 0.913000
-0.018353 -0.031139 0.924000
0.022051 0.026696 0.912000
-0.031459 0.015159 0.918000
-0.013909 0.019830 0.907000
0.019069 -0.009349 0.913000
0.020810 0.017963 0.907000
0.010346 0.004892 0.906000
0.028557 0.014372 0.916000
0.007932 -0.022896 0.929000
0.033495 0.000423 0.917000
0.012197 0.037293 0.905000
0.000652 0.012017 0.909000
0.022549 -0.049019 0.917000
-0.011109 0.038226 0.892000
0.018276 -0.032872 0.930000
0.024017 -0.039762 0.930000
0.036098 -0.022575 0.916000
0.001385 0.021505 0.899000
-0.000480 -0.015597 0.927000
-0.022619 0.023318 0.912000
0.028557 -0.019559 0.916000
0.036594 -0.002602 0.919000
0.005619 0.000427 0.926000
0.012819 -0.049720 0.923000
0.010540 -0.018569 0.923000
-0.019586 0.035417 0.877000
0.037013 -0.002226 0.920000
0.034741 0.004589 0.920000
-0.024817 0.024390 0.910000
-0.013832 0.028259 0.902000
-0.015027 -0.019858 0.930000
-0.008976 0.027055 0.899000
0.031436 -0.011216 0.912000
0.046120 -0.011031 0.928000
0.020392 0.004142 0.905000
0.032669 -0.001461 0.915000
-0.007437 0.035656 0.892000
0.032633 -0.017636 0.914000
0.014804 0.033196 0.905000
0.003661 0.005306 0.913000
0.025918 -0.018805 0.916000
0.003621 0.014168 0.903000
0.021417 -0.049019 0.917000
0.006912 0.035816 0.896000
0.009431 -0.021297 0.926000
0.002476 0.032719 0.892000
-0.026605 0.007240 0.920000
0.010612 0.024411 0.897000
-0.039887 0.019564 0.912000
-0.016185 0.022867 0.909000
-0.000099 -0.026066 0.933000
-0.012566 0.008358 0.918000
0.013299 -0.029427 0.930000
-0.013771 0.032200 0.898000
-0.018333 -0.009452 0.923000
-0.021564 0.012473 0.915000
-0.010221 0.013168 0.911000
-0.006203 -0.008348 0.927000
0.014448 0.002655 0.906000
0.038864 -0.012058 0.919000
0.040465 -0.010568 0.921000
0.005619 -0.019392 0.926000
0.024917 0.002658 0.907000
0.022977 -0.020758 0.919000
-0.011777 0.042757 0.887000
-0.001253 -0.036897 0.935000
-0.004682 -0.015996 0.928000
0.014416 0.030926 0.904000
-0.016765 0.030790 0.900000
0.035305 -0.018031 0.915000
-0.006989 -0.017562 0.930000
0.008064 0.044174 0.901000
0.012426 -0.018169 0.922000
0.005662 -0.027218 0.933000
-0.020561 0.028322 0.904000
0.033154 0.006091 0.918000
0.035838 -0.001468 0.919000
-0.014613 -0.040059 0.928000
-0.007165 0.019020 0.904000
0.027138 -0.023027 0.919000
-0.003181 -0.033470 0.936000
-0.008172 -0.026863 0.934000
-0.027966 0.033415 0.891000
0.010683 0.009708 0.903000
0.031470 -0.003337 0.913000
0.033046 -0.020668 0.915000
-0.007197 0.014620 0.908000
0.035877 0.001560 0.920000
-0.016814 0.000425 0.923000
-0.023096 0.012110 0.916000
0.026843 -0.000703 0.909000
-0.007011 -0.032210 0.933000
-0.002328 0.016416 0.904000
0.013329 0.035097 0.906000
-0.018247 0.031530 0.900000
0.003589 0.026198 0.895000
0.000646 0.020418 0.900000
-0.030703 0.012514 0.918000
-0.006435 0.015706 0.906000
0.023992 -0.041249 0.929000
0.028119 0.010955 0.914000
-0.007446 0.034226 0.893000
-0.005658 0.023036 0.901000
-0.012676 -0.006815 0.926000
0.001388 0.017845 0.901000
0.024295 -0.031206 0.926000
0.006943 0.015602 0.900000
-0.017936 0.027919 0.903000
0.012856 0.020765 0.899000
0.009125 0.026965 0.896000
0.017745 0.015283 0.903000
-0.007395 -0.031826 0.933000
0.010624 0.025916 0.898000
-0.020834 0.011356 0.916000
0.039534 -0.021090 0.917000
0.011398 -0.028310 0.931000
-0.000099 -0.031963 0.937000
0.014013 0.027517 0.902000
0.027217 -0.005567 0.909000
-0.033312 0.011368 0.917000
-0.015294 -0.034904 0.923000
0.029151 -0.011204 0.911000
0.044926 -0.011400 0.927000
0.022476 -0.013121 0.914000
0.007346 0.009718 0.904000
0.016925 -0.049883 0.919000
0.014755 0.025661 0.902000
-0.012443 0.016132 0.909000
0.021315 -0.033219 0.929000
0.033799 -0.005227 0.915000
0.032222 -0.005592 0.913000
0.000283 -0.013294 0.926000
-0.003918 -0.012176 0.928000
-0.001248 -0.021795 0.931000
-0.024658 0.011002 0.918000
0.008762 -0.042715 0.936000
-0.002772 -0.017142 0.928000
0.015824 -0.018150 0.921000
0.015395 -0.050962 0.918000
-0.019552 0.024737 0.909000
0.042879 -0.010983 0.924000
-0.020015 0.036263 0.880000
-0.027710 0.011393 0.919000
0.000647 0.017864 0.902000
0.029688 0.012487 0.916000
-0.000099 -0.028816 0.935000
0.007113 -0.012098 0.922000
0.019777 -0.007829 0.911000
-0.039800 0.021768 0.910000
0.021440 -0.017713 0.918000
0.005668 -0.031092 0.934000
0.011439 0.041344 0.904000
-0.006243 -0.033746 0.933000
-0.021303 0.005725 0.920000
-0.000465 0.021505 0.899000
-0.020947 0.004594 0.921000
-0.021446 0.024390 0.910000
-0.008501 -0.011795 0.928000
0.029624 -0.017259 0.914000
0.028119 0.012835 0.914000
0.024730 -0.033948 0.928000
-0.009215 0.001565 0.923000
0.013611 0.023011 0.900000
-0.007813 0.035696 0.893000
0.009928 -0.037362 0.937000
-0.008692 0.014993 0.908000
-0.020743 0.022191 0.912000
-0.017021 0.036104 0.894000
0.040800 -0.016615 0.920000
0.035081 0.000424 0.919000
0.041089 -0.022625 0.918000
-0.026895 0.013632 0.917000
-0.000835 0.022245 0.899000
0.009918 -0.043101 0.936000
0.020764 0.010847 0.905000
0.027079 -0.019958 0.917000
0.002986 -0.033891 0.937000
-0.006329 0.036716 0.891000
-0.014946 -0.005284 0.925000
-0.005727 0.012432 0.912000
0.019647 0.016434 0.905000
0.017072 -0.025136 0.927000
0.006189 0.043288 0.898000
0.009536 0.038198 0.900000
0.021699 -0.010852 0.913000
0.017662 -0.015824 0.918000
0.008397 0.023303 0.897000
0.006905 0.031724 0.895000
-0.008874 -0.010256 0.927000
0.008725 -0.024504 0.932000
0.042314 -0.021917 0.920000
-0.022644 0.019210 0.913000
-0.005463 -0.019113 0.931000
-0.011582 -0.027514 0.930000
-0.007729 -0.010256 0.927000
0.021200 -0.026575 0.924000
0.031197 0.006831 0.916000
0.016326 -0.025163 0.928000
0.043165 -0.018169 0.922000
0.003336 -0.019413 0.927000
0.022254 0.005632 0.905000
-0.011991 -0.022586 0.932000
0.033009 -0.018388 0.914000
-0.016106 -0.007577 0.926000
0.027366 0.013212 0.914000
0.022894 -0.039422 0.931000
-0.004895 0.026995 0.897000
0.014464 0.038495 0.907000
-0.010770 -0.038448 0.926000
0.026258 -0.040823 0.928000
0.000644 0.022590 0.898000
-0.019009 0.030824 0.901000
0.004086 -0.014786 0.924000
-0.000831 0.029480 0.894000
0.009001 -0.009431 0.921000
0.015099 -0.048580 0.923000
0.038822 -0.013179 0.918000
-0.015742 -0.027043 0.927000
-0.020951 0.038829 0.889000
0.015412 -0.051774 0.919000
-0.015095 0.013918 0.911000
0.007991 -0.035781 0.936000
0.010688 -0.036937 0.936000
0.005812 0.021826 0.897000
0.039413 -0.001474 0.923000
0.044544 -0.009493 0.927000
-0.008883 -0.037003 0.928000
0.003705 -0.010983 0.924000
0.036515 -0.024864 0.917000
0.008028 0.022565 0.897000
0.018529 0.020531 0.905000
-0.017837 0.034787 0.898000
-0.036965 0.022240 0.914000
-0.002364 0.009869 0.918000
0.017961 -0.010864 0.914000
-0.029686 0.024765 0.910000
-0.009710 -0.023019 0.934000
-0.000460 0.039971 0.890000
0.027345 -0.041116 0.926000
0.006168 0.027303 0.895000
-0.022520 0.025084 0.908000
0.022003 -0.006697 0.910000
0.033725 -0.012731 0.913000
-0.011843 0.038593 0.892000
0.039157 -0.022223 0.917000
0.024250 0.013528 0.910000
-0.008996 0.026003 0.901000
-0.011163 -0.034292 0.927000
-0.007729 -0.008730 0.927000
0.028745 -0.008944 0.910000
0.016777 -0.004829 0.911000
-0.029192 0.013269 0.918000
0.012944 -0.032176 0.932000
0.005437 0.022908 0.896000
0.002156 0.008303 0.912000
0.026990 0.015469 0.914000
0.026123 0.007161 0.910000
-0.013057 -0.033493 0.926000
0.000645 0.020765 0.899000
0.002194 -0.019815 0.928000
-0.026605 0.007619 0.920000
0.045787 -0.009131 0.929000
-0.011235 -0.022994 0.933000
0.009135 0.030318 0.897000
-0.001626 -0.017524 0.928000
0.041981 -0.017013 0.921000
0.017039 0.024256 0.905000
-0.035538 0.018896 0.916000
0.003609 0.018195 0.900000
0.014687 -0.049991 0.921000
-0.015480 0.042536 0.890000
0.017393 0.020508 0.904000
-0.014814 0.037575 0.894000
0.014292 -0.052209 0.920000
-0.033506 0.024819 0.912000
-0.003418 0.026995 0.897000
-0.000482 -0.024120 0.932000
-0.007840 0.031390 0.896000
-0.010723 0.003840 0.922000
-0.022793 0.029438 0.904000
0.024679 0.019189 0.912000
0.002598 -0.031543 0.936000
0.032973 -0.008222 0.913000
0.034741 0.003832 0.920000
-0.008896 0.041850 0.891000
0.011844 -0.042715 0.936000
0.021557 -0.024267 0.923000
-0.007696 -0.001474 0.923000
0.046934 -0.012190 0.929000
0.034628 -0.002974 0.917000
0.036435 -0.014642 0.915000
-0.010008 -0.007958 0.926000
-0.034290 0.028291 0.903000
-0.021349 0.003461 0.922000
-0.025847 0.000803 0.920000
0.010494 -0.009411 0.919000
0.019360 0.028853 0.909000
-0.024681 0.028353 0.905000
0.013042 -0.003333 0.912000
-0.011978 -0.024861 0.931000
0.000275 0.022960 0.898000
0.004126 -0.027218 0.933000
0.036216 -0.003359 0.919000
0.008397 0.021826 0.897000
-0.034294 0.023719 0.913000
-0.011031 0.010601 0.916000
-0.003395 0.035982 0.891000
-0.031989 0.029340 0.901000
0.023457 -0.026547 0.923000
0.023398 0.000791 0.906000
0.028526 0.012473 0.915000
-0.026749 0.021441 0.912000
-0.011103 0.001943 0.922000
-0.016345 0.009113 0.918000
0.002109 0.040428 0.892000
0.015110 0.019328 0.901000
0.030033 0.008330 0.915000
0.001377 0.029113 0.894000
0.031608 0.008349 0.917000
-0.029096 0.016992 0.915000
-0.022644 0.021088 0.913000
-0.011566 0.028905 0.899000
0.008000 -0.037748 0.937000
0.009579 0.008230 0.904000
0.005425 0.030584 0.894000
-0.032109 0.019252 0.915000
-0.023626 -0.000713 0.922000
0.008786 0.036306 0.899000
0.018860 0.010823 0.903000
0.019215 -0.048422 0.920000
0.025329 -0.043974 0.922000
0.019700 -0.021655 0.925000
-0.024631 0.011745 0.917000
0.000664 -0.014818 0.926000
0.033386 -0.016131 0.914000
-0.012525 0.011343 0.915000
0.020146 -0.031656 0.928000
-0.030436 0.025139 0.910000
0.030476 -0.022223 0.917000
-0.001973 0.010555 0.912000
0.030685 -0.012342 0.912000
0.015945 -0.028600 0.928000
0.007297 0.019633 0.898000
0.009621 0.004156 0.908000
0.024170 0.003031 0.907000
0.012500 0.025604 0.900000
0.024517 -0.048044 0.920000
-0.021141 0.015076 0.913000
0.012856 0.018915 0.899000
-0.036884 0.023693 0.912000
-0.012662 -0.001477 0.925000
-0.015046 0.018731 0.908000
-0.024738 0.006111 0.921000
0.017039 0.003025 0.905000
0.020081 -0.025081 0.925000
0.019755 -0.005948 0.910000
-0.028089 0.009880 0.919000
0.037053 -0.000334 0.921000
0.001058 -0.033120 0.937000
0.002948 -0.012899 0.925000
-0.016030 0.039160 0.880000
-0.014518 0.003840 0.922000
0.007855 -0.006392 0.920000
0.001057 -0.030773 0.936000
-0.015443 -0.016449 0.932000
0.021131 -0.021561 0.921000
-0.020255 -0.001856 0.924000
0.012486 0.020765 0.899000
-0.019251 0.040933 0.895000
-0.014526 0.030755 0.899000
-0.028089 0.010636 0.919000
-0.014262 -0.022155 0.930000
-0.020036 0.013588 0.914000
0.031537 -0.028539 0.926000
0.031916 0.001175 0.915000
-0.016850 0.036104 0.885000
0.022056 -0.033184 0.928000
-0.005859 -0.034130 0.933000
-0.000481 -0.019837 0.929000
0.011414 0.010439 0.902000
0.037606 -0.015789 0.916000
-0.026291 0.033153 0.884000
0.008825 0.010823 0.903000
0.009505 0.026626 0.897000
-0.018075 0.022892 0.910000
-0.020492 0.031195 0.901000
-0.028877 0.007997 0.920000
0.015462 -0.049287 0.922000
0.026286 -0.036278 0.929000
-0.004982 0.010567 0.913000
-0.018842 0.034295 0.876000
0.024756 -0.040867 0.929000
0.018295 -0.034057 0.931000
-0.004495 0.035249 0.891000
0.039245 -0.006829 0.928000
0.017843 -0.002571 0.908000
-0.011896 0.033603 0.896000
-0.007019 -0.030707 0.934000
0.035838 -0.001846 0.919000
0.008734 -0.031826 0.933000
-0.017123 -0.038255 0.940000
-0.018294 0.003836 0.921000
-0.011515 0.033934 0.895000
0.007113 -0.014375 0.922000
0.020041 0.001163 0.906000
0.014623 -0.012410 0.917000
-0.032827 0.021864 0.914000
-0.005223 0.037774 0.890000
0.011452 0.044370 0.905000
0.045738 -0.011795 0.928000
0.017816 -0.027014 0.926000
-0.016672 0.036512 0.895000
0.017164 -0.035628 0.932000
0.003214 0.032020 0.893000
0.022827 0.025973 0.913000
0.016258 0.007849 0.903000
0.006928 0.041070 0.898000
0.013641 0.008954 0.902000
0.014448 -0.030959 0.930000
-0.038761 0.019939 0.912000
0.033154 0.004957 0.918000
-0.007268 0.008726 0.917000
-0.012056 0.016115 0.908000
0.025318 -0.002571 0.908000
-0.005872 -0.029201 0.935000
0.025318 -0.004813 0.908000
-0.000482 -0.022179 0.931000
0.016291 -0.020916 0.926000
-0.017612 -0.006807 0.925000
-0.022132 0.000046 0.923000
0.029818 -0.026082 0.920000
0.007059 0.000422 0.915000
0.002570 -0.017486 0.926000
0.003354 -0.026038 0.932000
0.001373 0.040750 0.891000
-0.029280 0.026234 0.909000
0.019361 -0.029714 0.927000
-0.016245 -0.038780 0.934000
0.014352 0.016343 0.900000
0.010127 -0.011314 0.920000
0.028840 -0.016113 0.913000
0.018117 0.008964 0.903000
0.013255 0.027115 0.901000
0.017373 0.007106 0.903000
0.020505 0.025514 0.910000
-0.014462 0.036881 0.895000
-0.004337 -0.031929 0.936000
0.008762 -0.042330 0.936000
0.011798 0.008593 0.903000
0.015498 0.010068 0.902000
-0.028469 0.028416 0.907000
0.017393 0.020136 0.904000
0.010688 -0.043101 0.936000
0.014788 0.030182 0.904000
-0.012169 0.041756 0.889000
0.021581 0.017236 0.908000
0.002951 -0.017105 0.926000
0.033459 -0.001086 0.916000
0.032973 -0.013107 0.913000
0.030476 -0.021845 0.917000
0.027433 -0.037043 0.929000
0.010688 -0.042715 0.936000
0.005210 -0.006399 0.921000
-0.011139 -0.040691 0.925000
0.001007 0.031984 0.892000
0.010506 -0.012072 0.920000
0.006719 -0.006770 0.920000
0.012116 0.015955 0.899000
0.015601 0.037043 0.908000
0.031677 0.012906 0.919000
0.024357 0.024121 0.914000
0.026614 0.016973 0.914000
0.019712 0.023215 0.908000
-0.003947 -0.026892 0.935000
-0.013774 -0.036804 0.923000
0.015127 0.023804 0.902000
-0.008912 -0.017580 0.931000
0.008019 0.023646 0.896000
0.024164 -0.023836 0.921000
0.025384 -0.042928 0.924000
0.029343 0.015520 0.917000
0.016432 -0.037242 0.934000
0.025139 -0.040867 0.929000
0.000639 0.037449 0.891000
0.001020 0.016026 0.903000
0.013853 -0.009380 0.916000
0.018591 -0.002571 0.908000
0.009108 -0.024120 0.932000
0.016704 0.032522 0.907000
-0.013099 -0.019072 0.929000
0.023202 -0.041968 0.928000
0.023475 -0.007064 0.909000
-0.021965 0.011733 0.916000
0.019006 0.031506 0.910000
-0.002387 -0.015216 0.927000
0.017681 -0.016597 0.919000
0.027756 -0.035437 0.927000
0.021160 0.001909 0.906000
0.023330 -0.048695 0.918000
0.030786 -0.019538 0.915000
0.044020 -0.016688 0.924000
-0.007062 0.036716 0.891000
0.004505 -0.025271 0.932000
-0.005258 0.028809 0.896000
0.024679 0.018062 0.912000
-0.009336 0.028504 0.898000
0.033009 -0.005974 0.914000
0.035081 0.001180 0.919000
0.035382 -0.024864 0.917000
0.020787 0.014588 0.906000
0.008472 0.008612 0.905000
0.001051 -0.023328 0.931000
-0.007324 -0.001095 0.924000
0.002932 0.004968 0.920000
0.018638 -0.043925 0.929000
-0.023247 0.000046 0.922000
0.011439 0.007858 0.904000
0.007614 -0.036205 0.937000
-0.039382 0.023989 0.909000
0.006175 0.038766 0.896000
0.001373 0.037083 0.891000
0.025031 -0.030031 0.925000
-0.003532 -0.013690 0.927000
-0.000098 -0.022945 0.931000
0.009515 0.031830 0.898000
-0.015708 -0.005284 0.925000
0.010849 -0.004106 0.917000
-0.023772 0.019585 0.913000
-0.005240 0.033490 0.893000
0.011363 0.025177 0.898000
-0.015619 0.032569 0.898000
0.006007 -0.020939 0.927000
-0.026140 0.012878 0.917000
-0.024639 0.031086 0.877000
-0.016220 0.015043 0.911000
-0.030703 0.008358 0.918000
0.020764 0.011592 0.905000
0.020081 -0.045259 0.925000
0.024170 0.002658 0.907000
0.027925 -0.024946 0.920000
-0.014246 -0.023660 0.929000
0.022697 -0.025407 0.923000
-0.005828 -0.015614 0.928000
0.012046 -0.018169 0.922000
0.020152 0.030416 0.911000
-0.005264 0.028103 0.897000
0.008874 0.004903 0.908000
0.008913 0.002297 0.912000
0.022599 -0.046857 0.919000
0.008180 0.000798 0.914000
-0.035161 0.018519 0.916000
-0.004717 -0.032664 0.935000
0.009611 0.004524 0.907000
-0.016650 0.011707 0.914000
0.026668 -0.039719 0.929000
0.009759 -0.013980 0.921000
-0.004525 0.026995 0.897000
-0.004702 -0.021435 0.932000
-0.019853 -0.005653 0.923000
-0.013438 -0.015961 0.926000
0.044352 -0.018949 0.923000
0.006230 0.010463 0.904000
0.042832 -0.014390 0.923000
0.006450 -0.033470 0.936000
-0.009245 -0.006815 0.926000
0.032328 0.003815 0.916000
0.042498 -0.009462 0.924000
-0.011913 -0.007958 0.926000
0.041602 -0.015875 0.921000
0.040711 -0.023758 0.918000
0.022845 -0.041631 0.929000
-0.003766 0.034554 0.892000
0.021000 -0.040615 0.932000
0.022104 -0.041676 0.930000
0.000286 -0.030003 0.936000
0.014156 -0.039634 0.936000
0.019734 0.026982 0.909000
0.006741 -0.016290 0.923000
0.002945 -0.009842 0.924000
-0.006763 0.025233 0.900000
0.017784 0.003770 0.905000
0.035682 -0.012383 0.915000
0.010683 0.037954 0.903000
0.006161 0.030952 0.894000
0.018357 -0.012759 0.915000
0.014926 -0.040019 0.936000
0.013747 -0.001077 0.909000
0.005097 0.016361 0.901000
0.009001 -0.013222 0.921000
0.008991 -0.008285 0.920000
-0.005677 0.018648 0.904000
-0.002766 -0.009101 0.926000
0.034890 -0.011993 0.914000
0.012278 0.036040 0.911000
0.013974 -0.020110 0.924000
0.023449 -0.004813 0.908000
0.020263 -0.015035 0.916000
-0.033275 0.018142 0.916000
0.004126 -0.027986 0.933000
0.015481 0.018957 0.901000
-0.036682 0.025430 0.907000
0.002907 0.007552 0.912000
-0.000481 -0.021389 0.930000
0.039577 -0.017713 0.918000
-0.015311 -0.001476 0.924000
0.005057 0.029113 0.894000
-0.001223 0.010180 0.912000
-0.010040 -0.032837 0.929000
-0.004300 -0.011795 0.928000
0.021300 -0.009714 0.912000
0.013358 0.001166 0.908000
-0.009315 0.032128 0.896000
0.013314 0.005632 0.905000
0.014935 -0.007470 0.913000
0.035158 0.005352 0.921000
-0.036509 0.024444 0.912000
-0.013357 0.035776 0.895000
-0.004707 -0.022994 0.933000
0.023101 0.016132 0.909000
0.003585 0.029113 0.894000
0.030409 0.006824 0.915000
-0.010411 -0.035093 0.928000
-0.023171 0.008745 0.919000
0.027965 -0.001826 0.909000
0.019111 -0.013136 0.915000
-0.003947 -0.036897 0.935000
0.024598 0.009772 0.909000
-0.032396 0.028631 0.902000
0.029247 0.006816 0.914000
0.015670 -0.005585 0.912000
-0.017175 0.035659 0.883000
-0.002721 0.012043 0.911000
0.017182 -0.037202 0.933000
0.034779 0.006869 0.921000
-0.004702 -0.021052 0.932000
-0.009116 0.012446 0.913000
0.017072 -0.022846 0.927000
-0.002014 -0.022179 0.931000
-0.012281 -0.005284 0.925000
-0.012662 -0.035361 0.925000
0.012942 0.005632 0.905000
0.029311 -0.020690 0.916000
0.021361 -0.041338 0.931000
0.015177 0.031706 0.905000
-0.035915 0.018142 0.916000
-0.002763 -0.007949 0.925000
-0.036072 0.011026 0.920000
0.020527 0.030791 0.911000
-0.004314 -0.021029 0.931000
-0.020233 -0.006413 0.923000
0.007306 0.041116 0.899000
0.032633 -0.005221 0.914000
0.008388 0.025490 0.896000
0.013997 0.013024 0.901000
0.008668 -0.020916 0.926000
-0.003791 0.025547 0.898000
-0.007771 -0.020284 0.932000
0.029967 -0.016113 0.913000
0.031060 -0.003333 0.912000
0.032186 -0.011216 0.912000
-0.018990 0.008358 0.918000
0.018257 -0.004824 0.910000
0.034175 -0.007110 0.915000
0.026818 -0.026110 0.921000
-0.009255 -0.039252 0.927000
-0.034407 0.020027 0.916000
0.008395 -0.039718 0.938000
-0.025257 0.030385 0.899000
-0.001595 0.012405 0.910000
-0.014656 0.023936 0.907000
0.029343 0.015142 0.917000
0.007650 0.032865 0.896000
0.010127 -0.012450 0.920000
-0.002387 -0.014834 0.927000
0.034929 -0.008993 0.915000
0.004345 0.018915 0.899000
0.025346 -0.005941 0.909000
0.016741 0.035961 0.909000
0.031811 -0.012717 0.912000
0.017912 -0.034824 0.931000
-0.023354 0.034933 0.883000
-0.012268 -0.039125 0.924000
0.014968 -0.009370 0.915000
0.002980 -0.030740 0.935000
0.044067 -0.012899 0.925000
0.017115 -0.003322 0.909000
-0.003042 0.028777 0.895000
0.004694 0.038723 0.895000
0.035158 0.006490 0.921000
0.012486 0.017805 0.899000
-0.032557 0.015897 0.917000
0.037473 0.001184 0.922000
0.026872 0.003790 0.910000
-0.020720 0.018793 0.911000
-0.031081 0.009491 0.918000
0.009885 0.020742 0.898000
-0.033689 0.016652 0.917000
-0.025469 0.007619 0.920000
0.024138 -0.022295 0.920000
0.000671 -0.029586 0.935000
-0.005069 -0.017160 0.929000
-0.019431 0.004594 0.921000
0.036812 -0.018031 0.915000
-0.010802 0.031425 0.897000
-0.014731 0.042854 0.889000
-0.026113 0.036839 0.903000
0.021534 -0.022344 0.922000
0.021417 -0.048642 0.917000
-0.003410 0.029882 0.895000
-0.016358 0.033678 0.898000
-0.012251 0.034671 0.895000
0.016222 0.015990 0.901000
-0.003076 0.016061 0.905000
0.021230 0.022493 0.909000
0.010311 0.010079 0.903000
0.015975 -0.001450 0.908000
-0.014550 -0.033421 0.924000
0.018488 0.007478 0.903000
0.000286 -0.027632 0.934000
-0.023396 0.021840 0.913000
0.002476 0.033453 0.892000
0.020263 -0.014658 0.916000
-0.020590 0.001943 0.922000
0.024944 -0.001824 0.908000
0.002567 -0.014802 0.925000
0.028057 -0.013843 0.912000
-0.021366 0.032132 0.876000
-0.020910 0.029406 0.903000
0.035267 -0.015002 0.914000
0.004108 -0.022513 0.929000
0.031811 -0.011967 0.912000
0.024330 0.022216 0.913000
0.011781 -0.026777 0.931000
0.033910 0.002312 0.918000
-0.028845 0.004963 0.919000
0.005923 0.001926 0.914000
0.016222 0.015249 0.901000
-0.020811 0.011720 0.915000
-0.013148 0.022045 0.906000
-0.001256 -0.030806 0.937000
0.015992 0.038206 0.909000
0.012177 -0.032559 0.932000
0.006382 -0.019773 0.926000
0.001373 0.039650 0.891000
-0.018234 0.008735 0.918000
0.001385 0.021135 0.899000
-0.015195 0.009858 0.917000
-0.019794 0.028662 0.903000
0.022172 -0.048265 0.917000
0.013385 -0.038093 0.936000
0.005080 0.020372 0.898000
0.041738 -0.007941 0.924000
-0.011540 0.031795 0.897000
-0.014866 0.006483 0.920000
0.004705 0.021826 0.897000
-0.007883 0.024520 0.901000
-0.010840 -0.025271 0.932000
0.001016 0.019677 0.900000
-0.022108 0.001943 0.922000
-0.015674 -0.033765 0.923000
0.033910 -0.026025 0.918000
0.007221 -0.035011 0.936000
0.030409 -0.020291 0.915000
0.002856 0.024015 0.896000
-0.005299 0.019742 0.903000
0.028211 -0.020713 0.917000
-0.004682 -0.012176 0.928000
0.040086 -0.011706 0.921000
-0.014623 0.026863 0.905000
-0.027379 0.025831 0.908000
0.010654 -0.032210 0.933000
0.034138 -0.010864 0.914000
0.006536 0.028777 0.895000
0.001400 0.011643 0.909000
0.026902 0.006794 0.911000
-0.016469 -0.004523 0.925000
0.040755 -0.018867 0.919000
-0.026226 0.000424 0.920000
-0.005969 0.035289 0.892000
-0.000485 -0.034277 0.937000
0.025031 -0.029650 0.925000
0.005057 0.032424 0.894000
0.019785 -0.032455 0.929000
0.032055 -0.026053 0.919000
0.016222 0.015620 0.901000
-0.011437 0.042122 0.889000
0.007289 0.020350 0.897000
0.008009 -0.038560 0.938000
0.034514 -0.010864 0.914000
-0.007848 0.029579 0.897000
0.012833 -0.020110 0.924000
0.005244 -0.020939 0.927000
-0.016850 -0.003761 0.925000
-0.031219 0.024042 0.911000
0.008171 0.002676 0.913000
-0.011502 0.035368 0.894000
0.025692 -0.000703 0.908000
0.020662 -0.015806 0.917000
0.021154 -0.021964 0.922000
-0.000869 -0.027661 0.935000
0.023406 -0.023078 0.921000
0.042832 -0.013251 0.923000
0.005474 0.014152 0.902000
0.004689 0.031688 0.894000
-0.025081 0.028012 0.906000
-0.028126 0.026205 0.908000
0.027756 -0.040397 0.927000
0.010311 0.042785 0.903000
0.013883 -0.013179 0.918000
-0.034030 0.018896 0.916000
-0.005865 -0.036858 0.934000
0.002859 0.022934 0.897000
-0.023905 0.037041 0.890000
0.018177 0.024656 0.906000
-0.028906 0.025860 0.909000
0.031951 0.003815 0.916000
0.004694 0.026567 0.895000
-0.002766 -0.006815 0.926000
0.035721 -0.010134 0.916000
-0.023575 0.006483 0.920000
0.032055 0.011771 0.919000
-0.007054 0.038140 0.890000
-0.010083 -0.024914 0.933000
0.009611 0.005271 0.907000
-0.023225 0.038226 0.892000
0.025876 -0.034711 0.928000
0.002986 -0.034277 0.937000
0.038611 -0.003370 0.922000
0.032812 -0.026810 0.919000
-0.012056 0.017236 0.908000
0.014261 -0.013557 0.918000
0.020910 -0.031274 0.928000
0.007198 -0.027986 0.933000
0.018578 -0.023203 0.926000
0.031642 0.011380 0.918000
0.010908 -0.017031 0.922000
0.002153 0.009419 0.911000
-0.014581 -0.011388 0.926000
0.010471 -0.004106 0.917000
0.021509 0.004887 0.905000
0.024949 -0.025380 0.922000
0.002951 -0.017867 0.926000
0.015160 0.029810 0.904000
-0.004722 -0.030773 0.936000
0.014878 -0.035282 0.933000
-0.016089 -0.011756 0.925000
-0.004667 -0.004904 0.925000
0.001007 0.034554 0.892000
0.009108 -0.027956 0.932000
-0.025469 -0.000712 0.920000
-0.026518 0.013632 0.917000
-0.007629 0.009084 0.915000
-0.024681 0.029098 0.905000
0.014370 -0.020894 0.925000
-0.005317 0.016079 0.906000
0.042590 -0.006433 0.926000
-0.026807 0.017726 0.914000
0.024437 -0.018448 0.917000
-0.012958 0.007610 0.919000
-0.013536 0.024310 0.907000
0.026876 -0.043262 0.923000
-0.014830 0.036144 0.895000
0.010608 -0.022513 0.929000
-0.017119 0.007610 0.919000
0.009135 0.028103 0.897000
-0.006257 -0.030740 0.935000
-0.011139 -0.038406 0.925000
0.044877 -0.014437 0.926000
-0.005487 -0.031125 0.935000
0.020764 0.010474 0.905000
0.019320 -0.025081 0.925000
0.017883 -0.004450 0.910000
-0.021586 0.036833 0.885000
-0.006620 -0.020284 0.932000
0.037893 0.001945 0.923000
-0.003441 0.018628 0.903000
-0.016814 -0.030346 0.923000
0.018458 -0.018887 0.920000
-0.010344 0.003081 0.922000
0.021207 0.019104 0.908000
-0.012334 0.028228 0.901000
-0.006103 0.012807 0.912000
-0.008635 0.024176 0.902000
0.002109 0.035289 0.892000
0.001021 0.014555 0.904000
0.009118 -0.030674 0.933000
0.032055 0.012149 0.919000
0.021795 -0.048642 0.917000
0.018719 -0.041427 0.933000
-0.015046 0.017983 0.908000
-0.007324 -0.002616 0.924000
-0.028089 0.010258 0.919000
-0.002310 0.026257 0.897000
0.020856 0.022493 0.909000
-0.008941 -0.022634 0.934000
0.028840 0.006809 0.913000
-0.003566 -0.029232 0.936000
-0.031594 0.024792 0.911000
0.010323 0.008974 0.904000
0.006814 -0.028370 0.933000
-0.024174 0.016221 0.914000
0.004099 -0.020176 0.927000
-0.005096 -0.034167 0.934000
0.023682 -0.018826 0.917000
-0.009689 -0.027189 0.932000
0.015945 -0.025163 0.928000
0.033190 -0.027566 0.919000
0.031026 -0.007829 0.911000
-0.019794 0.028291 0.903000
0.020617 -0.036779 0.932000
0.010671 0.010811 0.902000
-0.025454 0.028385 0.906000
0.017470 -0.001076 0.908000
-0.012635 0.001185 0.923000
0.042072 -0.010591 0.923000
0.028682 -0.025324 0.920000
-0.014914 -0.038323 0.923000
-0.011507 -0.001095 0.924000
0.002484 0.026198 0.895000
0.016348 0.035174 0.908000
-0.023917 0.030725 0.877000
-0.013043 -0.005284 0.925000
0.029934 -0.000330 0.912000
0.027217 -0.000703 0.909000
0.035267 -0.013498 0.914000
0.017416 -0.020513 0.925000
-0.018333 -0.009072 0.923000
-0.003437 0.019349 0.902000
0.016379 -0.032908 0.931000
-0.020412 0.013212 0.914000
-0.007729 -0.007203 0.927000
0.007501 -0.016670 0.923000
-0.004672 -0.007577 0.926000
-0.001244 -0.018670 0.928000
-0.007026 -0.028816 0.935000
-0.011151 -0.038067 0.926000
0.028088 0.008312 0.913000
-0.005840 -0.017944 0.930000
0.012583 0.043300 0.906000
-0.029033 0.020713 0.913000
0.007330 0.013409 0.902000
-0.013220 0.013168 0.911000
-0.036589 0.021488 0.914000
0.006544 0.022540 0.896000
-0.025791 0.011758 0.918000
-0.013071 -0.012926 0.927000
-0.001255 -0.035011 0.936000
0.003713 -0.019010 0.926000
0.024703 -0.032766 0.927000
0.001825 -0.038822 0.935000
-0.017364 0.015060 0.912000
0.017354 0.010068 0.902000
0.001434 -0.023711 0.931000
-0.009255 -0.007585 0.927000
0.020550 -0.042778 0.929000
0.001043 -0.008701 0.924000
0.018714 -0.010488 0.914000
0.023203 0.024846 0.913000
0.007898 -0.019751 0.925000
-0.006016 0.025945 0.899000
0.003372 -0.034277 0.937000
0.019679 -0.021251 0.924000
0.026701 -0.019958 0.917000
0.023708 -0.046806 0.918000
0.019799 -0.008213 0.912000
0.005540 0.004554 0.913000
-0.000461 0.034882 0.891000
-0.024954 0.015109 0.915000
-0.013774 0.001565 0.923000
0.029375 -0.023002 0.918000
-0.018353 -0.008321 0.924000
0.027217 -0.003696 0.909000
-0.009235 -0.004142 0.925000
0.025904 -0.037425 0.929000
-0.015294 -0.033385 0.923000
-0.003395 0.034516 0.891000
0.001048 -0.019433 0.928000
-0.003038 0.030584 0.894000
-0.034784 0.013241 0.916000
0.027079 -0.020335 0.917000
0.017874 -0.032072 0.929000
-0.005352 0.012057 0.912000
0.039577 -0.017335 0.918000
-0.005428 -0.003761 0.925000
0.031197 -0.022198 0.916000
0.016397 -0.035245 0.932000
0.046552 -0.011807 0.929000
0.017604 -0.040361 0.935000
0.006912 0.022540 0.896000
0.002151 0.010907 0.910000
0.008786 0.016695 0.899000
-0.021118 0.019939 0.912000
0.023558 -0.032766 0.927000
-0.021749 0.025803 0.907000
0.018881 0.004137 0.904000
0.011781 -0.026394 0.931000
0.040260 -0.000335 0.925000
0.012170 0.008593 0.903000
0.004011 0.010497 0.907000
0.015017 -0.014690 0.918000
-0.009026 0.020136 0.904000
0.013914 -0.015858 0.920000
0.043687 -0.012137 0.925000
0.001058 -0.035048 0.937000
0.024243 -0.043689 0.924000
-0.004722 -0.027691 0.936000
-0.036252 0.014356 0.915000
0.003953 0.028377 0.894000
-0.016374 0.037307 0.879000
0.032222 -0.004840 0.913000
0.033046 -0.002591 0.915000
0.026902 -0.011953 0.911000
-0.022087 0.032492 0.876000
-0.009637 -0.038871 0.927000
0.024733 -0.014250 0.914000
-0.021705 0.004215 0.921000
0.019338 0.026205 0.908000
-0.011476 0.038226 0.892000
0.009010 -0.016272 0.922000
0.004899 -0.029554 0.934000
0.023558 -0.042305 0.927000
-0.018204 0.037711 0.880000
-0.021629 0.031601 0.902000
0.023940 -0.032003 0.927000
-0.011965 -0.017944 0.930000
-0.013342 0.037575 0.894000
0.030651 -0.005579 0.911000
0.039033 -0.002234 0.923000
0.025549 -0.038614 0.930000
-0.018254 0.007610 0.919000
0.027666 -0.042548 0.924000
-0.028969 0.023292 0.911000
0.042452 -0.012111 0.923000
0.008756 0.025859 0.896000
0.034929 -0.019914 0.915000
-0.006257 -0.026892 0.935000
-0.004300 -0.014086 0.928000
0.015227 0.000045 0.908000
-0.019114 -0.001476 0.924000
0.034101 -0.012731 0.913000
-0.022317 0.013603 0.915000
0.008795 0.040421 0.900000
-0.022098 0.026520 0.906000
-0.009662 0.035368 0.894000
0.024652 0.014668 0.911000
-0.034331 0.021864 0.914000
0.016348 -0.000703 0.908000
0.011616 -0.008267 0.918000
0.004689 0.030952 0.894000
0.037513 0.004224 0.923000
0.001747 0.027303 0.895000
-0.024006 0.000425 0.922000
0.014837 0.001538 0.907000
0.013611 0.021529 0.900000
-0.009595 0.002325 0.923000
0.036852 -0.022198 0.916000
0.026152 0.011294 0.911000
-0.005287 0.022665 0.901000
0.041890 -0.023027 0.919000
0.039413 -0.009832 0.923000
0.002481 0.043831 0.894000
0.010872 -0.012437 0.919000
0.029624 0.006440 0.914000
-0.006831 0.013888 0.909000
0.020414 0.015706 0.906000
0.029343 -0.021090 0.917000
0.007872 -0.010959 0.922000
-0.013071 -0.011400 0.927000
0.010494 -0.010167 0.919000
0.007658 0.035486 0.897000
-0.016103 0.040794 0.884000
0.007281 0.024752 0.896000
0.013641 0.029002 0.902000
0.011772 0.013024 0.901000
0.013959 -0.049340 0.923000
0.026872 0.004914 0.910000
0.017951 -0.037202 0.933000
0.027516 -0.023027 0.919000
0.018719 -0.041811 0.933000
-0.020389 0.014325 0.913000
0.029061 -0.025324 0.920000
-0.019531 0.040383 0.891000
0.007213 -0.042670 0.935000
0.004360 0.014894 0.902000
0.020594 -0.036356 0.931000
0.034138 -0.018012 0.914000
0.007403 0.004544 0.911000
-0.012321 -0.012558 0.928000
-0.025998 0.022191 0.912000
0.009492 -0.029491 0.932000
0.006361 -0.012871 0.923000
0.019530 -0.049774 0.917000
0.012870 0.015602 0.900000
-0.010805 -0.031690 0.929000
0.019253 0.004509 0.904000
-0.014361 0.013183 0.912000
-0.016452 -0.002997 0.924000
0.002977 -0.028401 0.934000
0.023475 0.013513 0.909000
0.032973 -0.007846 0.913000
-0.029850 0.017745 0.915000
-0.001243 -0.017123 0.927000
0.015549 0.031333 0.905000
-0.009619 0.040338 0.890000
0.025318 -0.002197 0.908000
-0.009387 0.024574 0.903000
0.012547 -0.030225 0.931000
0.007306 0.041856 0.899000
0.024197 0.009014 0.908000
-0.036629 0.021135 0.915000
0.013687 0.037293 0.905000
-0.018373 -0.005284 0.925000
0.042498 -0.010223 0.924000
-0.035770 0.010291 0.922000
0.030476 0.012878 0.917000
0.001827 -0.037322 0.936000
0.011434 -0.044162 0.934000
0.012999 0.000419 0.909000
0.023027 -0.023836 0.921000
0.011730 -0.021702 0.927000
0.043259 -0.012504 0.924000
0.041783 -0.004142 0.925000
0.023077 -0.044781 0.923000
0.041134 -0.018867 0.919000
-0.011043 0.008349 0.917000
-0.010898 0.021649 0.905000
0.033386 -0.005598 0.914000
-0.026402 0.018458 0.913000
-0.027936 0.018854 0.914000
-0.001204 0.023329 0.898000
0.004694 0.025461 0.895000
0.007322 0.046399 0.901000
0.000653 0.010907 0.910000
0.032955 -0.028066 0.923000
-0.009315 -0.026066 0.933000
0.000274 0.025859 0.896000
-0.005446 -0.010267 0.928000
-0.012388 0.026491 0.905000
0.030276 -0.009704 0.911000
-0.031837 0.013647 0.918000
-0.023980 -0.002229 0.921000
0.012203 -0.034936 0.934000
-0.015249 0.032569 0.898000
0.021604 -0.027746 0.925000
0.012528 0.010068 0.902000
0.015017 -0.013934 0.918000
0.005528 0.006794 0.911000
0.007509 -0.017829 0.924000
0.018217 -0.002197 0.908000
0.021200 -0.025054 0.924000
-0.024790 0.024737 0.909000
0.015957 0.034016 0.907000
0.021269 -0.043831 0.927000
0.031060 -0.005585 0.912000
0.030719 -0.000706 0.913000
0.040129 -0.009441 0.922000
-0.007713 -0.004142 0.925000
0.012958 -0.034514 0.933000
-0.011875 0.000805 0.923000
0.034138 -0.010488 0.914000
0.015277 -0.004829 0.911000
0.005425 0.033896 0.894000
0.009748 -0.013207 0.920000
-0.013819 -0.012912 0.926000
0.019615 -0.047717 0.921000
-0.028842 0.028416 0.907000
0.011050 -0.034167 0.934000
-0.006357 0.030987 0.895000
0.005540 0.004179 0.913000
0.012143 0.011170 0.901000
0.032847 0.010648 0.920000
-0.020211 0.003081 0.922000
-0.009770 0.023485 0.904000
0.011759 0.014861 0.900000
-0.017638 0.040978 0.888000
0.016240 0.012296 0.902000
0.014846 -0.032141 0.931000
0.004466 -0.010983 0.924000
0.028934 -0.019559 0.916000
-0.025275 0.018458 0.913000
-0.038931 0.015126 0.916000
0.006843 -0.035819 0.937000
0.011067 0.042461 0.904000
0.002846 0.031653 0.893000
0.014464 0.039615 0.907000
-0.008956 0.029579 0.897000
0.005437 0.041347 0.896000
-0.012321 -0.015996 0.928000
0.015601 0.038538 0.908000
0.035460 -0.000711 0.919000
0.001050 -0.022538 0.930000
-0.002403 -0.023762 0.933000
0.025975 -0.021491 0.918000
0.022056 -0.032038 0.928000
0.032812 -0.027188 0.919000
-0.023772 0.022592 0.913000
0.025329 -0.026138 0.922000
0.014496 -0.001826 0.909000
-0.025496 0.005352 0.921000
