-0.001547 -0.036299 0.883000
0.004244 -0.025614 0.878000
0.011698 -0.003887 0.868000
0.013578 -0.036649 0.874000
0.022084 -0.027855 0.869000
-0.011425 -0.033215 0.888000
-0.004470 -0.026941 0.886000
0.008172 -0.012173 0.873000
0.001665 0.048140 0.853000
-0.010340 -0.038741 0.889000
-0.029332 -0.025224 0.877000
-0.026202 -0.026064 0.881000
-0.005426 0.043427 0.864000
-0.021512 0.019646 0.882000
-0.011022 -0.008698 0.885000
0.029440 -0.015443 0.875000
-0.010609 0.014185 0.881000
-0.003368 -0.037796 0.884000
0.010269 0.003615 0.868000
-0.017136 0.017448 0.881000
0.014183 -0.005667 0.867000
0.011406 -0.027264 0.873000
0.007021 0.029558 0.864000
-0.006643 -0.010144 0.884000
-0.014648 0.001135 0.884000
-0.013633 -0.036546 0.889000
-0.021561 -0.006142 0.884000
0.023407 0.003959 0.865000
0.004882 0.041956 0.863000
-0.009554 0.000407 0.884000
0.011752 -0.021491 0.872000
0.012441 -0.016070 0.870000
0.016173 0.032569 0.859000
-0.020400 0.026514 0.881000
0.025691 -0.022158 0.870000
0.011685 0.003254 0.867000
-0.009478 0.017730 0.877000
0.010946 0.013215 0.865000
0.004984 -0.029690 0.881000
-0.010282 -0.048347 0.884000
-0.021875 -0.000319 0.882000
-0.020219 -0.027032 0.889000
-0.012843 -0.007970 0.885000
0.010340 -0.027655 0.874000
-0.016176 -0.020058 0.888000
0.033193 -0.001765 0.879000
0.010174 0.037208 0.860000
-0.010847 -0.050862 0.871000
-0.005463 0.038715 0.870000
0.019223 -0.029643 0.869000
0.033993 -0.017724 0.881000
0.012456 -0.020391 0.871000
-0.018735 -0.034312 0.888000
0.024532 -0.008878 0.867000
0.012652 0.030837 0.860000
0.010958 0.010379 0.866000
0.006750 -0.013642 0.875000
0.004882 0.040890 0.863000
0.007111 -0.023365 0.875000
-0.013163 0.012749 0.882000
-0.010694 -0.044545 0.888000
0.007768 0.012189 0.868000
-0.023637 0.019602 0.880000
0.000997 -0.027940 0.883000
-0.014332 -0.017480 0.887000
-0.009828 0.020955 0.876000
0.019423 0.008912 0.862000
0.024258 -0.036481 0.870000
0.004258 -0.045282 0.881000
0.015288 -0.017840 0.869000
0.020654 -0.032862 0.869000
-0.021659 -0.018230 0.888000
0.009957 -0.016825 0.872000
0.000988 0.012288 0.875000
-0.016717 0.031844 0.878000
-0.003724 -0.023915 0.882000
-0.001535 0.012662 0.876000
-0.015097 -0.026667 0.889000
0.019201 -0.021392 0.868000
0.024175 -0.007094 0.867000
-0.001542 -0.023499 0.880000
-0.009076 -0.053853 0.873000
-0.024361 0.021775 0.880000
0.004094 0.046756 0.847000
-0.004807 -0.016274 0.881000
0.031673 -0.003205 0.877000
-0.018266 0.009856 0.883000
-0.003660 0.042864 0.867000
0.013714 0.028713 0.860000
0.003860 0.012619 0.873000
0.017374 -0.011007 0.866000
0.019847 -0.009570 0.865000
0.006673 0.024964 0.865000
-0.012324 0.038174 0.874000
-0.003323 0.021936 0.872000
-0.003008 -0.026911 0.885000
0.025275 0.000043 0.868000
0.007714 0.039069 0.862000
-0.022704 -0.015637 0.886000
0.005657 0.005792 0.873000
-0.013267 -0.040571 0.889000
0.009809 0.043882 0.859000
0.006030 -0.018684 0.875000
0.021881 0.031582 0.861000
0.006037 -0.008970 0.876000
-0.002605 0.020859 0.872000
-0.011412 -0.027702 0.887000
-0.016158 -0.040479 0.887000
0.006023 0.002921 0.874000
-0.009424 0.036651 0.872000
-0.012741 0.021364 0.878000
0.007840 -0.026998 0.876000
0.033554 0.005470 0.879000
0.014052 0.032215 0.859000
0.010245 0.011449 0.866000
-0.016213 -0.030726 0.890000
0.021345 -0.026037 0.868000
-0.013556 -0.002867 0.884000
0.032395 0.010511 0.877000
-0.022576 0.027964 0.881000
-0.021149 0.001859 0.882000
-0.010142 -0.050562 0.872000
-0.025086 0.019240 0.880000
0.004239 -0.008620 0.877000
0.023407 0.001467 0.865000
-0.029298 -0.031324 0.876000
0.005249 0.031372 0.865000
-0.020423 0.024003 0.882000
-0.027228 -0.024919 0.879000
0.002412 0.020787 0.869000
0.012370 0.011079 0.865000
-0.008656 -0.052770 0.867000
-0.021464 0.033003 0.880000
0.010688 -0.025468 0.873000
0.011072 -0.037771 0.875000
-0.009554 -0.015238 0.884000
-0.009190 -0.004322 0.884000
-0.004389 0.035134 0.870000
-0.019122 -0.029594 0.889000
0.002445 -0.048183 0.881000
0.005261 0.021096 0.867000
-0.005064 0.044797 0.863000
0.008871 0.003986 0.871000
0.018087 -0.011007 0.866000
0.003517 -0.024141 0.877000
-0.017539 0.006585 0.883000
0.007135 -0.040430 0.878000
0.029373 0.009745 0.873000
-0.012225 0.042507 0.867000
-0.017559 0.000407 0.884000
-0.015428 -0.018210 0.887000
0.004521 0.044745 0.862000
-0.005822 0.039431 0.870000
0.021148 0.030129 0.860000
0.011590 0.035792 0.860000
0.020464 0.019887 0.861000
0.025989 0.009689 0.868000
-0.012394 0.016324 0.879000
0.014035 0.036415 0.858000
-0.001887 0.032344 0.872000
0.001695 0.023622 0.868000
-0.011399 -0.023659 0.886000
-0.004470 -0.029494 0.886000
0.019267 -0.037598 0.871000
0.004579 0.010104 0.873000
-0.000805 0.041389 0.866000
-0.005463 0.039073 0.870000
-0.019854 -0.030691 0.889000
-0.012858 -0.018554 0.886000
0.027775 0.041841 0.868000
0.003167 -0.035089 0.880000
0.019157 -0.013858 0.866000
-0.026474 0.031482 0.878000
0.016230 0.014943 0.862000
0.012682 0.021330 0.862000
-0.031426 -0.026607 0.875000
-0.013088 0.026032 0.877000
0.020133 0.011041 0.862000
0.016230 0.012460 0.862000
-0.002632 -0.023888 0.881000
0.013762 0.015316 0.863000
0.011671 0.005746 0.866000
-0.001180 -0.014444 0.880000
-0.010910 0.025281 0.876000
0.023024 0.013911 0.864000
0.013531 -0.022900 0.871000
0.000623 0.033625 0.868000
-0.018777 -0.026330 0.890000
-0.013464 0.019196 0.878000
0.014281 -0.036607 0.873000
0.023488 -0.016748 0.868000
-0.004424 0.014843 0.877000
0.018422 -0.004229 0.865000
0.007013 0.035562 0.863000
-0.007761 -0.037924 0.887000
-0.008868 0.044629 0.853000
-0.019356 0.014217 0.883000
0.008901 -0.022619 0.874000
-0.007647 0.024504 0.874000
-0.015289 0.022836 0.879000
0.019201 -0.026037 0.868000
-0.011437 -0.042400 0.889000
-0.007371 -0.007597 0.884000
0.020535 0.002176 0.864000
-0.005929 -0.046998 0.886000
0.000624 0.019379 0.870000
0.004171 0.043732 0.863000
-0.004465 -0.037110 0.885000
0.003481 0.031124 0.868000
0.005618 0.017528 0.867000
0.005702 -0.030381 0.880000
0.031709 -0.017302 0.878000
-0.025000 0.035778 0.877000
-0.006999 -0.013403 0.883000
0.006712 0.012218 0.870000
0.021577 0.010343 0.863000
-0.021512 0.023640 0.882000
0.002073 -0.053378 0.877000
-0.018735 -0.016403 0.888000
0.028165 0.030802 0.869000
0.020866 0.005726 0.863000
-0.006350 0.045602 0.845000
-0.017479 0.021051 0.880000
0.031419 -0.022050 0.880000
-0.009096 0.020931 0.875000
0.003860 -0.050620 0.873000
0.007714 0.038359 0.862000
-0.016121 -0.005056 0.885000
-0.006201 0.024836 0.873000
0.016585 0.012105 0.862000
0.003481 0.028623 0.868000
0.005644 0.012590 0.871000
-0.010282 0.001135 0.884000
-0.019122 -0.019714 0.889000
0.008172 0.000762 0.873000
-0.007743 -0.024725 0.885000
0.023024 0.007155 0.864000
-0.029985 -0.029488 0.875000
0.005304 0.004720 0.874000
-0.019312 0.022162 0.881000
0.005586 0.042617 0.862000
-0.003338 0.015186 0.876000
0.004244 -0.011520 0.878000
-0.020910 0.041675 0.872000
0.012270 0.046656 0.858000
0.018757 0.001821 0.864000
-0.016012 0.021750 0.879000
-0.001521 0.035054 0.868000
-0.007656 0.028134 0.875000
-0.016467 -0.001412 0.884000
0.008952 -0.043008 0.879000
0.024831 0.030660 0.865000
-0.005929 -0.030952 0.886000
-0.000454 -0.018386 0.878000
0.003138 0.015117 0.872000
-0.002266 -0.020964 0.880000
0.027903 -0.003905 0.872000
0.005683 -0.025585 0.877000
0.027154 -0.011070 0.871000
0.009218 0.003266 0.870000
-0.005842 0.023758 0.873000
0.017983 0.017407 0.861000
-0.005470 0.034458 0.871000
0.027871 0.006854 0.871000
-0.019720 0.012764 0.883000
0.008942 -0.041153 0.878000
0.024802 0.033825 0.864000
0.009477 0.035480 0.861000
0.016939 0.010331 0.862000
-0.016030 0.021051 0.880000
0.017435 -0.022848 0.869000
-0.008405 0.016305 0.878000
-0.005482 0.027351 0.873000
0.006065 -0.047766 0.880000
-0.003368 -0.031974 0.884000
0.031673 -0.000679 0.877000
0.030590 -0.028833 0.877000
0.021702 -0.026394 0.868000
-0.011437 -0.036912 0.889000
0.031276 0.003649 0.876000
-0.010282 -0.012691 0.884000
-0.017214 -0.006149 0.885000
0.033593 -0.005389 0.880000
0.002080 -0.035814 0.880000
0.011262 0.027006 0.862000
-0.012465 0.006957 0.884000
0.010663 -0.014296 0.871000
0.006288 0.044693 0.861000
0.008942 -0.040791 0.878000
0.009599 -0.009288 0.872000
-0.017678 -0.026330 0.890000
-0.019720 -0.007225 0.883000
-0.011283 0.031808 0.877000
0.011009 -0.006760 0.870000
0.032034 0.001487 0.877000
-0.011386 -0.001049 0.885000
-0.010897 0.034256 0.875000
0.013682 0.039241 0.858000
-0.008025 0.031771 0.876000
-0.021610 -0.030223 0.886000
0.025989 0.006473 0.868000
0.007368 0.035562 0.863000
-0.027747 0.029151 0.884000
-0.004769 0.030979 0.874000
0.003513 -0.020868 0.876000
0.012785 -0.009972 0.869000
0.022998 0.019223 0.863000
0.023104 -0.016729 0.867000
0.007119 -0.010052 0.876000
-0.008089 0.006585 0.883000
-0.018650 -0.007233 0.884000
0.030451 0.019087 0.873000
-0.025143 -0.024641 0.882000
0.019468 -0.002091 0.864000
-0.008108 -0.025454 0.885000
-0.001168 0.019043 0.871000
0.004600 -0.010063 0.877000
-0.010282 0.000044 0.884000
-0.025781 0.030795 0.879000
-0.016213 -0.034023 0.890000
0.028947 0.028005 0.871000
-0.028971 -0.028833 0.877000
0.010870 0.043175 0.859000
-0.021269 -0.031718 0.887000
-0.016560 -0.024105 0.889000
0.015538 0.008212 0.863000
0.015718 -0.038762 0.873000
0.028980 0.009016 0.872000
-0.009850 -0.049464 0.878000
0.007102 -0.002835 0.874000
0.022800 -0.032147 0.869000
0.011085 -0.038896 0.876000
0.019002 0.032922 0.859000
0.025661 -0.016410 0.869000
-0.012727 0.023866 0.877000
-0.005507 0.015564 0.877000
0.003481 0.027194 0.868000
-0.000455 0.010897 0.879000
0.006030 -0.020484 0.875000
0.020630 -0.023179 0.868000
-0.008736 0.022372 0.875000
0.027871 0.029439 0.871000
-0.005915 -0.011235 0.884000
-0.004068 0.012330 0.878000
0.030298 -0.039391 0.879000
0.018627 0.039241 0.858000
0.024147 0.000756 0.866000
0.025602 0.020026 0.867000
0.010614 0.005039 0.867000
0.031637 0.006173 0.876000
-0.009511 0.014169 0.880000
0.006619 0.047010 0.858000
0.027839 0.014008 0.870000
0.004938 0.009745 0.873000
0.007496 -0.048741 0.878000
-0.016158 -0.041574 0.887000
0.003142 0.012619 0.873000
0.029373 -0.000316 0.873000
-0.012741 0.020641 0.878000
-0.012366 0.027476 0.877000
-0.000805 0.043884 0.866000
0.028230 0.012949 0.871000
-0.016103 0.000771 0.884000
0.004972 -0.036135 0.879000
-0.012019 0.018835 0.878000
0.031601 0.020571 0.875000
-0.011764 -0.024389 0.886000
0.024091 0.023157 0.864000
0.027217 -0.039122 0.873000
0.028588 0.014383 0.871000
0.006065 -0.044144 0.880000
-0.012727 0.032529 0.877000
0.030810 0.033818 0.873000
-0.019014 -0.008325 0.884000
-0.010177 0.024172 0.875000
0.030951 -0.014395 0.877000
0.011617 0.027006 0.862000
0.003160 -0.010798 0.878000
-0.007387 -0.031317 0.886000
0.021932 0.008567 0.863000
0.002073 -0.020892 0.877000
-0.023771 -0.016348 0.885000
0.009455 0.045297 0.859000
-0.012858 -0.017825 0.886000
0.002059 -0.052655 0.871000
0.019801 0.003595 0.863000
-0.001904 -0.020239 0.880000
0.030022 0.038760 0.871000
-0.024723 0.016342 0.880000
0.031205 0.030620 0.874000
-0.019014 -0.006869 0.884000
-0.012535 -0.041302 0.889000
-0.009565 -0.010520 0.885000
0.010528 0.036854 0.860000
0.020630 -0.023893 0.868000
0.004253 -0.040884 0.880000
-0.017136 0.019261 0.881000
0.001363 -0.054229 0.885000
0.021957 0.004666 0.864000
0.028720 -0.033089 0.875000
0.010257 0.007536 0.867000
-0.014927 0.020665 0.879000
0.004547 0.023238 0.867000
0.014914 -0.015319 0.868000
-0.012366 0.021340 0.877000
-0.005306 0.045254 0.845000
-0.015080 -0.023713 0.888000
0.027513 -0.009278 0.871000
-0.014284 0.005865 0.884000
-0.005470 0.035175 0.871000
0.012755 -0.000671 0.867000
-0.016213 -0.032191 0.890000
0.023407 0.002891 0.865000
-0.017059 0.036500 0.877000
0.010257 0.008607 0.867000
-0.007023 -0.036787 0.886000
-0.022213 0.026151 0.881000
-0.000092 0.041032 0.866000
0.026437 -0.020749 0.871000
-0.001161 0.044240 0.866000
-0.006888 -0.051461 0.869000
-0.000092 0.036084 0.867000
0.021477 0.039640 0.859000
-0.005822 0.036209 0.870000
-0.014910 0.025701 0.878000
0.019961 -0.033974 0.870000
0.014405 0.033276 0.859000
0.012069 -0.007468 0.869000
-0.026202 -0.020262 0.881000
0.009855 0.026682 0.863000
-0.025781 0.024644 0.879000
-0.000093 0.012648 0.875000
-0.023275 0.016704 0.880000
-0.023972 0.035860 0.879000
-0.000821 -0.027608 0.884000
0.023353 0.020999 0.863000
0.006427 -0.028932 0.880000
0.020086 0.024820 0.860000
0.023873 -0.023563 0.869000
0.002083 -0.036579 0.881000
0.014439 0.022014 0.861000
-0.008736 0.020571 0.875000
-0.008501 -0.041987 0.888000
0.014931 -0.015694 0.869000
-0.013618 -0.026637 0.888000
0.000266 0.020453 0.870000
-0.009370 -0.052770 0.867000
-0.019586 0.039749 0.877000
-0.002266 -0.018428 0.880000
-0.001876 0.041793 0.867000
-0.020739 0.031192 0.880000
0.008532 -0.012173 0.873000
0.030126 0.002202 0.874000
-0.004835 -0.031317 0.886000
-0.011283 0.019535 0.877000
-0.014714 -0.022616 0.888000
0.005298 0.007948 0.873000
-0.025621 -0.017095 0.886000
0.019755 0.016344 0.861000
-0.001549 -0.044345 0.884000
0.005657 0.006870 0.873000
0.020156 0.003595 0.863000
-0.000817 -0.016237 0.879000
0.021652 -0.010294 0.866000
-0.011283 0.020257 0.877000
-0.025839 -0.023888 0.881000
0.020511 0.007502 0.863000
-0.008117 -0.034234 0.886000
-0.000454 -0.017664 0.878000
0.012991 0.038226 0.859000
0.025989 0.008260 0.868000
-0.015811 -0.021154 0.888000
-0.000819 -0.048600 0.882000
-0.015561 0.040692 0.874000
-0.021293 -0.021154 0.888000
0.007706 0.040441 0.861000
0.009946 -0.011787 0.871000
-0.000093 -0.041387 0.883000
0.006009 0.011887 0.872000
-0.005199 -0.040434 0.886000
0.023928 -0.039032 0.871000
0.015801 0.033237 0.858000
-0.006173 -0.051461 0.869000
-0.004470 -0.029858 0.886000
-0.029727 -0.019471 0.878000
-0.015463 -0.025935 0.889000
0.005237 0.037693 0.863000
0.014776 0.026589 0.860000
-0.019720 0.008402 0.883000
0.022616 0.027006 0.862000
-0.010997 0.007312 0.883000
-0.011360 0.009856 0.883000
0.034395 -0.022463 0.882000
0.026079 -0.032221 0.871000
-0.025419 0.024283 0.879000
-0.013464 0.022087 0.878000
-0.012479 -0.010520 0.885000
-0.007665 0.031050 0.876000
-0.015323 0.013097 0.881000
0.023900 -0.035765 0.870000
0.029474 -0.038535 0.876000
-0.012451 0.008766 0.883000
0.009599 -0.011083 0.872000
-0.032330 -0.022775 0.880000
-0.009839 0.031808 0.877000
-0.028643 -0.024891 0.878000
0.032432 -0.001402 0.878000
0.022800 -0.027855 0.869000
-0.022576 0.023975 0.881000
-0.016736 0.028262 0.879000
-0.006605 0.012344 0.879000
0.011712 -0.010329 0.869000
0.014389 0.038887 0.858000
0.008932 -0.039301 0.877000
-0.022678 -0.027639 0.885000
0.008809 0.017132 0.865000
0.025003 -0.035447 0.871000
-0.029298 -0.029161 0.876000
-0.005520 0.011982 0.879000
-0.007752 -0.032411 0.886000
-0.015463 -0.026667 0.889000
-0.006208 0.027382 0.874000
-0.007023 -0.034599 0.886000
0.018735 0.003239 0.863000
0.011393 -0.020773 0.872000
0.000991 -0.016941 0.878000
0.026765 0.001117 0.870000
-0.014015 -0.033656 0.890000
0.032107 -0.026728 0.879000
-0.011710 0.011297 0.882000
0.007394 0.016439 0.866000
-0.012814 0.009129 0.883000
0.004249 -0.035411 0.879000
0.014540 -0.007094 0.867000
-0.010872 0.037411 0.873000
0.011367 -0.013206 0.870000
-0.020219 -0.020812 0.889000
-0.016411 0.016361 0.881000
0.004933 0.013322 0.872000
-0.015633 0.026785 0.878000
0.023790 -0.002452 0.866000
0.021752 -0.036123 0.870000
-0.012829 0.003682 0.884000
0.025632 -0.001029 0.868000
0.010984 0.000757 0.868000
0.010675 -0.019696 0.872000
-0.001540 -0.049159 0.879000
0.016920 0.020242 0.861000
0.010210 0.025972 0.863000
0.033230 -0.015893 0.880000
0.010870 0.042115 0.859000
0.003170 -0.042744 0.881000
-0.008376 0.021651 0.875000
0.002770 0.018641 0.869000
-0.026866 -0.027452 0.879000
-0.025057 0.029348 0.879000
-0.018650 -0.003595 0.884000
0.020915 -0.008858 0.865000
0.018508 -0.025351 0.869000
0.018844 -0.025322 0.868000
0.001342 0.030156 0.871000
0.002434 -0.018365 0.877000
0.000258 0.045548 0.844000
-0.015358 0.008766 0.883000
-0.021173 -0.009042 0.883000
0.019491 -0.007078 0.865000
0.020511 0.006081 0.863000
0.009820 0.042518 0.860000
-0.013920 -0.000684 0.884000
-0.027228 -0.031431 0.879000
0.001357 -0.035492 0.881000
0.007021 0.030625 0.864000
0.011047 -0.025827 0.873000
-0.014995 0.005858 0.883000
0.026286 0.040319 0.866000
0.011341 -0.001743 0.868000
0.013082 0.006807 0.865000
0.010186 0.035480 0.861000
0.013469 -0.003882 0.867000
-0.015463 -0.026301 0.889000
0.000623 0.022933 0.869000
-0.000457 -0.042477 0.883000
0.015183 0.012119 0.863000
0.003160 -0.011882 0.878000
0.015985 -0.014962 0.868000
-0.016030 0.018877 0.880000
0.016681 -0.013874 0.867000
0.025602 0.013246 0.867000
0.013112 -0.004596 0.867000
0.031673 -0.011507 0.877000
-0.006605 0.011982 0.879000
-0.003686 0.018009 0.873000
0.013067 0.009644 0.864000
-0.011909 -0.051520 0.870000
0.010614 0.007180 0.867000
-0.015445 -0.020789 0.888000
0.014948 -0.022158 0.870000
-0.007396 -0.045955 0.887000
0.028687 -0.018303 0.874000
-0.008826 -0.002503 0.884000
-0.025839 -0.028602 0.881000
-0.010645 -0.001048 0.884000
0.017394 -0.017442 0.867000
0.033593 -0.010822 0.880000
-0.016542 -0.036139 0.888000
-0.007979 0.039835 0.871000
0.031276 0.004009 0.876000
-0.005922 -0.034924 0.885000
0.028556 0.030838 0.870000
0.004176 0.039159 0.864000
0.027999 0.026693 0.875000
0.007127 -0.034248 0.877000
-0.022314 -0.012341 0.885000
-0.000093 -0.033354 0.882000
0.004537 0.032796 0.865000
0.016900 0.024820 0.860000
-0.006643 -0.010508 0.884000
0.022468 -0.034332 0.870000
0.002054 0.019357 0.869000
-0.000818 -0.023137 0.880000
0.006016 0.008307 0.873000
0.021011 -0.027855 0.869000
-0.009013 -0.053127 0.867000
-0.014714 -0.021885 0.888000
0.014281 -0.037685 0.873000
-0.000805 0.036797 0.867000
-0.012115 -0.008334 0.885000
0.003127 0.031160 0.869000
-0.008347 0.035574 0.872000
-0.001545 -0.008669 0.882000
0.003878 -0.022697 0.877000
0.020891 0.000754 0.864000
-0.020585 -0.023008 0.889000
0.024447 0.029558 0.864000
0.022642 0.019578 0.863000
-0.011386 -0.002870 0.885000
0.019179 -0.015301 0.867000
0.010946 0.014283 0.865000
0.008769 0.036897 0.861000
-0.003724 -0.009032 0.882000
-0.004807 -0.019537 0.881000
0.025632 0.000400 0.868000
-0.019488 -0.024105 0.889000
0.004961 -0.012590 0.877000
0.026079 -0.026844 0.871000
0.009271 -0.029128 0.875000
-0.021293 -0.019327 0.888000
-0.012479 -0.003235 0.885000
-0.008856 -0.034638 0.887000
0.025216 0.020716 0.866000
0.016249 0.007147 0.863000
0.013345 0.033630 0.859000
0.031169 0.035256 0.873000
0.035161 -0.023943 0.883000
0.027481 0.012218 0.870000
-0.002246 0.027678 0.872000
-0.004101 -0.047309 0.885000
-0.002230 -0.052709 0.866000
0.026079 -0.028994 0.871000
0.007368 0.032010 0.863000
-0.002272 -0.011210 0.882000
-0.001885 0.020477 0.871000
-0.009457 0.023812 0.875000
0.035161 -0.017401 0.883000
0.027092 0.011846 0.869000
-0.016299 0.040018 0.875000
-0.007104 0.046681 0.852000
0.018192 -0.037240 0.871000
-0.000818 -0.025339 0.881000
-0.006935 0.018410 0.875000
-0.004835 -0.043351 0.886000
0.024503 0.006459 0.866000
0.002073 -0.019448 0.877000
-0.011764 -0.022565 0.886000
0.020062 0.034690 0.859000
0.021957 0.007155 0.864000
0.035565 -0.033066 0.884000
0.026734 0.011488 0.869000
-0.008626 0.042360 0.864000
0.028360 -0.038491 0.875000
-0.007770 -0.044545 0.888000
0.032395 0.009789 0.877000
0.009112 0.041102 0.860000
0.031637 0.004009 0.876000
-0.014876 0.036098 0.876000
0.016959 0.006436 0.863000
-0.016907 -0.036139 0.888000
0.027871 0.003986 0.871000
0.021957 0.003243 0.864000
-0.007759 0.046058 0.847000
-0.029659 -0.026637 0.876000
0.020156 0.005015 0.863000
0.022695 0.002535 0.865000
0.029698 0.027319 0.872000
0.024917 -0.016034 0.868000
0.014742 0.038534 0.858000
0.022468 -0.037555 0.870000
-0.018671 -0.009063 0.885000
-0.011498 0.042814 0.866000
0.002770 0.027583 0.869000
-0.009514 0.045764 0.848000
0.001334 0.037111 0.866000
0.004195 0.019692 0.868000
0.007804 0.006862 0.872000
0.025216 0.016795 0.866000
-0.022678 -0.014162 0.885000
0.017669 0.008567 0.863000
0.014862 0.001111 0.865000
-0.002269 -0.024614 0.881000
-0.019831 -0.035043 0.888000
0.024946 -0.019986 0.869000
-0.001184 -0.026487 0.883000
0.030486 0.017670 0.874000
0.010958 0.007528 0.866000
-0.019014 -0.001048 0.884000
0.010305 -0.012863 0.871000
0.017983 0.020242 0.861000
0.026704 0.020764 0.868000
-0.009446 0.034217 0.874000
0.011752 -0.023644 0.872000
-0.013572 -0.007970 0.885000
0.034758 -0.020648 0.882000
-0.005909 -0.013040 0.883000
-0.011142 0.042814 0.866000
0.003882 -0.010436 0.878000
0.020487 0.013879 0.862000
0.000270 -0.043568 0.883000
-0.013952 -0.016366 0.886000
0.017920 0.036062 0.858000
-0.000448 0.044901 0.865000
0.002801 -0.012981 0.879000
-0.023744 -0.023970 0.884000
0.006658 0.036983 0.863000
0.000981 0.024722 0.869000
0.002085 -0.043155 0.882000
0.024447 0.028491 0.864000
0.006743 -0.016504 0.874000
0.004224 0.009036 0.874000
0.011289 0.015689 0.864000
-0.015323 0.013822 0.881000
0.001340 0.027973 0.870000
0.012270 0.045244 0.858000
0.015538 0.010698 0.863000
-0.012366 0.023145 0.877000
0.013376 0.027329 0.861000
-0.015793 -0.015289 0.887000
0.020156 0.003950 0.863000
0.001359 -0.042429 0.882000
0.027030 0.037511 0.867000
-0.000814 0.011220 0.876000
-0.017136 0.016723 0.881000
0.002757 0.036357 0.865000
0.011972 0.026651 0.862000
0.001331 0.044493 0.864000
0.025720 -0.033655 0.871000
-0.021125 0.030502 0.881000
0.012976 0.041006 0.858000
0.021345 -0.025679 0.868000
-0.018460 0.040738 0.875000
0.018800 -0.012789 0.866000
0.002417 -0.051938 0.871000
-0.026897 -0.020239 0.880000
0.010364 -0.038896 0.876000
-0.017273 -0.014941 0.888000
-0.004450 -0.008669 0.882000
-0.011257 -0.050015 0.875000
-0.008007 0.026303 0.874000
0.019581 -0.028928 0.869000
0.000997 -0.046112 0.883000
0.012770 -0.005316 0.868000
0.024917 -0.011032 0.868000
0.015218 0.002179 0.865000
-0.014515 0.034295 0.876000
-0.008117 -0.026212 0.886000
-0.025477 -0.028602 0.881000
0.016681 -0.012090 0.867000
0.001648 0.046937 0.844000
-0.026836 0.032567 0.878000
-0.001162 -0.053127 0.867000
-0.022576 0.028689 0.881000
0.026377 0.006839 0.869000
0.004191 0.027163 0.867000
0.024175 -0.007451 0.867000
-0.018348 -0.035733 0.887000
-0.017943 -0.009791 0.885000
-0.013857 0.016342 0.880000
-0.002879 0.045012 0.847000
-0.002960 0.024062 0.871000
-0.021875 0.013112 0.882000
0.006030 -0.004999 0.875000
-0.009532 0.005489 0.882000
-0.004409 0.017670 0.874000
-0.002602 -0.051221 0.871000
-0.023017 -0.029063 0.884000
0.031961 0.024892 0.875000
-0.026897 -0.021326 0.880000
0.000626 -0.050921 0.872000
0.007471 -0.008240 0.875000
-0.008443 0.007304 0.882000
0.024831 0.032084 0.865000
0.000633 -0.047874 0.882000
-0.008501 -0.041621 0.888000
0.008135 0.010773 0.869000
-0.011309 0.016324 0.879000
-0.007761 -0.039384 0.887000
-0.020219 -0.021544 0.889000
-0.001876 0.042150 0.867000
0.025929 0.039606 0.866000
-0.010766 -0.049998 0.894000
0.026734 0.014707 0.869000
0.032868 -0.019515 0.880000
0.019245 -0.036123 0.870000
0.013698 0.041054 0.859000
0.024503 0.007884 0.866000
-0.008472 -0.007606 0.885000
-0.009597 -0.040525 0.888000
0.012770 -0.006745 0.868000
-0.011437 -0.039839 0.889000
0.026407 -0.013564 0.870000
0.023380 0.018179 0.864000
0.007858 -0.040791 0.878000
-0.009951 -0.029527 0.887000
0.003891 -0.039798 0.880000
0.030845 0.015511 0.874000
0.020987 -0.026394 0.868000
0.005696 -0.037582 0.879000
-0.029659 -0.023032 0.876000
-0.020060 0.017468 0.882000
-0.000454 -0.049769 0.877000
0.011986 0.021710 0.863000
0.018025 0.008212 0.863000
-0.005564 -0.030588 0.886000
0.022391 -0.014945 0.867000
-0.012465 0.006593 0.884000
0.000991 -0.021639 0.878000
0.034356 -0.010835 0.881000
-0.004818 -0.024669 0.883000
0.000985 0.016194 0.872000
-0.000093 -0.037347 0.882000
0.007741 0.024608 0.865000
-0.027920 -0.027059 0.878000
0.018337 0.019887 0.861000
-0.012887 -0.029560 0.888000
0.030091 0.018368 0.873000
0.007723 0.031300 0.863000
0.010663 -0.012146 0.871000
0.020630 -0.025322 0.868000
0.028980 0.015117 0.872000
0.008532 -0.001394 0.873000
0.033993 -0.018449 0.881000
0.012785 -0.010687 0.869000
-0.012479 -0.007606 0.885000
0.019778 0.014234 0.862000
0.009923 0.003262 0.869000
-0.005545 -0.010859 0.883000
-0.004450 -0.022100 0.882000
0.010984 0.001115 0.868000
-0.017420 0.035778 0.877000
0.022416 -0.023536 0.868000
-0.022213 0.006208 0.881000
-0.007362 -0.021762 0.883000
-0.006658 -0.032411 0.886000
-0.020106 -0.011235 0.884000
0.021271 -0.006366 0.865000
-0.005935 -0.041940 0.887000
-0.003736 -0.038931 0.885000
-0.024444 -0.021762 0.883000
0.005298 0.008667 0.873000
-0.018993 0.009493 0.883000
0.025362 -0.035447 0.871000
0.016719 -0.021775 0.869000
-0.005915 -0.025061 0.884000
-0.021101 0.034452 0.880000
-0.010188 0.026724 0.876000
-0.019334 0.017105 0.882000
-0.018121 0.040064 0.876000
0.027450 0.019357 0.869000
0.024560 -0.017105 0.868000
0.028687 -0.019742 0.874000
0.003529 -0.026759 0.880000
-0.001166 0.023676 0.870000
0.024975 -0.025380 0.870000
0.009820 0.040748 0.860000
0.012370 0.006807 0.865000
0.023353 0.023485 0.863000
0.030451 0.029147 0.873000
0.005657 0.008307 0.873000
-0.006598 -0.049464 0.878000
0.028523 0.037598 0.869000
-0.005205 -0.030257 0.887000
-0.001524 0.025824 0.870000
0.005670 -0.021925 0.875000
0.011022 -0.018598 0.871000
0.001334 0.037824 0.866000
-0.012535 -0.038375 0.889000
0.019201 -0.022464 0.868000
0.005310 -0.017243 0.875000
-0.005558 -0.033832 0.885000
0.004171 0.042666 0.863000
-0.028610 -0.028472 0.877000
-0.016448 0.009129 0.883000
-0.014740 0.041841 0.868000
-0.016542 -0.020423 0.888000
-0.000821 -0.030155 0.884000
-0.030020 -0.022311 0.876000
0.024119 0.018556 0.865000
0.004808 0.048321 0.850000
0.032831 -0.012257 0.879000
0.008453 0.021048 0.865000
-0.006864 -0.052709 0.866000
-0.032183 -0.023753 0.876000
-0.006935 0.019490 0.875000
0.016546 0.039686 0.860000
0.013826 -0.005310 0.867000
-0.021975 -0.029129 0.886000
0.023900 -0.033616 0.870000
-0.020716 0.037669 0.879000
-0.009918 -0.014874 0.884000
-0.000093 -0.039933 0.883000
0.027903 -0.012518 0.872000
0.033593 -0.008649 0.880000
0.022339 -0.003161 0.865000
-0.012380 0.019557 0.878000
-0.010922 0.019896 0.877000
-0.010305 -0.025118 0.886000
-0.007329 0.015238 0.879000
0.025187 0.038849 0.865000
-0.024361 0.022499 0.880000
-0.009055 -0.050862 0.871000
-0.024272 -0.014242 0.890000
-0.022782 0.039298 0.875000
0.004542 0.031409 0.866000
-0.030020 -0.023753 0.876000
0.009923 0.002904 0.869000
-0.005551 -0.025061 0.884000
0.015113 0.028680 0.859000
0.031673 -0.010424 0.877000
0.022084 -0.030716 0.869000
0.033631 -0.028965 0.881000
-0.003732 -0.036704 0.884000
-0.004791 0.011607 0.878000
0.027123 -0.001031 0.870000
0.019179 -0.017086 0.867000
-0.013222 -0.017825 0.886000
-0.000092 0.034339 0.868000
-0.004087 0.010934 0.882000
0.015165 0.013170 0.862000
-0.025839 -0.026064 0.881000
0.004978 -0.040884 0.880000
0.015646 -0.019629 0.869000
-0.015793 -0.013829 0.887000
-0.009586 -0.033908 0.887000
-0.020015 0.031916 0.880000
-0.016831 -0.002139 0.884000
0.023736 0.018534 0.864000
0.014472 0.013185 0.863000
-0.019014 0.002591 0.884000
0.021527 0.023785 0.861000
0.014506 0.003603 0.865000
0.009923 0.001116 0.869000
-0.005495 0.031015 0.875000
0.020487 0.013524 0.862000
-0.012115 -0.018897 0.885000
0.000269 -0.015875 0.879000
0.027839 0.023318 0.870000
0.019778 0.010331 0.862000
0.027154 -0.010712 0.871000
-0.015271 0.024255 0.878000
0.025245 0.008607 0.867000
-0.019488 -0.026301 0.889000
0.002078 -0.014066 0.879000
-0.007750 0.045308 0.846000
0.015095 0.035709 0.858000
0.006766 -0.026668 0.877000
0.028654 -0.011814 0.873000
0.024889 0.003254 0.867000
-0.010316 -0.033543 0.887000
-0.017943 -0.006149 0.885000
-0.024306 0.036180 0.878000
-0.011412 -0.044860 0.887000
-0.010537 0.033536 0.875000
0.022642 0.012830 0.863000
0.004621 -0.028602 0.881000
-0.015793 -0.014559 0.887000
-0.021077 0.037669 0.879000
0.012484 -0.028342 0.873000
-0.000449 -0.052116 0.868000
-0.009828 -0.049712 0.876000
0.021345 -0.021750 0.868000
-0.001182 -0.034806 0.882000
-0.018224 0.022162 0.881000
-0.015428 -0.038289 0.887000
-0.003741 -0.029129 0.886000
-0.009221 -0.046320 0.887000
0.002406 0.033586 0.867000
0.009832 0.034062 0.861000
0.024147 0.002181 0.866000
0.012398 -0.002455 0.867000
0.022313 0.002888 0.864000
-0.002635 -0.048600 0.882000
0.003533 -0.042381 0.881000
-0.015480 -0.029627 0.890000
-0.024361 0.029019 0.880000
0.026346 0.011118 0.868000
0.022642 0.013540 0.863000
0.013067 0.013200 0.864000
0.008561 -0.032406 0.876000
0.003816 0.042666 0.863000
-0.001551 -0.029096 0.885000
-0.005539 -0.016292 0.882000
0.013730 0.024494 0.861000
0.003816 0.041956 0.863000
0.003521 -0.011520 0.878000
-0.019831 -0.035408 0.888000
0.027544 -0.018620 0.872000
0.004961 -0.008259 0.877000
0.001339 0.024006 0.869000
-0.001876 0.039652 0.867000
0.010565 0.025972 0.863000
0.006915 0.047677 0.851000
0.014150 0.005383 0.865000
-0.014664 -0.005784 0.885000
0.032034 -0.004649 0.877000
-0.004731 0.042150 0.867000
0.008116 0.013603 0.867000
-0.015358 0.009856 0.883000
0.008502 0.007921 0.870000
0.008561 -0.035651 0.876000
-0.000804 0.045257 0.865000
-0.014532 0.031086 0.877000
-0.013983 -0.023713 0.888000
0.027123 0.003266 0.870000
0.005702 -0.044868 0.880000
0.028621 0.000402 0.872000
-0.012005 0.032529 0.877000
0.029766 -0.002115 0.874000
0.011958 0.028038 0.861000
0.013906 -0.029028 0.872000
-0.017195 0.002227 0.884000
-0.014565 0.019580 0.879000
-0.013088 0.024227 0.877000
-0.023637 0.017791 0.880000
0.006997 0.043630 0.861000
0.002754 0.043071 0.864000
0.017588 0.028680 0.859000
0.025602 0.007536 0.867000
0.007070 0.011501 0.870000
-0.027952 -0.018769 0.879000
0.010305 -0.008202 0.871000
0.020203 -0.005298 0.865000
0.007706 0.043630 0.861000
0.024447 0.029914 0.864000
0.013906 -0.030104 0.872000
0.024063 0.039469 0.863000
0.028360 -0.036690 0.875000
-0.010885 0.034577 0.874000
-0.000805 -0.053127 0.867000
-0.005842 0.023398 0.873000
-0.027228 -0.023472 0.879000
-0.016564 0.041222 0.870000
0.006758 -0.008610 0.876000
-0.000092 0.032628 0.870000
0.002057 0.029047 0.870000
0.012083 -0.013206 0.870000
0.007849 -0.037496 0.877000
0.008590 -0.043370 0.879000
-0.000092 0.022244 0.870000
0.022721 -0.007442 0.866000
-0.012087 0.010220 0.883000
0.002045 0.040985 0.865000
-0.004813 -0.021737 0.882000
-0.011750 -0.008698 0.885000
0.010340 -0.026936 0.874000
-0.015271 0.028230 0.878000
0.016343 -0.017105 0.868000
0.005676 -0.023753 0.876000
0.000977 0.040629 0.865000
0.033669 -0.036984 0.882000
0.006774 -0.036455 0.878000
0.009144 0.027748 0.863000
0.006368 0.009374 0.872000
-0.008043 0.016305 0.878000
-0.015097 -0.027032 0.889000
-0.005188 -0.025425 0.884000
-0.020015 0.029743 0.880000
-0.012634 -0.054535 0.896000
0.007813 0.000402 0.873000
-0.005489 -0.050318 0.874000
-0.013418 0.036417 0.875000
-0.021439 0.037307 0.879000
0.006419 -0.039391 0.879000
-0.000449 0.034696 0.868000
0.033593 -0.013720 0.880000
-0.009467 0.028166 0.876000
0.023873 -0.029643 0.869000
0.025989 0.012904 0.868000
0.005316 -0.023753 0.876000
0.003838 0.020764 0.868000
0.008088 0.025646 0.864000
-0.002605 0.018347 0.872000
-0.014731 -0.035448 0.889000
0.000995 -0.037667 0.881000
-0.020833 -0.011235 0.884000
0.034032 -0.023915 0.882000
-0.026202 -0.020625 0.881000
-0.007304 0.029608 0.876000
-0.020928 -0.016037 0.888000
-0.027920 -0.027782 0.878000
-0.016774 0.018899 0.881000
-0.000092 0.028005 0.871000
0.019536 -0.016372 0.867000
0.017455 -0.029677 0.870000
-0.022704 -0.032776 0.886000
-0.017479 0.024310 0.880000
-0.015410 -0.041528 0.886000
-0.001544 -0.009747 0.881000
0.005340 -0.045231 0.880000
0.019378 0.022696 0.860000
0.026437 -0.026844 0.871000
0.006743 -0.016144 0.874000
0.030520 0.002924 0.875000
-0.024695 0.022836 0.879000
0.006758 -0.009331 0.876000
-0.008386 0.032492 0.876000
0.027967 -0.031972 0.874000
0.008210 -0.035330 0.877000
-0.004101 -0.032375 0.885000
0.021320 -0.020654 0.867000
-0.011412 -0.026241 0.887000
0.018486 -0.024965 0.868000
0.011917 0.045597 0.858000
0.006398 -0.008970 0.876000
0.017983 0.017052 0.861000
0.029080 -0.032369 0.875000
0.019135 -0.005298 0.865000
0.003860 0.010104 0.873000
-0.022704 -0.021107 0.886000
0.026919 0.023812 0.875000
0.022669 0.003599 0.864000
-0.021269 -0.026607 0.887000
0.007471 -0.006799 0.875000
0.025573 0.030339 0.866000
0.006781 -0.030346 0.879000
-0.031101 -0.021589 0.876000
0.021627 -0.005654 0.865000
-0.000820 -0.040297 0.883000
-0.026836 0.032205 0.878000
0.028327 -0.030533 0.874000
-0.002584 0.044901 0.865000
-0.004470 -0.029129 0.886000
0.006016 0.004355 0.873000
0.022110 -0.036481 0.870000
0.024147 0.001468 0.866000
0.012028 0.006102 0.866000
-0.007735 -0.010871 0.884000
0.029732 0.008667 0.873000
0.006650 0.040133 0.862000
-0.019854 -0.026667 0.889000
0.031745 -0.032155 0.879000
0.020678 -0.038987 0.870000
-0.005855 0.028854 0.875000
0.031205 0.020907 0.874000
0.019603 -0.036123 0.870000
0.002798 -0.024891 0.878000
-0.008453 -0.016674 0.883000
0.032793 -0.002125 0.878000
0.016585 0.013170 0.862000
0.015783 0.039195 0.857000
0.012858 -0.038447 0.874000
-0.001181 -0.048908 0.881000
0.021394 -0.034690 0.870000
0.015218 -0.000669 0.865000
0.015466 0.027973 0.859000
0.018295 0.026912 0.859000
-0.015650 0.022474 0.879000
-0.020197 -0.017134 0.888000
0.011712 -0.010687 0.869000
0.005663 0.003281 0.874000
0.024532 -0.002098 0.867000
0.031312 -0.010424 0.877000
-0.013952 -0.018189 0.886000
0.031455 -0.023163 0.881000
0.000953 0.046590 0.844000
-0.008016 0.021291 0.875000
-0.002596 0.035452 0.869000
0.016565 0.017052 0.861000
-0.022912 0.009098 0.880000
-0.011412 -0.029162 0.887000
-0.012479 -0.009791 0.885000
0.003525 -0.026005 0.879000
-0.001911 -0.033755 0.883000
-0.013088 0.030003 0.877000
0.004166 0.045455 0.862000
0.001359 -0.042792 0.882000
0.023928 -0.039749 0.871000
-0.015958 0.037540 0.876000
0.027450 0.022576 0.869000
0.001354 -0.013704 0.879000
0.023790 -0.001383 0.866000
-0.016158 -0.016019 0.887000
-0.015828 -0.026301 0.889000
0.021502 0.035438 0.860000
0.034434 -0.029757 0.883000
-0.020423 0.023640 0.882000
-0.008501 -0.043814 0.888000
-0.001477 0.046188 0.843000
0.022998 0.021710 0.863000
0.027871 0.002194 0.871000
0.029080 -0.031288 0.875000
-0.005545 0.010946 0.883000
0.021552 0.014943 0.862000
0.023131 -0.023893 0.868000
0.003178 0.009856 0.883000
0.001339 0.027225 0.869000
0.007013 0.032721 0.863000
0.024946 -0.024994 0.869000
-0.009839 0.029642 0.877000
0.009112 0.043934 0.860000
-0.018756 -0.020812 0.889000
0.028198 0.030121 0.870000
0.023818 -0.008165 0.867000
0.000270 -0.031211 0.883000
0.023184 -0.036481 0.870000
0.027154 -0.005334 0.871000
-0.023610 0.035136 0.879000
-0.001913 -0.046891 0.884000
0.013906 -0.027592 0.872000
-0.019122 -0.024471 0.889000
0.035201 -0.029063 0.884000
0.008051 0.043580 0.860000
0.006758 -0.050433 0.876000
0.024831 0.021760 0.865000
-0.014042 0.042963 0.869000
0.020987 -0.026751 0.868000
-0.005539 -0.017018 0.882000
-0.001526 0.022269 0.871000
-0.002590 0.042864 0.867000
0.030229 -0.036052 0.877000
0.024588 -0.022848 0.869000
-0.021875 -0.001772 0.882000
-0.012872 -0.025876 0.887000
0.007334 0.047064 0.859000
-0.015323 0.014548 0.881000
0.017920 0.034650 0.858000
-0.008089 -0.015947 0.883000
-0.016755 0.021413 0.880000
0.000269 -0.019109 0.878000
-0.018266 0.010220 0.883000
-0.019720 0.012037 0.883000
0.017274 0.015989 0.861000
-0.012582 0.041793 0.867000
0.008210 -0.035691 0.877000
0.023542 -0.032900 0.870000
0.004258 -0.028240 0.881000
-0.025751 0.028230 0.878000
-0.005123 0.021602 0.873000
0.024231 -0.022132 0.869000
0.027217 -0.032654 0.873000
0.014623 -0.034052 0.872000
0.022695 -0.004229 0.865000
-0.015811 -0.037236 0.888000
0.030126 0.004000 0.874000
-0.013541 0.009493 0.883000
0.008060 0.040087 0.861000
-0.010282 -0.047619 0.884000
-0.017312 -0.030726 0.890000
0.003533 -0.041293 0.881000
-0.012366 0.028920 0.877000
0.002448 -0.031176 0.882000
-0.019720 0.010946 0.883000
-0.009096 0.022011 0.875000
0.014793 0.020242 0.861000
0.021197 0.019556 0.862000
-0.009565 -0.008334 0.885000
-0.012535 -0.039839 0.889000
-0.012465 0.003318 0.884000
0.007454 0.002558 0.873000
-0.005182 -0.023943 0.883000
0.023736 0.017467 0.864000
0.005346 -0.046007 0.881000
0.003529 -0.048490 0.880000
-0.016888 -0.040114 0.887000
0.023184 -0.037555 0.870000
-0.012019 0.030398 0.878000
0.008219 -0.049826 0.878000
0.023434 -0.002452 0.866000
-0.022704 -0.024024 0.886000
-0.005654 0.044906 0.845000
-0.009586 -0.035368 0.887000
-0.021677 0.039972 0.874000
0.004176 0.037026 0.864000
-0.014698 -0.040479 0.887000
-0.018348 -0.013464 0.887000
-0.005558 -0.035653 0.885000
0.018550 -0.036881 0.871000
-0.011386 -0.018169 0.885000
0.028654 -0.011096 0.873000
-0.011591 0.039208 0.873000
-0.007735 -0.023242 0.884000
-0.000818 -0.024976 0.881000
0.014982 -0.031540 0.872000
-0.024108 -0.022514 0.884000
-0.007362 -0.048292 0.883000
-0.009221 -0.034273 0.887000
0.011354 -0.005322 0.869000
-0.011270 0.023118 0.876000
0.016286 -0.001381 0.865000
0.006065 -0.031105 0.880000
0.035161 -0.020308 0.883000
-0.018650 -0.004322 0.884000
0.018108 -0.019227 0.867000
-0.031786 -0.026607 0.875000
0.011972 0.024523 0.862000
-0.016085 0.007676 0.883000
0.008532 -0.018282 0.873000
0.027186 -0.025080 0.872000
-0.019122 -0.020446 0.889000
-0.016923 0.042654 0.870000
-0.001526 0.026571 0.871000
0.013391 0.018491 0.862000
0.011958 0.027329 0.861000
0.019445 0.003950 0.863000
-0.030380 -0.022311 0.876000
0.032395 0.002570 0.877000
0.011986 0.020999 0.863000
-0.000092 0.019379 0.870000
0.002434 -0.015478 0.877000
0.014199 -0.010317 0.868000
-0.007542 0.042971 0.862000
-0.019444 -0.013099 0.887000
0.025959 0.019312 0.867000
0.014489 0.005732 0.864000
0.018192 -0.035089 0.871000
0.024860 0.029270 0.866000
-0.017678 -0.028528 0.890000
-0.009929 -0.022904 0.885000
-0.020786 -0.000682 0.882000
0.010712 -0.036330 0.875000
0.013188 -0.027233 0.872000
-0.004807 -0.015911 0.881000
-0.014714 -0.024078 0.888000
0.008434 0.027748 0.863000
-0.017253 -0.038289 0.887000
0.001345 0.015134 0.873000
-0.008424 0.014169 0.880000
-0.000092 0.042101 0.866000
-0.007726 -0.002500 0.883000
0.022616 0.022394 0.862000
0.012356 0.011778 0.864000
0.024091 0.029202 0.864000
-0.020423 0.018557 0.882000
0.002437 -0.022723 0.878000
0.013407 0.014250 0.863000
0.028947 0.019401 0.871000
-0.002964 0.026602 0.872000
-0.024780 -0.028272 0.882000
-0.016049 0.016361 0.881000
-0.012872 -0.021861 0.887000
0.024917 -0.014604 0.868000
-0.001526 0.027288 0.871000
-0.005325 0.044717 0.848000
-0.021173 -0.006498 0.883000
0.000991 -0.015134 0.878000
-0.017923 0.003682 0.884000
0.012829 -0.028310 0.872000
-0.024723 0.026483 0.880000
0.032906 -0.032591 0.881000
-0.026897 -0.026397 0.880000
0.020630 -0.024965 0.868000
0.011752 -0.024362 0.872000
0.004589 -0.050376 0.875000
0.000269 -0.022749 0.879000
-0.008007 0.022706 0.874000
-0.005182 -0.013403 0.883000
0.009466 0.041456 0.860000
0.013794 0.003603 0.865000
0.026079 -0.034372 0.871000
0.007368 0.030945 0.863000
0.009165 0.020336 0.865000
0.018150 -0.028213 0.869000
0.007005 0.036940 0.862000
0.005618 0.021096 0.867000
-0.016486 -0.003599 0.885000
0.012858 -0.034850 0.874000
0.000996 -0.031902 0.882000
0.000265 0.043477 0.865000
-0.005929 -0.038246 0.886000
-0.000089 0.045841 0.843000
0.007496 -0.037539 0.878000
0.007831 -0.007880 0.875000
0.031348 -0.029227 0.878000
0.012441 -0.013564 0.870000
-0.018204 0.024310 0.880000
0.006412 -0.038984 0.878000
0.011563 0.043478 0.858000
-0.026535 -0.023137 0.880000
0.021222 0.009633 0.863000
0.014828 0.009278 0.863000
0.019157 -0.012076 0.866000
0.012097 -0.017523 0.871000
-0.010316 -0.029892 0.887000
-0.009963 -0.039063 0.888000
0.003838 0.019692 0.868000
-0.003330 0.016950 0.874000
0.002448 -0.047874 0.882000
0.000981 0.026152 0.869000
0.007419 0.011846 0.869000
0.022971 0.035521 0.862000
0.025929 0.034973 0.866000
-0.011425 -0.032850 0.888000
-0.012887 -0.029195 0.888000
0.022468 -0.033974 0.870000
-0.011386 -0.006513 0.885000
0.017374 -0.010650 0.866000
0.014101 0.018491 0.862000
-0.016318 0.037901 0.876000
0.012014 0.011079 0.865000
-0.022213 0.011284 0.881000
-0.020083 0.002224 0.883000
0.012097 -0.020391 0.871000
0.004191 0.030731 0.867000
0.022695 0.000399 0.865000
0.014845 0.005021 0.864000
0.012427 -0.009256 0.869000
-0.018566 0.025397 0.880000
0.026019 -0.000672 0.869000
0.014862 0.002535 0.865000
-0.002638 -0.034118 0.883000
-0.013449 0.027115 0.877000
0.009809 0.043529 0.859000
0.008069 0.036940 0.862000
0.004899 0.030339 0.866000
0.020818 0.019887 0.861000
0.007813 -0.014689 0.873000
-0.008025 0.030329 0.876000
-0.029332 -0.020170 0.877000
-0.020083 0.013490 0.883000
-0.027920 -0.025975 0.878000
-0.003728 -0.025033 0.883000
0.030416 0.034856 0.872000
0.001354 -0.009363 0.879000
-0.019630 0.032965 0.879000
0.008590 -0.046626 0.879000
-0.017117 0.021051 0.880000
-0.013778 0.036777 0.875000
0.016267 0.002532 0.864000
-0.019356 0.011310 0.883000
-0.008328 0.040864 0.870000
0.004899 0.024993 0.866000
-0.011697 0.013822 0.881000
0.007697 0.044641 0.860000
-0.020786 0.016016 0.882000
0.006383 -0.018303 0.874000
-0.009906 0.001861 0.883000
0.028165 0.031517 0.869000
0.019179 -0.016372 0.867000
0.013698 0.036458 0.859000
-0.003715 -0.018428 0.880000
0.024447 0.029202 0.864000
0.013203 -0.030498 0.873000
-0.019697 0.022187 0.882000
-0.002238 0.035094 0.869000
-0.004829 -0.035653 0.885000
0.034797 -0.033755 0.883000
0.020039 0.038534 0.858000
0.025304 -0.021059 0.869000
-0.021950 -0.013069 0.885000
-0.015306 0.018515 0.880000
-0.013133 0.015256 0.880000
0.013762 0.013895 0.863000
0.030057 0.037010 0.872000
-0.009514 0.045066 0.848000
0.028720 -0.030208 0.875000
0.002779 0.015476 0.872000
0.013578 -0.038807 0.874000
-0.013999 -0.030325 0.889000
-0.001477 0.045841 0.843000
0.026765 -0.010341 0.870000
0.019112 0.000043 0.864000
-0.001887 -0.050921 0.872000
-0.006485 0.043376 0.863000
0.033955 -0.004303 0.880000
0.035201 -0.032338 0.884000
0.018273 0.037828 0.858000
0.003131 0.016514 0.870000
0.009912 0.006116 0.868000
0.031637 0.011220 0.876000
0.020226 -0.015640 0.866000
0.002054 0.020787 0.869000
-0.008098 -0.047983 0.884000
0.019847 -0.007434 0.865000
0.024119 0.007163 0.865000
0.021172 0.022368 0.861000
-0.012493 -0.020742 0.886000
-0.019720 0.014944 0.883000
0.014297 -0.039526 0.874000
-0.014093 -0.047107 0.895000
-0.000092 0.039606 0.866000
-0.017098 0.026815 0.879000
-0.009597 -0.045276 0.888000
0.015718 -0.037685 0.873000
0.019938 -0.031074 0.869000
-0.004040 0.021218 0.872000
0.008561 -0.031324 0.876000
0.002409 0.025051 0.868000
-0.014615 0.012749 0.882000
0.032358 0.014826 0.876000
-0.002587 0.044596 0.866000
0.020062 0.031508 0.859000
-0.001913 -0.027244 0.884000
-0.018971 0.020009 0.882000
0.001331 0.044138 0.864000
0.002795 -0.018726 0.877000
0.029732 0.005073 0.873000
-0.000805 0.037511 0.867000
-0.017292 -0.021910 0.889000
-0.006286 -0.033832 0.885000
-0.004465 -0.039660 0.885000
-0.006293 -0.047362 0.886000
-0.009180 -0.047929 0.883000
-0.018286 -0.001412 0.884000
0.030845 0.012274 0.874000
0.032432 -0.010798 0.878000
0.019245 -0.032184 0.870000
0.023928 -0.038674 0.871000
0.025245 0.013603 0.867000
-0.020083 -0.009042 0.883000
0.024532 0.000400 0.867000
-0.021610 -0.028764 0.886000
-0.005199 -0.043716 0.886000
0.007849 -0.037135 0.877000
0.017116 -0.032938 0.871000
0.027839 0.015798 0.870000
0.014506 0.003959 0.865000
0.017435 -0.023205 0.869000
0.031961 0.026333 0.875000
0.009240 -0.010365 0.872000
0.020109 0.021659 0.861000
-0.002243 0.021552 0.871000
0.004887 0.037026 0.864000
0.024231 -0.026782 0.869000
-0.026113 0.030398 0.878000
0.034032 -0.030813 0.882000
0.029013 -0.002831 0.873000
0.026109 -0.037641 0.872000
-0.006215 0.032095 0.875000
0.031205 0.030260 0.874000
-0.011386 -0.008698 0.885000
-0.014532 0.030003 0.877000
-0.001185 -0.028700 0.884000
0.020273 -0.023179 0.868000
0.008748 0.045650 0.859000
0.007454 -0.017922 0.873000
0.012284 0.037872 0.859000
0.008590 -0.044456 0.879000
-0.026897 -0.027121 0.880000
-0.009221 -0.032448 0.887000
0.009240 -0.011801 0.872000
0.016979 0.003599 0.864000
0.025720 -0.035447 0.871000
-0.004818 0.010946 0.883000
-0.019675 0.026151 0.881000
-0.010212 0.016666 0.878000
-0.016850 -0.003963 0.885000
-0.017801 0.032205 0.878000
0.029732 0.011541 0.873000
0.028295 -0.014329 0.873000
0.021197 0.015653 0.862000
-0.005842 0.024117 0.873000
-0.008089 -0.015220 0.883000
-0.019312 0.025063 0.881000
0.022416 -0.025679 0.868000
0.026734 0.002904 0.869000
-0.017821 0.028624 0.879000
-0.010513 0.039208 0.873000
-0.008626 0.043427 0.864000
-0.006009 0.044611 0.846000
0.016267 0.001109 0.864000
0.031169 0.038130 0.873000
0.004876 0.043681 0.862000
0.012484 -0.031576 0.873000
-0.013088 0.023866 0.877000
0.012829 -0.026874 0.872000
-0.019854 -0.019714 0.889000
0.031419 -0.021688 0.880000
0.031601 0.024532 0.875000
-0.021851 0.008021 0.881000
-0.003698 0.015907 0.876000
0.027481 0.007563 0.870000
0.002078 -0.013704 0.879000
0.033554 -0.001042 0.879000
0.004249 -0.033964 0.879000
0.021036 -0.039345 0.870000
-0.009221 -0.030257 0.887000
-0.030345 -0.026607 0.875000
0.018735 0.006436 0.863000
-0.016486 -0.003963 0.885000
0.010895 0.030164 0.861000
-0.021149 0.006215 0.882000
-0.000450 0.024392 0.870000
-0.010669 -0.023295 0.886000
-0.021149 0.011660 0.882000
0.017394 -0.013517 0.867000
-0.012843 -0.015983 0.885000
0.021295 -0.010294 0.866000
0.017690 -0.001735 0.864000
0.007488 -0.032443 0.877000
0.030229 -0.035691 0.877000
-0.011009 -0.016329 0.884000
-0.011803 -0.038741 0.889000
-0.018390 -0.016787 0.889000
-0.004409 0.017310 0.874000
0.009134 0.032683 0.862000
-0.021464 0.032279 0.880000
-0.013449 0.028559 0.877000
0.004249 -0.035049 0.879000
-0.011386 -0.005056 0.885000
-0.002272 -0.011936 0.882000
0.029766 0.000403 0.874000
-0.012535 -0.036180 0.889000
-0.022576 0.018899 0.881000
0.003843 0.016853 0.869000
0.007394 0.018221 0.866000
-0.017923 0.005501 0.884000
-0.023407 -0.019626 0.885000
0.030520 -0.004999 0.875000
0.027999 0.027413 0.875000
0.007368 0.032721 0.863000
0.004910 0.016119 0.868000
0.009621 -0.027296 0.874000
-0.009521 0.012735 0.881000
-0.016812 0.007676 0.883000
-0.016213 -0.032557 0.890000
-0.014664 -0.009791 0.885000
-0.003008 -0.040752 0.885000
0.030881 0.008686 0.875000
-0.020446 0.005858 0.883000
0.031241 0.014449 0.875000
0.032756 0.017008 0.877000
0.023763 0.008943 0.865000
0.013376 0.024140 0.861000
0.033554 -0.002127 0.879000
-0.000456 -0.038073 0.882000
0.021036 -0.039703 0.870000
-0.022550 0.033365 0.880000
0.014914 -0.012461 0.868000
0.029834 -0.034209 0.876000
-0.019122 -0.021178 0.889000
-0.026143 0.025368 0.879000
-0.014332 -0.017845 0.887000
-0.007379 -0.025818 0.885000
-0.021439 0.036221 0.879000
0.027903 -0.007494 0.872000
0.024946 -0.024278 0.869000
0.018129 -0.022821 0.868000
-0.008806 0.005126 0.882000
0.007505 -0.044456 0.879000
0.009250 -0.019000 0.873000
-0.023556 0.041192 0.877000
0.032071 -0.011159 0.878000
-0.012115 -0.001778 0.885000
0.028588 0.021552 0.871000
0.000991 -0.022000 0.878000
-0.008357 0.034178 0.873000
0.019938 -0.032147 0.869000
-0.008472 -0.010884 0.885000
0.026346 0.018263 0.868000
0.034395 -0.029361 0.882000
-0.001181 -0.011197 0.881000
0.019513 -0.012789 0.866000
0.028654 -0.014689 0.873000
-0.008089 -0.002500 0.883000
-0.010340 -0.039473 0.889000
-0.015793 -0.043035 0.887000
0.031637 0.005091 0.876000
-0.014381 -0.031825 0.890000
-0.014365 -0.029960 0.889000
0.015359 -0.038762 0.873000
0.016230 0.011750 0.862000
0.009621 -0.025857 0.874000
-0.014532 0.032529 0.877000
-0.026776 -0.033215 0.888000
0.023024 0.012133 0.864000
0.008901 -0.008230 0.874000
-0.013826 0.023894 0.878000
0.024286 -0.040108 0.871000
0.001720 -0.038392 0.881000
0.016041 -0.031504 0.871000
-0.011009 -0.012327 0.884000
0.008512 0.006854 0.871000
0.007402 0.013960 0.867000
0.028262 0.026602 0.872000
0.029013 -0.007862 0.873000
-0.022163 0.037307 0.879000
0.011631 0.018513 0.863000
0.001360 -0.029757 0.883000
0.021222 0.005371 0.863000
-0.001542 -0.022050 0.880000
-0.019356 -0.002500 0.883000
0.029406 -0.002475 0.874000
-0.005902 -0.017381 0.882000
0.023353 0.029879 0.863000
0.026796 -0.018957 0.871000
-0.023407 -0.017805 0.885000
-0.004758 0.025884 0.872000
-0.018142 0.037944 0.877000
-0.009467 0.019873 0.876000
-0.022576 0.016723 0.881000
0.008738 0.047010 0.858000
0.027935 -0.028342 0.873000
0.029406 -0.009669 0.874000
-0.016736 0.026092 0.879000
0.024119 0.007875 0.865000
-0.001915 -0.028732 0.885000
0.010908 0.026297 0.862000
0.026796 -0.024334 0.871000
