0.015970 -0.002877 0.887000
-0.007708 0.034128 0.881000
0.020389 0.018368 0.873000
-0.046570 0.015298 0.862000
-0.032952 0.001869 0.887000
-0.012969 0.020787 0.869000
0.001726 0.033881 0.884000
-0.019071 0.017947 0.870000
0.013138 -0.035975 0.893000
0.005657 0.022320 0.873000
0.042495 -0.011704 0.892000
-0.006726 -0.008797 0.895000
0.028424 0.020618 0.877000
0.012403 -0.008777 0.893000
-0.022364 -0.003242 0.887000
0.002782 0.012978 0.873000
0.013951 -0.018436 0.898000
-0.046816 0.013847 0.860000
0.008462 -0.025628 0.904000
-0.002241 0.018305 0.870000
-0.036442 -0.008033 0.892000
0.042912 0.017389 0.878000
0.022502 -0.022922 0.900000
-0.040526 -0.009880 0.893000
-0.038969 -0.006924 0.891000
-0.035707 0.012993 0.874000
0.030618 -0.023636 0.899000
-0.034895 -0.004718 0.890000
0.041995 -0.018784 0.897000
0.035323 0.005103 0.878000
-0.018535 -0.015813 0.896000
0.025465 -0.022922 0.900000
0.016391 -0.032924 0.890000
-0.021116 -0.014338 0.896000
0.029800 0.016970 0.875000
-0.031407 -0.013585 0.895000
0.039247 0.025177 0.885000
-0.040159 -0.013923 0.893000
-0.028936 -0.000686 0.887000
-0.024472 0.000407 0.884000
0.012856 -0.024376 0.899000
-0.045163 0.010860 0.876000
0.003989 -0.022230 0.902000
0.011393 0.019783 0.872000
0.018016 -0.018436 0.898000
0.035152 -0.011337 0.892000
0.033910 -0.019544 0.898000
-0.021801 0.006194 0.879000
-0.012366 0.009789 0.877000
-0.002998 0.007304 0.882000
-0.004802 0.032279 0.880000
-0.012843 0.003322 0.885000
-0.040510 0.020787 0.869000
-0.045051 -0.010921 0.888000
-0.017175 0.031662 0.883000
-0.027602 0.022550 0.868000
-0.043721 0.011581 0.876000
-0.046446 0.002199 0.873000
0.041854 -0.013570 0.894000
0.040981 -0.010958 0.891000
0.029047 0.011195 0.874000
-0.015508 0.016892 0.871000
0.021467 0.018009 0.873000
0.042590 -0.021665 0.894000
-0.006016 -0.021046 0.899000
0.004574 0.013681 0.872000
0.034994 -0.006900 0.888000
-0.032246 0.020406 0.868000
-0.043369 -0.014258 0.891000
-0.012046 0.033727 0.880000
0.000631 0.030071 0.879000
0.034225 -0.004337 0.887000
-0.009761 0.020095 0.870000
-0.007296 0.028134 0.875000
0.030515 -0.015444 0.896000
0.021391 -0.024403 0.900000
-0.007840 -0.009913 0.896000
0.030800 0.000770 0.883000
-0.020503 0.026899 0.870000
0.000269 0.031953 0.881000
0.020031 -0.006542 0.889000
0.036946 -0.010224 0.891000
-0.035341 -0.008767 0.892000
-0.012712 0.030329 0.876000
0.020787 -0.008381 0.890000
-0.007078 -0.006572 0.893000
-0.004152 -0.017657 0.896000
0.022477 -0.024746 0.899000
-0.037779 0.015476 0.872000
0.017895 0.010835 0.874000
0.015623 -0.004342 0.888000
-0.008686 0.023318 0.870000
-0.032144 -0.015059 0.895000
0.009095 -0.006572 0.893000
0.043352 0.025599 0.887000
-0.020539 -0.002877 0.887000
-0.010212 0.031844 0.878000
0.030590 0.019896 0.877000
0.024505 -0.008767 0.892000
-0.041103 0.013353 0.874000
0.037020 0.024421 0.884000
-0.017499 0.004395 0.881000
-0.022339 -0.001415 0.886000
-0.019619 -0.017269 0.895000
-0.039435 0.000044 0.885000
-0.033054 0.007287 0.880000
0.024482 0.022448 0.878000
0.037534 0.004385 0.879000
0.037853 0.018473 0.878000
-0.021512 0.002948 0.882000
0.015463 -0.022922 0.900000
-0.013556 0.005137 0.884000
0.039524 0.013728 0.875000
-0.006733 -0.015076 0.896000
0.002856 -0.017657 0.896000
-0.039212 0.006201 0.880000
0.035563 0.009047 0.875000
0.015412 -0.016200 0.897000
0.042543 -0.012820 0.893000
0.047787 -0.009459 0.888000
0.048098 -0.007988 0.887000
-0.024723 0.037349 0.880000
0.014992 -0.013202 0.894000
0.011824 -0.034969 0.905000
0.015718 0.012619 0.873000
0.026288 0.021725 0.878000
0.009599 0.016552 0.872000
0.017431 -0.004337 0.887000
0.037606 -0.021392 0.898000
0.051283 -0.011534 0.879000
-0.030235 -0.009512 0.893000
-0.033341 0.038348 0.878000
0.006368 0.020141 0.872000
0.019665 -0.006542 0.889000
-0.030530 0.029405 0.870000
0.040247 -0.010591 0.891000
-0.011564 0.016175 0.871000
0.016625 0.029118 0.883000
0.022855 0.029548 0.885000
-0.011578 0.015476 0.872000
-0.025621 -0.001050 0.886000
0.021319 -0.016938 0.897000
0.035766 -0.008006 0.889000
0.024956 0.001496 0.882000
-0.007612 0.021528 0.870000
0.012844 0.019446 0.873000
-0.010041 -0.011743 0.895000
0.012947 0.027208 0.880000
0.027996 -0.018066 0.898000
0.027608 0.011195 0.874000
0.006544 -0.012494 0.896000
0.040204 0.022187 0.882000
-0.016206 0.017947 0.870000
0.045594 -0.006535 0.888000
0.051283 -0.010086 0.879000
-0.004758 0.023730 0.872000
-0.046300 0.009919 0.857000
-0.007102 -0.017657 0.896000
0.022571 0.011554 0.874000
0.031410 -0.006916 0.890000
-0.018044 -0.004352 0.890000
0.024928 0.002582 0.881000
-0.008796 0.034491 0.881000
0.015463 -0.021440 0.900000
-0.024667 0.008355 0.878000
0.022905 0.014416 0.873000
0.013188 0.017270 0.872000
-0.014681 0.002596 0.886000
0.024725 -0.021440 0.900000
-0.027228 0.036945 0.879000
0.033208 -0.021786 0.899000
0.019798 -0.013954 0.895000
-0.024108 0.000407 0.884000
-0.017718 -0.007666 0.892000
0.038804 0.013728 0.875000
0.014575 -0.008391 0.891000
0.012153 0.010847 0.875000
0.009261 0.011914 0.874000
-0.020951 -0.005810 0.889000
0.029711 -0.009891 0.894000
-0.044905 0.007271 0.878000
0.013982 -0.022551 0.900000
-0.025458 0.023979 0.868000
-0.030328 0.004779 0.885000
0.007479 0.024560 0.876000
-0.010537 0.028854 0.875000
0.042454 0.008696 0.876000
-0.029388 0.024693 0.868000
0.021977 0.024283 0.879000
-0.031713 0.006585 0.883000
-0.030103 0.026837 0.868000
-0.040522 0.010511 0.877000
0.028351 0.028852 0.886000
-0.021366 0.010499 0.876000
-0.024029 0.024693 0.868000
0.042939 0.025205 0.886000
-0.009446 0.027742 0.874000
0.047626 -0.002506 0.885000
-0.018524 0.034012 0.878000
-0.017797 -0.015444 0.896000
-0.038766 0.019021 0.870000
0.043486 0.011207 0.875000
-0.003045 -0.015444 0.896000
-0.036786 0.013713 0.874000
0.005812 -0.016938 0.897000
-0.035748 -0.010247 0.893000
-0.044182 0.006909 0.878000
-0.034865 0.006925 0.880000
-0.012267 0.016873 0.870000
0.033578 -0.021046 0.899000
-0.003774 -0.007315 0.894000
0.023824 -0.011362 0.894000
0.021058 -0.003603 0.886000
0.028457 0.006187 0.878000
0.049417 -0.022000 0.878000
0.027987 0.029217 0.886000
0.027257 -0.028784 0.898000
0.021640 -0.014690 0.895000
0.000274 -0.005850 0.895000
0.018742 0.003303 0.880000
-0.033492 0.005126 0.882000
-0.003698 0.010499 0.876000
-0.035792 0.000772 0.885000
0.044257 0.013744 0.876000
-0.017638 -0.002149 0.888000
-0.041338 0.007279 0.879000
-0.046323 0.017112 0.864000
-0.025004 -0.006550 0.890000
-0.044004 -0.011665 0.889000
0.017214 0.022037 0.876000
-0.009873 0.008736 0.880000
0.002814 0.032752 0.883000
0.040605 0.014449 0.875000
0.014673 -0.016200 0.897000
-0.024057 0.025079 0.869000
0.013888 -0.013202 0.894000
0.016950 0.027239 0.881000
-0.041997 -0.011717 0.893000
0.035758 -0.019175 0.898000
-0.046499 0.004000 0.874000
-0.022652 0.017589 0.870000
0.008163 0.015476 0.872000
-0.036279 -0.003246 0.888000
-0.025845 0.018999 0.869000
0.010266 -0.021416 0.899000
0.011445 0.009057 0.876000
-0.015254 0.032529 0.877000
-0.003406 -0.020193 0.894000
0.027766 0.005108 0.879000
0.022804 -0.000320 0.883000
0.038127 0.008336 0.876000
-0.013177 0.005858 0.883000
-0.040482 0.001863 0.884000
0.046533 -0.018169 0.885000
0.026169 0.017310 0.874000
0.014049 0.004757 0.881000
-0.040892 -0.000321 0.885000
0.035806 0.022162 0.881000
0.027466 0.002582 0.881000
0.020214 0.026151 0.881000
0.028176 -0.006197 0.892000
0.028917 0.002219 0.881000
-0.021854 -0.013969 0.896000
-0.011009 0.004410 0.884000
-0.032791 0.032381 0.873000
0.010447 0.030935 0.883000
-0.047656 0.008498 0.856000
-0.042588 -0.006916 0.890000
0.009115 -0.009165 0.895000
-0.020632 -0.007290 0.891000
0.039824 -0.019175 0.898000
-0.017350 -0.008767 0.892000
0.040340 -0.003599 0.885000
0.031323 -0.023610 0.898000
-0.001533 0.011207 0.875000
-0.026591 0.027973 0.870000
-0.017195 0.002227 0.884000
-0.013794 0.010499 0.876000
-0.044854 0.005458 0.877000
0.018038 0.026876 0.881000
-0.029301 0.001139 0.887000
-0.012620 -0.013585 0.895000
0.017515 0.017649 0.873000
0.031673 0.019174 0.877000
0.038562 0.026299 0.886000
0.010612 -0.026537 0.897000
0.010152 -0.002151 0.889000
0.041386 0.024057 0.884000
0.006361 0.018326 0.871000
0.003493 0.017967 0.871000
-0.009511 0.033365 0.880000
-0.009761 0.020453 0.870000
-0.014042 0.021503 0.869000
-0.003334 0.027053 0.875000
0.005006 0.004415 0.885000
0.010254 -0.017696 0.898000
0.033762 0.016609 0.875000
-0.017021 -0.010994 0.894000
0.013733 0.031334 0.884000
-0.024013 -0.011362 0.894000
0.018996 0.010127 0.875000
-0.035752 0.001499 0.884000
0.023397 0.022810 0.878000
0.018317 0.023145 0.877000
-0.020574 0.014056 0.873000
-0.002246 0.014399 0.872000
0.032469 0.004385 0.879000
0.022352 -0.029760 0.894000
-0.042134 0.014416 0.873000
0.018568 -0.007274 0.889000
0.033023 -0.013570 0.894000
0.027196 -0.015813 0.896000
-0.021561 0.001135 0.884000
0.021467 0.017649 0.873000
-0.035870 0.009078 0.878000
-0.042684 -0.009501 0.892000
-0.002264 0.030433 0.879000
0.022339 0.005108 0.879000
-0.015393 0.003322 0.885000
0.028753 0.018792 0.876000
-0.030530 0.018305 0.870000
0.027608 0.015152 0.874000
0.031586 -0.014690 0.895000
-0.007312 0.030003 0.877000
0.012111 0.019424 0.872000
0.018952 0.017290 0.873000
-0.014090 0.014758 0.872000
0.037564 -0.022845 0.897000
-0.016430 0.004037 0.882000
0.019710 -0.009491 0.891000
0.040337 -0.013187 0.893000
0.008210 0.008706 0.877000
0.029047 0.012993 0.874000
-0.009662 -0.006947 0.894000
0.003878 0.027115 0.877000
-0.022138 0.034373 0.878000
-0.000809 0.015816 0.871000
-0.000093 0.009778 0.876000
0.033993 0.002219 0.881000
-0.032566 0.023594 0.867000
-0.006726 -0.012112 0.895000
0.002118 -0.012863 0.896000
0.012008 -0.004723 0.891000
-0.007287 0.011914 0.874000
0.003593 -0.011757 0.896000
-0.025621 -0.001780 0.886000
-0.031232 -0.002520 0.890000
0.028684 0.000408 0.885000
-0.016774 0.005483 0.881000
-0.045163 0.004370 0.876000
0.011085 0.024200 0.876000
-0.037443 0.005483 0.881000
0.020374 -0.036870 0.888000
0.038804 0.014809 0.875000
-0.030959 0.015835 0.872000
0.023557 -0.000684 0.884000
0.040965 0.010127 0.875000
-0.006904 0.015816 0.871000
-0.007840 -0.015076 0.896000
0.022212 0.018389 0.874000
-0.047034 0.002176 0.864000
0.039323 -0.015427 0.895000
-0.029998 0.003326 0.886000
0.005799 -0.021321 0.895000
0.034941 -0.023926 0.896000
0.033130 -0.003607 0.887000
-0.009761 0.023318 0.870000
-0.012625 0.017231 0.870000
-0.017757 -0.018354 0.894000
0.003217 -0.006579 0.894000
0.025324 -0.011375 0.895000
0.014976 -0.029727 0.893000
-0.046599 0.006032 0.856000
0.001380 -0.012863 0.896000
-0.034588 0.015134 0.873000
0.016926 -0.024746 0.899000
-0.015165 -0.007307 0.893000
0.020512 -0.013202 0.894000
0.025324 -0.010638 0.895000
0.031312 0.006541 0.877000
-0.026927 -0.017965 0.893000
-0.043294 0.000770 0.882000
0.013969 0.023118 0.876000
-0.035778 0.022881 0.867000
0.011602 -0.001418 0.888000
0.015623 -0.005073 0.888000
-0.027352 0.003678 0.883000
0.002487 -0.010282 0.896000
0.013203 0.012619 0.873000
0.049224 -0.010472 0.881000
0.026438 0.000407 0.883000
0.030590 0.006901 0.877000
0.023651 0.010835 0.874000
-0.029532 -0.010994 0.894000
0.040015 -0.013570 0.894000
0.035519 -0.010970 0.892000
-0.001902 0.030795 0.879000
0.032395 0.006901 0.877000
-0.000092 0.017967 0.871000
-0.034111 0.018663 0.870000
0.042686 -0.018763 0.896000
0.027014 -0.004718 0.890000
0.032692 -0.014322 0.895000
-0.006912 0.014399 0.872000
-0.030636 -0.011730 0.894000
-0.032144 -0.012112 0.895000
-0.002308 -0.014707 0.896000
-0.016262 0.028788 0.873000
0.026148 -0.018805 0.898000
0.039247 -0.003235 0.885000
-0.023945 0.008716 0.878000
-0.019920 -0.008400 0.892000
-0.010130 0.024779 0.871000
0.013922 0.019446 0.873000
0.008388 -0.002537 0.896000
0.031276 0.018431 0.876000
-0.033625 0.010499 0.876000
-0.003715 0.008736 0.880000
0.024587 -0.012112 0.895000
-0.007312 0.010150 0.877000
-0.044854 0.009789 0.877000
-0.027959 0.021121 0.868000
0.006002 0.019043 0.871000
-0.037763 0.006201 0.880000
-0.014774 0.024034 0.870000
0.013226 -0.024376 0.899000
0.001345 0.023398 0.873000
0.016889 -0.016938 0.897000
-0.037207 0.001863 0.884000
0.017627 -0.017308 0.897000
0.016625 0.029481 0.883000
-0.013418 0.029574 0.875000
0.018401 0.026514 0.881000
0.022177 -0.004702 0.887000
0.016096 0.020188 0.874000
-0.021245 -0.001780 0.886000
-0.012998 0.016533 0.871000
0.017450 -0.035043 0.888000
-0.044182 0.006548 0.878000
-0.012620 -0.020216 0.895000
0.010969 -0.014707 0.896000
0.020820 0.020955 0.876000
0.003493 0.019760 0.871000
-0.004889 -0.010282 0.896000
0.040935 -0.008747 0.890000
0.025449 0.016590 0.874000
0.029409 -0.014338 0.896000
-0.015472 0.019357 0.869000
-0.024029 0.020406 0.868000
-0.016672 -0.013217 0.895000
0.037595 -0.007640 0.889000
-0.013388 0.013338 0.873000
-0.040337 0.014775 0.873000
-0.035548 -0.001784 0.888000
-0.031354 0.032381 0.873000
-0.039124 0.019021 0.870000
-0.010398 -0.007315 0.894000
-0.030302 -0.014322 0.895000
0.043635 0.017028 0.878000
-0.031677 0.006941 0.882000
0.016813 -0.011717 0.893000
0.036662 -0.013187 0.893000
-0.013710 -0.009891 0.894000
0.020076 0.010487 0.875000
0.020506 0.006187 0.878000
-0.031786 0.011568 0.875000
0.020749 0.016212 0.873000
0.044964 -0.009480 0.890000
0.038444 0.013008 0.875000
-0.011121 -0.005469 0.893000
0.030549 -0.017308 0.897000
-0.042713 -0.001413 0.885000
-0.024386 0.024693 0.868000
0.015988 -0.004342 0.888000
0.027534 -0.010270 0.895000
0.034803 0.013713 0.874000
0.011819 0.008345 0.877000
0.043352 -0.005432 0.887000
-0.043621 0.013713 0.874000
0.006175 -0.012863 0.896000
0.028735 -0.027306 0.898000
-0.026776 -0.004342 0.888000
0.032801 -0.004707 0.888000
-0.000092 0.022654 0.872000
-0.014978 0.036708 0.882000
-0.001542 0.008736 0.880000
-0.001198 -0.020193 0.894000
-0.033510 0.015134 0.873000
0.044821 0.018515 0.880000
-0.000830 -0.006939 0.893000
0.007281 -0.015444 0.896000
-0.005105 0.017589 0.870000
-0.005828 0.022628 0.871000
-0.023503 0.011568 0.875000
-0.030776 0.010511 0.877000
0.013547 0.014399 0.872000
0.038084 0.011207 0.875000
-0.021341 -0.006550 0.890000
-0.021317 -0.005810 0.889000
0.006368 0.019783 0.872000
-0.007840 -0.013232 0.896000
0.024454 0.007262 0.877000
-0.045413 0.018955 0.867000
0.027105 -0.008042 0.893000
-0.009673 -0.010638 0.895000
0.009852 -0.013585 0.895000
-0.036232 0.007993 0.878000
0.020506 0.006548 0.878000
0.021129 -0.034716 0.889000
-0.045508 -0.013616 0.897000
0.002849 0.004460 0.894000
0.010083 0.005495 0.883000
-0.008376 0.010847 0.875000
-0.033113 0.016194 0.872000
-0.033468 -0.006190 0.891000
-0.023037 0.016892 0.871000
0.016060 -0.010603 0.892000
0.036415 0.028154 0.887000
-0.015526 0.015476 0.872000
0.015898 0.029481 0.883000
0.008154 0.016892 0.871000
0.018526 -0.003972 0.887000
0.040059 -0.023163 0.895000
0.002061 0.021577 0.872000
0.020009 -0.035408 0.888000
-0.000451 0.020118 0.871000
0.011237 -0.001053 0.888000
0.015051 0.022758 0.876000
-0.015866 0.016892 0.871000
0.010932 -0.007307 0.893000
0.025973 -0.007666 0.892000
0.015500 0.027239 0.881000
-0.014074 0.016533 0.871000
0.006820 0.033153 0.884000
-0.032952 0.001139 0.887000
-0.000095 -0.017657 0.896000
0.030834 0.000407 0.884000
-0.034707 0.010499 0.876000
-0.027011 0.015476 0.872000
0.021248 -0.013202 0.894000
0.013873 -0.011350 0.893000
0.026618 -0.003981 0.889000
-0.001178 0.030433 0.879000
-0.022473 0.009789 0.877000
-0.000463 -0.020953 0.895000
0.022623 0.008336 0.876000
0.018997 -0.010236 0.892000
0.003505 0.011554 0.874000
0.015395 -0.027245 0.896000
0.036169 0.021800 0.881000
0.029213 0.004747 0.879000
0.034902 -0.014690 0.895000
-0.028936 0.000044 0.887000
-0.000092 0.017250 0.871000
0.023036 0.022448 0.878000
-0.038364 -0.010259 0.894000
0.022847 -0.024746 0.899000
-0.002994 0.032678 0.881000
0.020260 0.000770 0.883000
0.044307 0.010511 0.877000
-0.007086 -0.019457 0.894000
0.036251 -0.000320 0.883000
0.037724 0.015529 0.875000
0.044381 -0.019803 0.893000
-0.000453 0.009778 0.876000
-0.025513 -0.012112 0.895000
0.013384 0.031733 0.885000
-0.040976 0.007641 0.879000
-0.006733 -0.013600 0.896000
0.002801 0.029348 0.879000
-0.018376 0.015816 0.871000
-0.015793 0.000774 0.887000
0.006383 0.011914 0.874000
-0.015198 -0.012849 0.895000
-0.004889 -0.011757 0.896000
-0.020747 -0.015444 0.896000
0.017214 0.008336 0.876000
0.031455 0.001857 0.881000
0.017332 0.002222 0.882000
0.032582 -0.010970 0.892000
-0.049716 0.005476 0.880000
0.015412 0.008336 0.876000
0.031919 -0.013570 0.894000
0.037313 -0.010591 0.891000
0.005644 0.015816 0.871000
0.039367 -0.023926 0.896000
0.029040 -0.015076 0.896000
0.021689 0.001133 0.882000
0.021761 -0.022181 0.900000
0.001009 -0.008051 0.894000
0.006529 -0.008051 0.894000
-0.028460 -0.014322 0.895000
-0.023610 0.006917 0.879000
0.024697 -0.025856 0.899000
-0.011883 -0.009165 0.895000
-0.007840 -0.013600 0.896000
-0.001568 -0.018742 0.895000
-0.045413 0.020026 0.867000
0.035605 0.025905 0.885000
0.014265 0.016194 0.872000
0.032284 0.012633 0.874000
0.031445 -0.008024 0.891000
-0.042951 0.012648 0.875000
-0.002670 -0.020193 0.894000
-0.030811 0.037264 0.878000
-0.026887 0.021478 0.868000
0.011439 -0.032697 0.904000
0.017936 -0.013202 0.894000
0.030126 0.011554 0.874000
0.021517 0.010127 0.875000
-0.032734 -0.007657 0.891000
-0.036686 -0.004347 0.889000
0.031601 0.017690 0.875000
-0.031282 0.017250 0.871000
0.025352 -0.014338 0.896000
-0.001531 0.025224 0.874000
0.013922 0.019805 0.873000
0.012116 -0.019936 0.899000
0.028687 0.014072 0.874000
0.005650 0.014399 0.872000
-0.013371 -0.015813 0.896000
0.012756 -0.007666 0.892000
-0.016262 0.013338 0.873000
-0.029767 -0.003985 0.890000
-0.007726 0.006222 0.883000
-0.004054 0.027053 0.875000
0.020257 -0.018826 0.899000
-0.004050 0.025583 0.874000
-0.020015 0.005476 0.880000
-0.008806 0.007667 0.882000
0.022983 0.009057 0.876000
0.030486 0.015511 0.874000
-0.006222 0.028526 0.876000
-0.036401 -0.006924 0.891000
0.014272 -0.027952 0.895000
-0.026957 -0.016882 0.894000
-0.010501 0.015117 0.872000
-0.000818 0.008383 0.881000
-0.045472 0.011207 0.875000
0.006449 0.005495 0.883000
-0.031634 -0.005824 0.891000
-0.029131 0.016892 0.871000
0.001708 0.025253 0.875000
0.003170 0.031227 0.881000
-0.033113 0.031985 0.872000
-0.029566 -0.014322 0.895000
-0.008686 0.020095 0.870000
0.013339 0.029085 0.882000
0.018593 0.012260 0.873000
0.017313 0.003307 0.881000
0.029541 0.020280 0.878000
-0.032144 -0.014690 0.895000
0.042447 -0.010224 0.891000
-0.011193 0.022960 0.870000
-0.009673 -0.009165 0.895000
0.041527 0.026329 0.887000
-0.004036 0.023345 0.871000
0.048663 -0.010508 0.884000
0.043743 -0.015427 0.895000
-0.001885 0.015816 0.871000
0.045748 -0.021959 0.891000
-0.005246 -0.007315 0.894000
0.013475 -0.006924 0.891000
0.040104 -0.016919 0.896000
-0.018907 0.006194 0.879000
-0.009673 -0.012849 0.895000
0.017936 0.009417 0.876000
-0.018334 0.021145 0.869000
0.037934 -0.022845 0.897000
-0.013710 -0.009155 0.894000
-0.032923 0.024308 0.867000
-0.036314 0.005839 0.880000
-0.007454 -0.019089 0.894000
0.006727 0.015835 0.872000
-0.001939 -0.013232 0.896000
0.018505 -0.002874 0.886000
0.005358 0.032389 0.883000
-0.005614 -0.007315 0.894000
-0.001568 -0.008797 0.895000
-0.005822 0.017589 0.870000
0.018401 0.002944 0.881000
0.024138 -0.009501 0.892000
-0.030495 0.019714 0.869000
0.014942 -0.008391 0.891000
0.003134 0.017609 0.871000
0.002856 -0.010650 0.896000
0.024705 0.029946 0.886000
0.019538 -0.022551 0.900000
-0.015198 -0.013585 0.895000
0.013064 -0.001053 0.888000
0.045804 -0.002142 0.885000
-0.012005 0.031086 0.877000
-0.019474 0.015117 0.872000
-0.015271 0.032928 0.878000
-0.031568 0.028656 0.869000
0.003517 0.027115 0.877000
-0.029456 0.017589 0.870000
0.036497 -0.020284 0.898000
-0.036196 -0.014322 0.895000
0.021688 -0.027276 0.897000
-0.034747 0.020049 0.868000
-0.031527 0.000775 0.888000
-0.035063 0.000772 0.885000
-0.021586 -0.000321 0.885000
-0.016765 -0.020329 0.900000
0.032801 -0.019175 0.898000
0.027287 -0.025116 0.899000
0.010675 0.017629 0.872000
-0.019036 0.000044 0.885000
-0.019100 -0.003611 0.888000
0.010316 0.018347 0.872000
-0.036851 -0.017598 0.893000
0.041420 0.006180 0.877000
0.018484 -0.002142 0.885000
0.036538 -0.025116 0.899000
-0.001932 -0.006572 0.893000
-0.021317 -0.005079 0.889000
-0.023972 0.035860 0.879000
-0.031354 0.014056 0.873000
0.041761 -0.011337 0.892000
0.034551 -0.003968 0.886000
0.026862 0.028091 0.885000
0.022027 0.026151 0.881000
0.027073 0.003303 0.880000
-0.035064 0.023594 0.867000
-0.003690 0.025943 0.874000
-0.000451 0.023372 0.872000
0.025434 -0.002144 0.886000
0.028327 0.010475 0.874000
-0.017370 -0.009512 0.893000
-0.018245 0.037434 0.882000
-0.043459 0.001489 0.878000
-0.006959 0.009800 0.878000
0.022700 0.023559 0.879000
0.034955 0.028154 0.887000
0.028767 -0.019936 0.899000
0.043126 0.009047 0.875000
-0.045314 -0.008708 0.886000
0.030079 -0.011362 0.894000
-0.027590 0.037307 0.879000
0.010197 -0.006939 0.893000
0.029877 -0.020676 0.899000
0.015026 -0.027245 0.896000
0.008571 0.008345 0.877000
0.020553 0.003303 0.880000
0.023930 -0.018805 0.898000
0.013050 -0.000321 0.887000
0.017273 0.025006 0.879000
0.000274 -0.011757 0.896000
0.019909 -0.022922 0.900000
-0.004059 0.010139 0.876000
0.019213 0.031005 0.885000
0.005437 -0.015444 0.896000
-0.019597 -0.017618 0.894000
-0.009794 0.013338 0.873000
-0.008686 0.016873 0.870000
-0.022957 0.023264 0.868000
0.047610 -0.018748 0.878000
-0.019619 -0.013585 0.895000
-0.020128 -0.000685 0.885000
0.000643 -0.015813 0.896000
0.011313 -0.009155 0.894000
-0.015532 -0.007307 0.893000
-0.039468 -0.013938 0.894000
0.017293 0.026483 0.880000
-0.005482 0.025554 0.873000
-0.028281 0.036180 0.878000
-0.020122 0.020430 0.869000
0.027688 -0.024033 0.900000
0.040337 0.017369 0.877000
-0.040207 0.009078 0.878000
0.034842 0.010127 0.875000
0.026134 0.028819 0.885000
-0.019764 0.033190 0.885000
-0.013327 -0.005469 0.893000
0.047249 -0.020555 0.878000
-0.027991 0.026868 0.869000
-0.012611 0.019357 0.869000
-0.000464 -0.016551 0.896000
0.004273 0.033517 0.884000
0.002059 0.017609 0.871000
0.035725 0.004747 0.879000
-0.045877 -0.013246 0.897000
-0.013449 0.009067 0.877000
0.004700 -0.010282 0.896000
0.044560 0.020372 0.882000
-0.028610 0.035417 0.877000
-0.032692 0.008374 0.880000
-0.039301 0.004400 0.882000
-0.003715 0.031554 0.880000
-0.034425 0.008716 0.878000
0.022252 -0.034023 0.890000
0.012642 0.004046 0.884000
0.033042 0.009047 0.875000
-0.015567 -0.013217 0.895000
0.020868 0.023171 0.878000
0.029137 -0.024376 0.899000
0.045029 0.015564 0.877000
-0.029800 -0.006557 0.891000
0.007911 0.032789 0.884000
-0.013372 0.026243 0.872000
0.016437 0.018009 0.873000
0.024482 0.006548 0.878000
0.021108 0.017649 0.873000
0.010254 -0.018436 0.898000
-0.019685 -0.019914 0.898000
0.025595 0.023197 0.879000
0.035019 -0.019544 0.898000
-0.013342 -0.006947 0.894000
0.027967 0.010475 0.874000
-0.025875 0.017589 0.870000
0.012742 -0.005090 0.891000
-0.015885 0.015476 0.872000
-0.028474 0.004410 0.884000
0.033204 -0.007640 0.889000
0.035806 0.021800 0.881000
0.042766 0.010847 0.875000
0.023770 -0.031896 0.892000
-0.026957 -0.017250 0.894000
0.039026 0.003665 0.880000
-0.005258 -0.013232 0.896000
0.034707 -0.008747 0.890000
-0.026927 -0.009880 0.893000
0.024677 -0.001778 0.885000
0.029376 -0.013585 0.895000
-0.001168 0.022269 0.871000
0.011445 0.024200 0.876000
-0.000454 0.028198 0.877000
-0.030636 -0.011362 0.894000
0.042305 0.027090 0.888000
0.024788 -0.006176 0.889000
-0.017976 0.020787 0.869000
-0.026173 0.021835 0.868000
-0.027998 -0.008400 0.892000
0.012167 0.023839 0.876000
0.016493 0.022758 0.876000
0.042638 -0.020584 0.895000
-0.031462 0.035377 0.876000
-0.019229 -0.018721 0.894000
-0.005822 0.021528 0.870000
-0.029004 0.036903 0.878000
0.050197 -0.009363 0.879000
0.011524 0.029448 0.882000
-0.031162 0.000409 0.888000
-0.019474 0.014758 0.872000
0.042142 0.006180 0.877000
0.031241 0.016609 0.875000
0.026206 -0.021070 0.900000
0.037237 -0.019175 0.898000
0.027318 -0.021811 0.900000
0.008881 0.014040 0.872000
0.036656 0.024785 0.884000
0.046012 -0.022826 0.882000
-0.029499 -0.009880 0.893000
0.012699 -0.001053 0.888000
-0.025342 -0.005079 0.889000
0.010220 -0.010638 0.895000
0.030147 -0.015813 0.896000
-0.034335 0.002229 0.885000
-0.001168 0.016533 0.871000
0.028081 -0.003249 0.889000
-0.020197 -0.004342 0.888000
0.027734 0.006187 0.878000
-0.033064 -0.005084 0.890000
0.024111 -0.032594 0.891000
0.014982 0.015835 0.872000
-0.004520 -0.015076 0.896000
0.004331 -0.021714 0.896000
0.026281 -0.005451 0.890000
-0.000092 0.018684 0.871000
-0.001885 0.015458 0.871000
-0.007254 0.017231 0.870000
-0.005117 0.024089 0.872000
-0.022935 -0.016164 0.895000
0.008983 0.006578 0.882000
-0.012422 0.035216 0.881000
0.004950 0.010127 0.875000
-0.042269 -0.014991 0.891000
-0.043830 0.017609 0.871000
0.027657 -0.019196 0.899000
-0.004399 0.014040 0.872000
-0.012756 0.033689 0.879000
-0.001883 0.019379 0.870000
0.042406 0.012648 0.875000
0.012208 0.026092 0.879000
0.032943 0.001496 0.882000
0.027435 0.003665 0.880000
0.014510 -0.000686 0.887000
0.009874 -0.016569 0.897000
0.044447 -0.005432 0.887000
-0.040072 0.002951 0.883000
-0.036156 -0.010994 0.894000
0.015463 -0.021811 0.900000
-0.035508 -0.000686 0.887000
0.041579 -0.021345 0.896000
0.021295 -0.015444 0.896000
-0.026202 0.006208 0.881000
-0.019290 0.035900 0.880000
-0.006999 0.035296 0.883000
-0.041918 0.010860 0.876000
0.025011 -0.016938 0.897000
0.013430 -0.001784 0.888000
-0.043003 -0.012791 0.891000
0.012403 -0.030094 0.893000
0.032472 -0.005810 0.889000
-0.034738 0.000408 0.886000
-0.041261 -0.010982 0.893000
-0.009467 0.010139 0.876000
-0.047656 0.004270 0.856000
0.000987 0.012274 0.874000
0.011900 0.004768 0.883000
0.017575 0.008696 0.876000
0.037934 -0.017308 0.897000
-0.010897 0.029214 0.875000
0.005292 0.013681 0.872000
0.030608 -0.001418 0.888000
-0.005489 0.026663 0.874000
-0.005545 0.035296 0.883000
0.018547 -0.037236 0.888000
0.023291 0.011195 0.874000
0.031622 -0.015444 0.896000
-0.034628 0.012993 0.874000
0.048388 -0.015151 0.879000
0.008532 0.021961 0.873000
-0.004435 0.031157 0.879000
0.027279 0.009407 0.875000
-0.005533 0.033040 0.881000
-0.026591 0.017947 0.870000
-0.032144 -0.014322 0.895000
0.004595 0.026003 0.876000
-0.040528 0.000772 0.885000
-0.019272 -0.015444 0.896000
0.047862 -0.023392 0.876000
0.010117 0.002232 0.886000
-0.025061 -0.008400 0.892000
-0.045112 0.011207 0.875000
-0.022626 0.024364 0.869000
0.032070 -0.003611 0.888000
-0.040153 0.020072 0.869000
-0.006628 0.034167 0.882000
0.040149 -0.018046 0.897000
0.041714 -0.010591 0.891000
0.010688 0.012260 0.873000
-0.040557 0.019021 0.870000
-0.034163 -0.002520 0.890000
-0.024499 0.029832 0.872000
0.006175 -0.015444 0.896000
0.009282 0.009417 0.876000
-0.017459 0.006917 0.879000
0.051341 -0.012995 0.880000
0.008172 0.021242 0.873000
-0.012493 0.002961 0.886000
-0.014499 0.030294 0.875000
0.028767 -0.019566 0.899000
0.002118 -0.011388 0.896000
-0.019071 0.026183 0.870000
0.002487 -0.017657 0.896000
-0.001528 0.015117 0.872000
-0.037463 0.015134 0.873000
0.037876 0.027059 0.887000
0.028753 0.019152 0.876000
0.019806 0.024644 0.879000
-0.018691 0.022218 0.869000
-0.030302 -0.014690 0.895000
-0.016281 0.012274 0.874000
-0.022294 0.018305 0.870000
-0.006180 0.017947 0.870000
0.028917 0.001857 0.881000
-0.033430 -0.002887 0.890000
0.021543 -0.009857 0.891000
-0.021439 0.006917 0.879000
-0.006545 0.015816 0.871000
0.015916 0.000771 0.884000
0.005425 -0.007315 0.894000
0.007658 -0.016938 0.897000
0.020076 -0.009491 0.891000
0.047680 -0.005791 0.886000
-0.045465 0.017548 0.868000
-0.031302 -0.009134 0.892000
-0.018224 0.037029 0.881000
0.013906 0.015117 0.872000
-0.031677 0.015835 0.872000
-0.005470 0.022269 0.871000
-0.030068 0.023951 0.867000
-0.024326 -0.009501 0.892000
0.037833 -0.003603 0.886000
-0.026746 -0.002512 0.887000
0.022033 -0.028352 0.896000
0.019896 -0.000320 0.883000
-0.022858 -0.009501 0.892000
-0.024583 0.011568 0.875000
-0.009159 0.008021 0.881000
0.020099 0.021315 0.876000
-0.047767 0.002161 0.858000
-0.011883 -0.010638 0.895000
-0.018950 0.033040 0.881000
0.006361 0.019043 0.871000
-0.005246 -0.008051 0.894000
-0.010119 0.023318 0.870000
0.021852 0.018749 0.874000
-0.033379 0.008003 0.879000
-0.024386 0.020764 0.868000
-0.022678 0.028364 0.871000
-0.046376 0.018556 0.865000
0.019671 0.016571 0.873000
0.010883 -0.002151 0.889000
0.025973 -0.007299 0.892000
0.036601 0.012274 0.874000
-0.000816 0.009078 0.878000
0.019125 -0.017696 0.898000
0.011746 -0.018456 0.899000
-0.047469 0.012417 0.859000
-0.018460 0.011207 0.875000
0.023062 0.004385 0.879000
-0.025361 0.034695 0.877000
-0.022011 0.014056 0.873000
0.040887 -0.018784 0.897000
-0.019833 0.028037 0.872000
-0.013118 0.033689 0.879000
0.042939 0.025570 0.886000
-0.008806 0.035256 0.882000
-0.047358 0.002864 0.857000
-0.022858 -0.009134 0.892000
0.007650 -0.022451 0.896000
0.033839 0.019174 0.877000
0.033018 0.025512 0.884000
-0.034425 0.009078 0.878000
-0.029197 -0.012480 0.895000
0.048409 -0.010167 0.886000
-0.041209 0.001499 0.884000
-0.037218 -0.017230 0.893000
0.022778 0.001496 0.882000
-0.004525 -0.020999 0.897000
0.023850 -0.029057 0.895000
0.044848 -0.022058 0.895000
0.037492 0.018473 0.878000
-0.035148 0.034373 0.878000
-0.011777 0.000774 0.887000
0.001012 -0.012125 0.896000
0.032321 0.009767 0.875000
-0.001200 -0.008428 0.895000
0.034109 -0.001048 0.884000
-0.018842 0.010499 0.876000
0.018657 0.008336 0.876000
-0.016579 -0.002887 0.890000
-0.047303 0.004975 0.856000
0.021886 -0.008381 0.890000
-0.030241 0.030908 0.872000
0.022669 -0.032263 0.892000
0.004568 0.016892 0.871000
-0.045884 0.005451 0.876000
-0.041842 0.002948 0.882000
0.019148 0.001496 0.882000
0.013203 0.013697 0.873000
0.018891 -0.004702 0.887000
0.033916 0.004385 0.879000
-0.004769 0.012633 0.874000
-0.041918 0.011581 0.876000
-0.024772 0.018999 0.869000
0.035928 0.024785 0.884000
-0.010525 0.027742 0.874000
-0.009761 0.021169 0.870000
0.025898 0.020618 0.877000
0.019104 -0.016569 0.897000
0.040066 -0.005797 0.887000
0.034186 -0.003603 0.886000
-0.014155 0.030329 0.876000
-0.036197 -0.000321 0.886000
-0.012625 0.023318 0.870000
0.045856 -0.020013 0.886000
-0.028764 -0.017965 0.893000
-0.007454 -0.006947 0.894000
0.025809 0.017310 0.874000
-0.040207 0.008716 0.878000
0.028639 -0.011007 0.895000
0.008512 0.016892 0.871000
0.033042 0.016249 0.875000
0.028447 -0.002883 0.889000
0.032681 0.016609 0.875000
-0.017389 -0.018721 0.894000
0.012305 0.001502 0.886000
-0.002608 0.013338 0.873000
-0.032331 -0.004352 0.890000
-0.037260 -0.015410 0.894000
0.048354 -0.002870 0.885000
-0.019608 0.007632 0.878000
0.020030 0.013697 0.873000
-0.019697 0.003311 0.882000
0.009003 0.003682 0.884000
-0.021781 -0.010615 0.893000
-0.032144 -0.013954 0.895000
0.018181 -0.035408 0.888000
0.027380 -0.004718 0.890000
-0.013731 0.014758 0.872000
0.043933 0.022965 0.884000
0.005437 -0.013600 0.896000
0.017686 -0.022922 0.900000
0.010700 0.021627 0.874000
0.017535 0.019828 0.874000
0.026528 0.015871 0.874000
0.007167 0.006578 0.882000
0.031998 -0.001050 0.886000
-0.023407 -0.001049 0.885000
-0.015686 0.005483 0.881000
-0.024471 0.016892 0.871000
0.001749 -0.017657 0.896000
0.018038 0.026514 0.881000
0.047475 -0.011665 0.889000
-0.000095 -0.020953 0.895000
0.042622 -0.005432 0.887000
0.027227 -0.000321 0.885000
-0.027042 0.014056 0.873000
0.019278 -0.036870 0.888000
-0.035460 -0.018374 0.895000
-0.040708 -0.017308 0.897000
-0.014106 0.028069 0.873000
0.026016 0.024701 0.881000
0.028397 -0.019936 0.899000
0.003217 -0.008051 0.894000
0.018735 -0.016938 0.897000
0.013197 -0.016938 0.897000
0.025986 0.023586 0.880000
0.020030 0.014775 0.873000
-0.026221 -0.017618 0.894000
-0.015182 -0.011362 0.894000
0.028366 -0.026567 0.898000
0.049192 -0.021180 0.874000
0.029040 -0.015444 0.896000
-0.013297 -0.002890 0.891000
0.037722 -0.011337 0.892000
-0.003045 -0.014338 0.896000
-0.006620 0.008383 0.881000
-0.026744 0.012288 0.875000
0.032838 -0.007274 0.889000
-0.021936 0.026899 0.870000
-0.028797 -0.010994 0.894000
0.043619 -0.003599 0.885000
0.047680 -0.004332 0.886000
-0.001198 -0.007315 0.894000
0.022008 -0.028688 0.895000
0.018806 0.000407 0.883000
-0.034509 0.030873 0.871000
-0.034033 0.027909 0.868000
0.023088 0.004028 0.880000
-0.016869 0.000773 0.886000
0.040104 -0.024295 0.896000
0.015051 0.008336 0.876000
-0.032330 0.039160 0.880000
0.025296 -0.029760 0.894000
-0.024943 0.012288 0.875000
0.028360 0.018050 0.875000
0.025290 0.001857 0.881000
0.016409 -0.032594 0.891000
-0.022396 0.012993 0.874000
0.028720 0.018050 0.875000
0.046834 -0.024141 0.877000
0.030583 -0.026567 0.898000
0.006009 0.014758 0.872000
-0.034355 -0.013217 0.895000
-0.026949 0.027973 0.870000
-0.023664 0.004757 0.881000
-0.047711 0.003217 0.857000
-0.026655 0.001863 0.884000
-0.012101 0.005137 0.884000
0.022545 0.016212 0.873000
-0.006272 0.006585 0.883000
-0.006538 0.019021 0.870000
-0.036603 -0.001782 0.887000
0.010220 -0.012849 0.895000
-0.034987 0.013353 0.874000
-0.030588 0.008030 0.882000
0.044974 0.021486 0.883000
0.020749 0.016571 0.873000
-0.024915 0.032058 0.874000
0.019665 -0.035082 0.889000
-0.048925 0.003607 0.866000
0.021935 -0.031896 0.892000
0.025711 0.027301 0.883000
-0.010778 -0.008060 0.895000
-0.007254 0.021169 0.870000
-0.010835 0.017589 0.870000
0.019378 0.008336 0.876000
-0.001911 0.005858 0.883000
-0.036644 -0.002515 0.888000
-0.013028 0.013338 0.873000
0.017876 -0.009124 0.891000
0.003497 0.021218 0.872000
-0.028397 -0.017965 0.893000
0.004579 0.013338 0.873000
-0.034425 0.008355 0.878000
0.016150 -0.017308 0.897000
0.018912 -0.005438 0.888000
-0.045112 0.012288 0.875000
0.037104 0.026299 0.886000
-0.003353 0.031916 0.880000
-0.005105 0.019737 0.870000
-0.017976 0.023291 0.869000
0.018952 0.013338 0.873000
0.021224 -0.012452 0.893000
0.003134 0.020477 0.871000
0.018296 0.021676 0.876000
-0.010621 0.035619 0.882000
0.009885 -0.023610 0.898000
-0.035052 -0.010994 0.894000
-0.008816 0.006585 0.883000
0.010688 0.020524 0.873000
-0.013252 0.000775 0.888000
0.009969 0.012978 0.873000
0.008766 -0.023584 0.897000
0.031782 0.003303 0.880000
-0.042459 -0.016164 0.895000
0.015676 -0.009491 0.891000
-0.027476 -0.002512 0.887000
0.006912 -0.011388 0.896000
-0.006364 -0.013600 0.896000
-0.029951 0.013353 0.874000
0.025653 0.002582 0.881000
0.045116 -0.013555 0.893000
0.029877 -0.023266 0.899000
-0.023798 -0.001415 0.886000
-0.006726 -0.012480 0.895000
-0.046816 0.013493 0.860000
0.008406 -0.017696 0.898000
0.012417 -0.012834 0.894000
-0.036927 -0.000686 0.886000
0.007667 -0.017696 0.898000
-0.012620 -0.011743 0.895000
0.043036 -0.007266 0.888000
0.006551 -0.018046 0.897000
-0.049886 0.006222 0.883000
0.026408 0.025818 0.882000
0.010340 0.022346 0.874000
0.009852 -0.010638 0.895000
-0.002305 -0.020953 0.895000
0.018526 -0.004337 0.887000
-0.030201 -0.008767 0.892000
0.033860 -0.003972 0.887000
-0.022678 -0.000685 0.885000
0.014193 -0.005817 0.890000
0.022694 -0.011717 0.893000
-0.035468 0.000408 0.886000
0.048081 -0.015893 0.880000
0.019710 -0.032961 0.891000
0.044257 0.010860 0.876000
0.019842 -0.016938 0.897000
-0.027856 0.034656 0.876000
0.028208 -0.007674 0.893000
-0.044004 -0.012031 0.889000
-0.043003 -0.014625 0.891000
0.013182 -0.015444 0.896000
0.000274 -0.011019 0.896000
-0.028740 0.018305 0.870000
-0.005989 -0.008060 0.895000
-0.027665 0.027973 0.870000
-0.028797 -0.010627 0.894000
-0.008736 0.028134 0.875000
0.015772 0.009417 0.876000
-0.045914 0.014606 0.863000
-0.010621 0.007667 0.882000
0.018593 0.014416 0.873000
0.024327 -0.019936 0.899000
-0.005996 -0.012125 0.896000
0.014741 0.025730 0.879000
0.025898 0.007262 0.877000
0.011034 0.014399 0.872000
-0.022566 -0.013217 0.895000
0.047862 -0.019787 0.876000
0.023371 0.021701 0.877000
0.013064 -0.001784 0.888000
0.022502 -0.021070 0.900000
-0.005639 -0.021023 0.898000
0.021640 -0.013954 0.895000
0.012264 0.004768 0.883000
0.018036 -0.018826 0.899000
0.016892 0.023894 0.878000
-0.002670 -0.007315 0.894000
0.011759 -0.020699 0.900000
-0.027959 0.024693 0.868000
0.019964 0.031040 0.886000
0.023867 0.026544 0.882000
-0.004152 -0.014338 0.896000
0.002078 0.028986 0.879000
-0.027011 0.029832 0.872000
-0.021801 0.007279 0.879000
-0.004758 0.014399 0.872000
0.014608 -0.030094 0.893000
0.049391 -0.003959 0.884000
0.047936 -0.013055 0.884000
-0.001885 0.021552 0.871000
0.040705 -0.003599 0.885000
-0.033625 0.036098 0.876000
0.027348 -0.029251 0.901000
0.043597 -0.012071 0.892000
-0.008926 -0.007683 0.894000
0.043010 0.019602 0.880000
0.035201 -0.001412 0.884000
0.009356 0.005132 0.883000
0.022427 -0.016569 0.897000
-0.039439 0.009789 0.877000
-0.037935 0.001863 0.884000
-0.015549 -0.009523 0.894000
-0.000464 -0.010650 0.896000
0.020489 -0.012452 0.893000
-0.036933 0.020072 0.869000
-0.002676 -0.016919 0.896000
-0.043491 -0.003238 0.886000
0.049083 -0.006513 0.885000
0.041733 0.015907 0.876000
-0.023539 -0.006183 0.890000
0.017234 0.007623 0.877000
-0.007462 -0.012849 0.895000
0.023291 0.018029 0.874000
-0.034390 0.021478 0.868000
0.009929 -0.026685 0.902000
-0.011579 -0.020699 0.900000
-0.010910 0.029608 0.876000
-0.003323 0.024089 0.872000
0.030436 0.000770 0.883000
0.026468 -0.000320 0.884000
0.046377 -0.008738 0.889000
0.024010 0.017670 0.874000
-0.040430 0.012648 0.875000
-0.014300 0.003322 0.885000
0.015862 0.003670 0.881000
0.016354 -0.004342 0.888000
0.016114 -0.014690 0.895000
-0.004455 0.034933 0.883000
-0.003045 -0.014707 0.896000
-0.035301 -0.007290 0.891000
0.033860 0.028885 0.887000
-0.011425 0.000044 0.888000
0.017495 0.016194 0.872000
-0.035462 0.020406 0.868000
0.031445 -0.008757 0.891000
0.027734 0.006548 0.878000
0.014791 0.003674 0.882000
0.011287 -0.005463 0.892000
-0.047225 0.014926 0.861000
-0.034778 -0.000686 0.887000
-0.005117 0.023730 0.872000
0.042745 0.021461 0.882000
-0.044031 0.011928 0.875000
0.029008 -0.010638 0.895000
-0.011551 0.017589 0.870000
-0.010489 0.016175 0.871000
0.032180 0.001857 0.881000
-0.016653 -0.010994 0.894000
0.014543 -0.003981 0.889000
-0.036156 -0.010627 0.894000
0.008532 0.021242 0.873000
0.016776 -0.031861 0.891000
0.010688 0.013338 0.873000
-0.028152 0.013353 0.874000
0.020030 0.018009 0.873000
0.017195 0.020931 0.875000
0.047827 -0.015203 0.882000
0.031516 -0.012085 0.893000
-0.016188 0.021503 0.869000
0.010847 0.001138 0.886000
-0.011950 0.027351 0.873000
0.006051 0.026785 0.878000
-0.019831 -0.003246 0.888000
0.006398 0.009057 0.876000
0.047056 -0.014210 0.888000
0.027967 0.011914 0.874000
-0.038515 -0.004713 0.889000
-0.021437 -0.012098 0.894000
-0.025086 0.006563 0.880000
-0.028829 -0.013585 0.895000
-0.001570 -0.012863 0.896000
0.017876 -0.009491 0.891000
0.019671 0.015134 0.873000
-0.024195 0.012993 0.874000
0.028851 0.005108 0.879000
0.027196 -0.013600 0.896000
0.033669 0.001496 0.882000
0.019430 -0.028688 0.895000
-0.006364 -0.013969 0.896000
-0.038837 -0.003246 0.888000
-0.019619 -0.013217 0.895000
0.038971 0.027059 0.887000
0.002080 0.030468 0.880000
0.019104 -0.026906 0.897000
-0.046300 0.009566 0.857000
-0.019965 -0.010994 0.894000
-0.027662 -0.009512 0.893000
-0.047656 0.004975 0.856000
-0.033430 -0.005451 0.890000
0.022466 0.028787 0.884000
0.024701 0.015853 0.873000
0.008359 -0.007307 0.893000
0.005812 -0.018784 0.897000
0.042093 0.007615 0.876000
-0.030268 -0.018354 0.894000
-0.043771 0.003292 0.877000
0.026104 0.027332 0.884000
-0.012620 -0.009533 0.895000
0.031205 0.011914 0.874000
0.043846 0.012288 0.875000
-0.009873 0.033365 0.880000
-0.044036 0.020049 0.868000
-0.016140 0.001138 0.886000
0.024730 0.010475 0.874000
0.021467 0.014775 0.873000
0.032681 0.009047 0.875000
-0.004394 0.023345 0.871000
-0.021911 0.024006 0.869000
0.035967 -0.014306 0.894000
-0.017801 0.033289 0.878000
-0.023905 -0.006916 0.890000
-0.023315 0.022193 0.868000
-0.009424 0.025884 0.872000
0.006529 -0.007683 0.894000
-0.033664 0.010150 0.877000
0.027534 -0.009902 0.895000
-0.038138 0.016552 0.872000
0.015605 -0.003607 0.887000
-0.007471 -0.013969 0.896000
-0.028447 0.015117 0.872000
-0.006726 -0.011743 0.895000
0.010945 -0.011362 0.894000
-0.031004 -0.010627 0.894000
-0.021464 0.036263 0.880000
-0.012281 0.015816 0.871000
0.013581 -0.017327 0.898000
0.015059 -0.017327 0.898000
0.010712 0.009767 0.875000
0.007086 0.019424 0.872000
-0.016030 0.006563 0.880000
0.043422 0.019987 0.881000
0.002075 0.028230 0.878000
0.028975 -0.009891 0.894000
0.016989 0.028754 0.883000
-0.034469 0.030121 0.870000
0.006037 0.025281 0.876000
-0.018418 0.014056 0.873000
-0.042269 -0.014625 0.891000
0.021492 0.011914 0.874000
0.028703 -0.017308 0.897000
-0.013357 0.025854 0.871000
0.035923 0.010487 0.875000
0.006920 -0.019523 0.897000
0.022389 0.025788 0.881000
0.008406 -0.021762 0.898000
0.026259 0.007623 0.877000
-0.020288 -0.008767 0.892000
-0.029031 0.022907 0.868000
-0.008746 0.010499 0.876000
0.016150 -0.026168 0.897000
0.030107 0.026968 0.884000
0.032943 0.001133 0.882000
-0.036115 0.001499 0.884000
-0.026887 0.023622 0.868000
0.035563 0.010127 0.875000
0.025405 0.029184 0.885000
0.048098 -0.006528 0.887000
0.024083 -0.033656 0.890000
-0.013841 0.033689 0.879000
0.027350 -0.003249 0.889000
0.034278 0.004023 0.879000
0.029105 -0.025828 0.898000
-0.027959 0.023622 0.868000
-0.033249 -0.013585 0.895000
-0.038497 0.015476 0.872000
0.012035 -0.030094 0.893000
-0.013342 0.024034 0.870000
-0.006613 0.033003 0.880000
0.016186 -0.018826 0.899000
-0.045937 0.007623 0.877000
0.024477 -0.008024 0.891000
-0.029037 0.037669 0.879000
-0.019014 0.001135 0.884000
-0.002305 -0.009533 0.895000
0.035964 0.007615 0.876000
0.019061 0.023532 0.878000
0.011498 0.006201 0.880000
-0.032618 0.009800 0.878000
0.037363 0.015529 0.875000
-0.035145 0.019714 0.869000
-0.019876 -0.006550 0.890000
-0.002957 0.020811 0.870000
0.017956 0.022784 0.877000
0.011707 -0.026876 0.896000
-0.033064 -0.003253 0.890000
-0.007840 -0.010650 0.896000
-0.004791 0.030398 0.878000
-0.041432 0.004032 0.881000
-0.030484 0.010173 0.879000
-0.036116 -0.017598 0.893000
0.007548 0.004774 0.884000
-0.015428 0.001139 0.887000
0.018714 -0.027245 0.896000
-0.030020 0.035016 0.876000
-0.002243 0.016533 0.871000
-0.001526 0.017250 0.871000
0.039433 0.021437 0.881000
-0.045782 0.000044 0.888000
0.014640 0.019805 0.873000
-0.043321 -0.007282 0.890000
-0.033318 0.021835 0.868000
-0.041855 -0.005451 0.890000
0.026340 -0.007299 0.892000
0.020857 -0.030462 0.893000
0.044013 -0.020538 0.893000
0.022277 -0.009124 0.891000
0.025478 0.009407 0.875000
0.025778 -0.018066 0.898000
-0.006215 0.010847 0.875000
-0.029298 0.011220 0.876000
-0.033993 0.022881 0.867000
0.012484 0.012978 0.873000
0.021302 0.026514 0.881000
-0.015254 0.008706 0.877000
0.000274 -0.021369 0.897000
-0.010513 0.013697 0.873000
-0.034856 -0.002151 0.889000
-0.017261 0.019714 0.869000
0.028735 -0.026936 0.898000
0.018427 -0.024033 0.900000
0.031904 -0.026744 0.904000
-0.018691 0.021860 0.869000
0.008532 0.012619 0.873000
-0.022390 -0.003611 0.888000
0.024029 -0.005073 0.888000
-0.046020 0.013927 0.865000
-0.031030 0.033138 0.874000
-0.022704 -0.001780 0.886000
0.043450 -0.008372 0.889000
-0.041030 -0.002880 0.888000
0.010749 0.007632 0.878000
0.021664 -0.016182 0.896000
-0.006896 0.018305 0.870000
0.037606 -0.018436 0.898000
-0.029566 0.005501 0.884000
0.036698 -0.002870 0.885000
-0.031705 -0.009880 0.893000
0.050062 -0.006135 0.883000
0.024615 -0.014707 0.896000
0.013566 -0.016569 0.897000
-0.042591 0.013008 0.875000
-0.006575 0.011207 0.875000
0.026589 0.019513 0.876000
0.010822 0.031698 0.884000
-0.013710 -0.019825 0.894000
-0.001939 -0.011757 0.896000
0.012125 0.013338 0.873000
-0.002611 0.011554 0.874000
-0.008558 -0.006947 0.894000
-0.029767 -0.004718 0.890000
0.015799 -0.017696 0.898000
0.017915 0.021291 0.875000
-0.024695 0.036945 0.879000
-0.026988 0.004405 0.883000
-0.046859 0.006158 0.874000
0.027892 0.026574 0.883000
-0.019597 -0.011730 0.894000
0.040744 0.017389 0.878000
-0.025130 0.020072 0.869000
-0.016869 0.000044 0.886000
0.036333 -0.003235 0.885000
-0.010790 -0.013600 0.896000
0.013203 0.019805 0.873000
0.023371 0.007623 0.877000
-0.032295 0.000044 0.889000
-0.011219 0.025525 0.872000
0.003891 0.029743 0.880000
-0.005828 0.016533 0.871000
-0.016981 0.013697 0.873000
-0.050306 0.001135 0.884000
0.030834 0.026604 0.884000
-0.027294 -0.017965 0.893000
-0.040070 0.013008 0.875000
-0.019036 0.000408 0.885000
-0.037460 -0.006550 0.890000
-0.033548 0.033857 0.874000
0.017836 -0.034716 0.889000
0.036936 0.001133 0.882000
-0.002302 -0.007315 0.894000
-0.006201 0.012978 0.873000
0.021343 -0.018436 0.898000
0.007488 0.008345 0.877000
-0.034033 0.020764 0.868000
0.012111 0.015835 0.872000
0.027565 -0.011757 0.896000
0.042862 -0.011337 0.892000
0.023557 0.028423 0.884000
-0.014078 -0.009155 0.894000
0.005063 -0.021321 0.895000
0.022984 -0.008381 0.890000
0.028327 0.014072 0.874000
-0.036483 -0.009880 0.893000
0.046685 -0.020262 0.881000
0.017008 0.000407 0.884000
0.039931 0.023693 0.884000
-0.014814 -0.009891 0.894000
0.015746 -0.028320 0.895000
0.020076 0.020931 0.875000
0.031883 -0.011350 0.893000
-0.034430 0.029014 0.869000
-0.007471 -0.016919 0.896000
-0.009117 0.030725 0.877000
-0.033714 0.028656 0.869000
0.019278 -0.037236 0.888000
0.027217 0.014056 0.873000
-0.043261 0.013353 0.874000
0.022726 0.024673 0.880000
0.010186 -0.005830 0.892000
0.046743 -0.009103 0.889000
-0.030888 0.029763 0.870000
0.010688 0.012619 0.873000
0.033723 0.010835 0.874000
0.036046 0.005825 0.878000
-0.011895 0.019357 0.869000
-0.033151 0.032381 0.873000
0.000274 -0.012494 0.896000
0.046115 -0.014258 0.891000
-0.013326 0.020072 0.869000
0.038780 -0.010224 0.891000
0.043422 0.019624 0.881000
0.041480 -0.003968 0.886000
0.022427 -0.026906 0.897000
0.034280 -0.019544 0.898000
0.016870 -0.027245 0.896000
-0.006983 0.008746 0.881000
-0.012142 0.001869 0.887000
0.017104 -0.007274 0.889000
0.014352 -0.021070 0.900000
-0.044493 0.005097 0.877000
-0.028674 0.026480 0.868000
-0.036933 0.021860 0.869000
0.017142 -0.009857 0.891000
-0.005895 0.008383 0.881000
-0.034350 0.023238 0.867000
0.035019 -0.022132 0.898000
-0.031534 0.010162 0.878000
-0.023781 0.015476 0.872000
0.018699 0.023532 0.878000
-0.043931 0.014416 0.873000
-0.036786 0.022706 0.874000
-0.028674 0.022193 0.868000
0.025868 0.009057 0.876000
-0.006236 0.009800 0.878000
0.027734 0.005464 0.878000
0.022700 0.005108 0.879000
-0.025693 0.010499 0.876000
-0.021999 -0.002512 0.887000
-0.015686 0.005845 0.881000
0.021020 -0.022551 0.900000
0.044147 0.019624 0.881000
0.031962 0.026998 0.885000
0.005676 0.025642 0.876000
-0.027290 0.038842 0.881000
-0.045782 -0.010921 0.888000
-0.022371 0.014056 0.873000
0.024327 -0.025856 0.899000
0.036335 -0.013570 0.894000
-0.019312 0.004032 0.881000
0.012829 0.016552 0.872000
0.024871 0.004385 0.879000
-0.031208 0.038030 0.879000
0.004927 0.017609 0.871000
0.010174 -0.004357 0.891000
-0.012620 -0.013217 0.895000
-0.040568 0.008716 0.878000
0.011313 -0.008419 0.894000
-0.022390 -0.004707 0.888000
-0.026918 0.020072 0.869000
-0.038689 -0.017230 0.893000
-0.027166 0.010150 0.877000
-0.006935 0.011568 0.875000
0.000266 0.018326 0.871000
-0.025957 -0.000321 0.885000
-0.021578 0.017231 0.870000
0.004244 0.027869 0.878000
0.002059 0.016533 0.871000
0.029346 0.001134 0.883000
0.012500 -0.022551 0.900000
0.022957 0.019851 0.875000
-0.010790 -0.016182 0.896000
0.041781 0.017008 0.877000
0.029073 -0.017308 0.897000
0.006412 0.027146 0.878000
0.010243 -0.016938 0.897000
-0.012295 0.026243 0.872000
0.036283 0.016249 0.875000
0.012076 -0.026876 0.896000
0.003905 0.005858 0.883000
0.006065 0.029019 0.880000
0.017627 -0.026906 0.897000
0.000632 0.031953 0.881000
0.019104 0.025759 0.880000
0.032654 -0.000320 0.884000
-0.035828 -0.012112 0.895000
-0.029794 0.010185 0.880000
0.035806 -0.009480 0.890000
-0.018735 -0.002880 0.888000
-0.023476 0.012993 0.874000
-0.037417 -0.004347 0.889000
-0.010409 -0.012480 0.895000
-0.035064 0.025735 0.867000
0.004579 0.012978 0.873000
-0.018038 0.027319 0.872000
0.018974 0.011554 0.874000
0.003585 -0.006947 0.894000
-0.014058 0.018305 0.870000
-0.016281 0.029540 0.874000
0.010675 0.017988 0.872000
-0.027729 0.015117 0.872000
-0.003414 -0.017657 0.896000
0.000986 0.023398 0.873000
-0.000455 0.030433 0.879000
-0.014446 -0.018354 0.894000
0.021224 -0.037813 0.893000
-0.014030 -0.003256 0.891000
-0.011964 0.027742 0.874000
0.009698 0.029414 0.881000
0.022931 0.010475 0.874000
-0.007471 -0.010650 0.896000
-0.005463 0.020811 0.870000
