0.028846 -0.020836 0.890000
-0.026591 0.041580 0.870000
-0.041130 0.019866 0.845000
0.010117 -0.007614 0.886000
0.013445 -0.018617 0.889000
-0.010947 0.003299 0.879000
-0.040568 0.000043 0.878000
-0.002632 0.036666 0.881000
0.027217 0.014056 0.873000
-0.023180 0.033786 0.863000
0.001336 0.020383 0.867000
-0.034350 0.017885 0.867000
0.016380 0.012576 0.870000
-0.042823 0.010636 0.858000
0.031044 -0.019737 0.890000
0.007911 -0.004322 0.884000
-0.027959 0.038269 0.868000
0.037577 0.014893 0.880000
0.003149 0.029574 0.875000
0.003124 0.023979 0.868000
-0.030706 0.009047 0.875000
0.008850 0.020072 0.869000
-0.040697 0.007229 0.873000
0.007858 -0.036816 0.878000
0.045803 0.009078 0.878000
0.009346 -0.000319 0.882000
0.029678 -0.028624 0.893000
-0.010212 0.005103 0.878000
0.003199 -0.023373 0.889000
0.020030 0.007589 0.873000
0.011511 0.000769 0.881000
-0.035421 0.018599 0.867000
0.037426 0.018620 0.885000
0.007590 -0.028496 0.889000
-0.032440 -0.009769 0.883000
0.009599 0.009374 0.872000
-0.026113 -0.000679 0.878000
-0.000805 0.023951 0.867000
-0.038938 -0.007580 0.882000
-0.031568 0.015422 0.869000
0.018651 -0.026051 0.893000
-0.013357 0.011873 0.871000
0.027411 -0.031127 0.891000
0.048695 -0.016941 0.878000
-0.015376 -0.017421 0.884000
-0.030746 0.019646 0.866000
-0.009828 0.009417 0.876000
0.011914 -0.034157 0.884000
0.034012 -0.030027 0.891000
-0.019856 0.007948 0.873000
-0.011538 0.014707 0.869000
0.039336 0.019028 0.887000
0.039791 -0.029228 0.889000
0.026311 -0.022326 0.891000
-0.018207 0.029524 0.863000
0.001336 0.022167 0.867000
0.031445 -0.022693 0.891000
0.015324 0.019401 0.871000
0.011954 -0.015289 0.887000
-0.002284 -0.020035 0.887000
-0.025927 -0.010144 0.884000
0.020007 0.010451 0.872000
-0.045413 0.014316 0.867000
0.022852 0.011873 0.871000
-0.040883 0.000404 0.877000
-0.009929 -0.018533 0.885000
0.014724 0.002573 0.878000
-0.027443 0.024196 0.863000
0.013609 0.004730 0.876000
0.040797 0.018297 0.887000
0.028813 -0.017519 0.889000
0.015103 -0.040114 0.879000
-0.026414 0.004730 0.876000
0.048553 -0.013388 0.882000
0.020076 0.004365 0.875000
-0.022238 -0.006854 0.882000
-0.038408 0.012576 0.870000
0.009676 0.028986 0.879000
0.045440 0.014249 0.885000
0.008881 0.024089 0.872000
0.022520 0.010092 0.872000
-0.036636 0.025942 0.862000
-0.010293 -0.018169 0.885000
-0.015393 -0.011977 0.885000
-0.042573 0.010926 0.853000
0.018997 -0.023819 0.892000
0.006354 0.012934 0.870000
0.002099 -0.013479 0.888000
0.003199 -0.020446 0.889000
-0.021146 0.036084 0.867000
0.029902 -0.000318 0.878000
-0.019924 0.002928 0.876000
-0.028217 0.006173 0.876000
0.028081 -0.017519 0.889000
0.039795 -0.005396 0.881000
0.022726 -0.004303 0.880000
0.042454 0.009057 0.876000
0.033955 -0.003216 0.880000
-0.009565 -0.020719 0.885000
-0.036232 0.001127 0.878000
0.012785 0.014707 0.869000
0.008993 -0.002864 0.883000
0.012069 0.017926 0.869000
-0.035571 0.026297 0.862000
0.025957 0.020303 0.879000
-0.015028 0.023157 0.864000
0.031926 0.020782 0.884000
0.015988 -0.017134 0.888000
0.036213 -0.022326 0.891000
-0.025756 0.018934 0.866000
-0.035348 -0.009042 0.883000
0.024984 -0.006861 0.883000
0.002465 -0.010555 0.888000
-0.004110 -0.009813 0.887000
0.002099 -0.015306 0.888000
0.029213 0.018856 0.879000
0.035444 -0.005396 0.881000
-0.016850 -0.012705 0.885000
-0.046192 -0.005719 0.875000
0.033419 -0.011612 0.885000
0.021664 -0.004670 0.881000
0.032180 -0.004308 0.881000
0.022752 -0.005033 0.881000
0.039103 0.021290 0.890000
0.008219 -0.037539 0.878000
0.020623 -0.009405 0.883000
-0.005432 0.022116 0.865000
0.004278 0.004050 0.885000
0.023424 0.021750 0.879000
0.010749 -0.038984 0.878000
0.017008 -0.009780 0.884000
0.017142 -0.021959 0.891000
-0.023288 0.037154 0.867000
0.010281 0.016138 0.869000
0.016776 -0.021592 0.891000
0.031348 0.016666 0.878000
-0.031208 -0.001765 0.879000
-0.032172 0.020359 0.866000
0.016912 -0.000680 0.879000
-0.019541 0.041459 0.875000
0.029844 -0.013099 0.887000
-0.020670 0.026297 0.862000
0.034994 0.022338 0.888000
0.009643 0.026724 0.876000
-0.002984 0.006909 0.878000
-0.021911 0.014349 0.869000
0.042334 0.013460 0.881000
0.036169 -0.004670 0.881000
-0.015419 0.018934 0.866000
-0.039574 -0.011184 0.880000
0.031812 -0.021592 0.891000
0.035121 -0.006854 0.882000
0.032251 -0.028624 0.893000
-0.006959 0.036903 0.878000
-0.011154 0.017885 0.867000
0.029877 -0.016037 0.888000
0.014065 -0.004676 0.882000
-0.005099 0.029371 0.869000
0.033878 -0.001041 0.878000
-0.024723 -0.004303 0.880000
-0.015579 0.006886 0.875000
0.002064 0.028429 0.873000
0.044231 0.018726 0.890000
0.026984 -0.015324 0.889000
0.005395 -0.019349 0.889000
0.040933 -0.029893 0.898000
0.024477 -0.018659 0.891000
0.033762 0.004725 0.875000
-0.007961 0.030444 0.869000
-0.024330 0.037111 0.866000
0.038737 -0.027795 0.890000
0.020489 -0.026051 0.893000
-0.009221 -0.015654 0.887000
0.010639 0.017926 0.869000
0.010761 -0.036858 0.879000
0.031926 -0.009780 0.884000
-0.039573 0.008657 0.872000
-0.034102 -0.001404 0.879000
-0.020261 0.005085 0.875000
-0.022314 -0.011977 0.885000
-0.008126 -0.015654 0.887000
0.023596 0.010451 0.872000
-0.022371 0.041005 0.873000
0.016663 -0.012705 0.885000
-0.023368 0.039789 0.870000
0.032358 0.002207 0.876000
0.038532 0.012316 0.877000
-0.035428 -0.014526 0.885000
-0.040783 0.018822 0.845000
0.004558 0.015065 0.869000
0.041685 0.005085 0.875000
-0.027747 -0.010144 0.884000
-0.012582 0.017885 0.867000
0.035363 0.015238 0.879000
-0.001900 0.034012 0.878000
-0.013952 -0.009437 0.886000
-0.040883 0.001126 0.877000
0.009324 0.001492 0.880000
0.004978 0.032279 0.880000
0.005754 -0.012748 0.888000
0.005774 -0.025260 0.891000
0.044105 -0.029061 0.873000
-0.023234 0.021048 0.865000
-0.000449 0.017171 0.867000
0.024621 0.024030 0.883000
-0.027025 0.027329 0.861000
-0.036468 0.004365 0.875000
0.013516 0.019737 0.870000
0.005401 -0.021202 0.890000
0.043996 0.009800 0.878000
-0.015757 -0.010155 0.885000
-0.017873 0.032047 0.864000
-0.036618 0.012218 0.870000
0.028327 0.006878 0.874000
-0.031786 0.009047 0.875000
0.033117 0.001126 0.877000
0.032619 -0.024581 0.893000
0.041781 0.010511 0.877000
-0.011399 -0.012719 0.886000
0.035152 -0.023819 0.892000
-0.037146 0.006518 0.874000
-0.030345 0.009407 0.875000
-0.020386 0.034220 0.865000
-0.010760 0.026002 0.864000
0.007159 -0.034404 0.881000
0.009819 -0.025655 0.892000
-0.005111 0.012232 0.871000
0.033457 -0.014178 0.886000
0.037748 0.017508 0.884000
-0.002590 0.017528 0.867000
0.035280 -0.013813 0.886000
0.021689 -0.007580 0.882000
-0.025312 0.023841 0.863000
-0.018397 0.010092 0.872000
-0.025245 0.011182 0.873000
-0.010084 0.017885 0.867000
-0.022904 0.019290 0.866000
0.011752 0.022654 0.872000
0.032247 0.009745 0.873000
0.004663 -0.026301 0.889000
0.007054 0.019335 0.868000
-0.041070 -0.005758 0.881000
-0.002587 0.020003 0.866000
0.014033 0.001492 0.880000
-0.024190 0.031936 0.861000
0.007590 -0.018251 0.889000
0.032070 -0.016403 0.888000
-0.022166 0.035289 0.865000
0.041986 -0.023008 0.889000
0.037088 0.001848 0.877000
-0.016076 0.025972 0.863000
-0.011485 0.029592 0.865000
-0.021734 0.030909 0.862000
-0.028806 -0.012313 0.883000
0.029844 -0.013829 0.887000
-0.039256 -0.010109 0.881000
0.002052 0.024336 0.868000
0.027529 0.022576 0.883000
0.036046 -0.001041 0.878000
0.043352 -0.016019 0.887000
-0.005935 -0.013099 0.887000
0.005774 -0.021959 0.891000
0.045183 -0.026187 0.873000
-0.036806 0.018934 0.866000
0.000636 -0.022930 0.886000
0.000623 0.015065 0.869000
-0.035530 0.027684 0.861000
-0.013541 -0.018491 0.883000
-0.004013 0.023567 0.866000
-0.005105 0.012934 0.870000
-0.029151 0.027684 0.861000
0.018484 0.028819 0.885000
0.037810 0.001848 0.877000
0.014265 0.009733 0.872000
0.040965 0.006165 0.875000
0.007127 0.006541 0.877000
0.029080 0.004725 0.875000
0.038089 -0.024187 0.892000
0.029311 -0.027522 0.893000
-0.021561 -0.009780 0.884000
0.042648 0.012358 0.880000
0.028479 -0.020469 0.890000
-0.014300 -0.011248 0.885000
0.012976 -0.035895 0.882000
-0.010810 0.015405 0.868000
-0.006856 0.021404 0.865000
0.039164 0.005445 0.875000
0.043471 0.013475 0.882000
-0.021404 0.024196 0.863000
0.023797 -0.029359 0.893000
-0.006665 -0.010178 0.887000
-0.032209 0.018242 0.867000
-0.013587 -0.012719 0.886000
0.028360 0.005085 0.875000
-0.035185 0.013650 0.870000
0.020810 -0.022326 0.891000
0.020489 -0.025316 0.893000
0.021205 0.021340 0.877000
0.036822 -0.017865 0.888000
0.010798 -0.001045 0.882000
0.036010 0.019006 0.886000
-0.038806 -0.001404 0.879000
-0.035943 0.011515 0.871000
0.034512 0.020442 0.885000
0.022161 0.010092 0.872000
-0.004101 -0.021447 0.885000
-0.026530 0.016834 0.868000
0.030845 0.006878 0.874000
-0.043821 -0.010075 0.878000
0.009753 -0.007249 0.886000
-0.026825 0.018934 0.866000
0.002406 0.022881 0.867000
-0.007998 0.033459 0.873000
-0.003745 -0.010543 0.887000
0.044712 0.014614 0.885000
0.016776 -0.030394 0.891000
0.043274 0.010884 0.878000
0.010675 0.023372 0.872000
0.040475 -0.003941 0.880000
-0.002652 -0.010555 0.888000
-0.010785 0.020003 0.866000
0.000636 -0.023295 0.886000
0.034882 0.013383 0.876000
0.028208 -0.027522 0.893000
-0.022011 0.008307 0.873000
-0.021652 0.008307 0.873000
-0.011764 -0.015637 0.886000
0.040605 0.004365 0.875000
-0.025605 0.011900 0.873000
-0.035707 0.006878 0.874000
-0.025607 0.032999 0.861000
-0.040161 0.001487 0.877000
-0.033017 0.004023 0.879000
-0.029882 0.013322 0.872000
-0.004465 -0.021811 0.885000
-0.015012 -0.004686 0.884000
0.017195 0.004365 0.875000
0.027935 0.008667 0.873000
-0.014532 0.040110 0.877000
-0.036010 0.023157 0.864000
-0.009929 -0.005420 0.885000
0.012858 0.023785 0.874000
-0.013250 0.028136 0.864000
-0.012465 -0.017784 0.884000
0.004229 0.008326 0.875000
-0.038850 -0.003578 0.880000
0.011846 0.003661 0.879000
-0.025014 0.021760 0.865000
-0.009013 0.017171 0.867000
-0.029103 -0.006121 0.881000
0.015154 -0.006854 0.882000
0.014590 0.016156 0.870000
-0.027506 0.037781 0.865000
0.011550 -0.005778 0.884000
-0.037119 0.021404 0.865000
-0.004110 -0.016750 0.887000
0.003134 0.011156 0.871000
-0.024956 0.024551 0.863000
-0.019674 0.021404 0.865000
0.010083 -0.003227 0.883000
0.004663 -0.027032 0.889000
0.018550 0.011515 0.871000
0.000265 0.022167 0.867000
-0.003323 0.030191 0.872000
0.013922 0.007589 0.873000
-0.028410 -0.015929 0.882000
0.014976 -0.025316 0.893000
-0.045989 -0.007907 0.878000
-0.034588 0.009026 0.873000
0.025032 0.011169 0.872000
0.022313 0.021725 0.878000
0.028781 -0.014941 0.888000
0.000637 -0.014941 0.888000
-0.004110 -0.013099 0.887000
0.012888 0.024921 0.876000
0.027684 -0.011652 0.888000
-0.005501 0.009417 0.876000
0.024816 -0.014975 0.890000
-0.035671 -0.010484 0.882000
0.031888 0.008307 0.873000
-0.006286 -0.021447 0.885000
0.012403 -0.025684 0.893000
0.012441 0.013292 0.870000
0.018120 -0.012341 0.885000
0.010423 0.000044 0.881000
0.015000 0.021602 0.873000
-0.035843 0.029067 0.860000
-0.013088 0.006901 0.877000
0.019555 0.027332 0.884000
-0.006665 -0.014194 0.887000
0.028748 0.024869 0.887000
0.003513 0.008336 0.876000
-0.007778 -0.021544 0.889000
-0.004013 0.024280 0.866000
0.007062 0.021860 0.869000
-0.039578 0.023454 0.849000
0.043422 -0.024976 0.881000
-0.007031 -0.009448 0.887000
0.006820 -0.031974 0.884000
0.014774 -0.001770 0.881000
0.026980 0.018452 0.877000
-0.007031 -0.013464 0.887000
0.025032 0.014040 0.872000
-0.040014 0.019646 0.866000
-0.000094 -0.021130 0.887000
-0.008826 -0.019240 0.884000
-0.036954 0.000405 0.878000
0.030555 0.003288 0.876000
-0.004725 0.020716 0.866000
-0.025751 0.000043 0.878000
-0.042785 -0.002127 0.879000
0.048113 -0.020101 0.874000
0.023088 -0.028288 0.894000
-0.022345 0.040599 0.872000
-0.039982 -0.009022 0.881000
0.026340 -0.024187 0.892000
0.037406 0.011581 0.876000
-0.005082 0.020716 0.866000
-0.034821 0.028392 0.861000
0.021084 0.010451 0.872000
-0.006650 -0.006877 0.885000
0.012570 -0.037944 0.879000
0.004663 -0.018617 0.889000
0.002406 0.018599 0.867000
0.023770 -0.031162 0.892000
0.031445 -0.022326 0.891000
0.036283 0.005805 0.875000
0.011524 -0.034806 0.882000
0.038370 -0.020103 0.890000
-0.011937 0.010810 0.872000
-0.036281 0.027006 0.862000
-0.002947 0.025735 0.867000
-0.016113 0.021404 0.865000
0.016815 0.006158 0.874000
-0.031926 0.015065 0.869000
0.039976 0.011594 0.877000
0.023732 0.019896 0.877000
0.009303 -0.037900 0.878000
0.034148 0.020442 0.885000
-0.001162 0.024665 0.867000
-0.028186 0.022090 0.864000
0.010003 0.026724 0.876000
0.009044 0.001140 0.888000
-0.004110 -0.013464 0.887000
0.010482 -0.010531 0.886000
0.008266 -0.033392 0.883000
-0.016812 -0.017401 0.883000
0.004287 -0.008353 0.887000
0.033822 0.020100 0.886000
0.014395 -0.037624 0.880000
0.015588 -0.014178 0.886000
0.011199 -0.008334 0.885000
-0.040707 -0.009384 0.881000
0.041797 -0.012341 0.885000
0.002830 -0.011286 0.888000
0.029278 -0.023085 0.892000
-0.000459 -0.009083 0.887000
-0.005094 0.016476 0.868000
-0.045163 -0.006807 0.876000
-0.019697 -0.006854 0.882000
0.016022 0.012934 0.870000
-0.004475 -0.015654 0.887000
0.026259 0.018452 0.877000
0.002795 0.006541 0.877000
-0.041070 -0.006121 0.881000
0.016022 0.014008 0.870000
0.016892 0.001127 0.878000
-0.030986 -0.008679 0.883000
-0.024108 -0.012327 0.884000
0.020122 0.021701 0.877000
0.018038 -0.038392 0.881000
0.017490 -0.020836 0.890000
-0.006286 -0.006877 0.885000
-0.021734 0.031973 0.862000
0.035241 -0.012341 0.885000
0.018572 0.009016 0.872000
0.012642 -0.006869 0.884000
-0.041422 0.022809 0.851000
0.012484 0.022680 0.873000
-0.008338 0.032307 0.871000
-0.036491 0.018242 0.867000
0.002406 0.017885 0.867000
0.042114 -0.008688 0.884000
-0.027411 0.035166 0.862000
-0.028643 -0.000318 0.878000
-0.021195 0.015422 0.869000
-0.016095 0.030625 0.864000
0.005637 0.012934 0.870000
-0.014366 0.017171 0.867000
0.017915 0.004365 0.875000
0.027014 -0.019737 0.890000
0.037003 0.004725 0.875000
0.039931 -0.010508 0.884000
-0.013587 -0.014907 0.886000
-0.004475 -0.017480 0.887000
0.034395 -0.007217 0.882000
0.002808 0.034128 0.881000
0.029844 -0.013464 0.887000
-0.008756 0.036861 0.877000
-0.034826 0.000405 0.879000
-0.039968 0.020692 0.865000
-0.028121 0.025587 0.862000
0.019648 0.009016 0.872000
0.016569 0.026121 0.880000
-0.028763 0.029775 0.860000
-0.036954 -0.001041 0.878000
0.006368 0.025525 0.872000
-0.015419 0.019290 0.866000
0.036863 -0.018983 0.889000
0.021910 -0.022326 0.891000
0.043717 -0.020035 0.887000
0.030904 -0.011990 0.886000
-0.034905 -0.014098 0.881000
0.038456 -0.025655 0.892000
0.033822 0.021194 0.886000
0.025915 -0.014608 0.890000
-0.004399 0.031267 0.872000
-0.021950 -0.013069 0.885000
0.004191 0.019669 0.867000
0.017195 0.004725 0.875000
0.004205 0.025466 0.870000
-0.039619 -0.005033 0.881000
-0.007988 0.011528 0.872000
-0.033037 0.012934 0.870000
-0.027321 -0.015929 0.882000
-0.027621 -0.004303 0.880000
0.022984 -0.014608 0.890000
0.019300 -0.018617 0.889000
0.003529 0.032641 0.880000
0.019511 -0.006491 0.882000
0.011498 0.002217 0.880000
-0.041228 0.020958 0.847000
-0.004110 -0.010178 0.887000
0.017046 -0.013449 0.886000
0.042696 0.013097 0.881000
0.022669 -0.033365 0.892000
-0.008982 0.023513 0.864000
0.019776 -0.026816 0.894000
-0.006300 -0.016750 0.887000
-0.039833 0.021307 0.847000
0.014982 0.009016 0.872000
-0.026774 0.003288 0.876000
-0.012698 0.008326 0.875000
-0.003698 0.008696 0.876000
0.014590 0.014366 0.870000
0.038171 0.001848 0.877000
-0.032367 -0.013373 0.881000
0.001370 -0.020080 0.889000
0.010737 0.026754 0.877000
0.026288 -0.000318 0.878000
0.016427 -0.029694 0.892000
0.016114 0.005085 0.875000
0.017162 -0.023452 0.892000
0.018140 -0.034599 0.886000
0.024705 -0.009437 0.886000
-0.028249 0.002931 0.877000
0.025635 -0.025316 0.893000
-0.027019 -0.011599 0.884000
-0.011525 0.015762 0.868000
0.011873 0.000406 0.881000
0.011485 0.027900 0.879000
0.009764 -0.010908 0.887000
-0.016864 0.017528 0.867000
-0.027475 0.022801 0.864000
-0.016448 -0.018128 0.883000
-0.024829 0.041269 0.871000
-0.025962 0.029101 0.861000
-0.028055 0.029421 0.860000
0.043352 -0.021130 0.887000
-0.039932 0.009374 0.872000
0.044712 -0.011612 0.885000
0.038214 -0.000318 0.878000
-0.015028 0.022090 0.864000
-0.020574 0.007229 0.873000
-0.011399 -0.010896 0.886000
-0.040976 -0.011534 0.879000
-0.025517 0.040864 0.870000
-0.006144 0.022116 0.865000
-0.040207 -0.000318 0.878000
-0.009044 0.012934 0.870000
0.038780 -0.027093 0.891000
0.008668 -0.014194 0.887000
0.021543 -0.033327 0.891000
0.042551 0.010523 0.878000
0.018550 0.015816 0.871000
0.006133 -0.026696 0.890000
-0.017902 -0.018491 0.883000
-0.019246 0.000766 0.878000
0.045701 0.012764 0.883000
0.005389 -0.014576 0.888000
0.038047 -0.021592 0.891000
0.031998 0.003288 0.876000
0.016950 -0.004308 0.881000
0.002052 0.016119 0.868000
-0.001190 -0.017134 0.888000
0.005650 0.025525 0.872000
0.033993 -0.004670 0.881000
0.036241 0.007957 0.874000
-0.022112 0.000765 0.877000
-0.033165 0.022801 0.864000
-0.028313 -0.001765 0.879000
0.005023 -0.028464 0.888000
0.021910 -0.032961 0.891000
0.011237 -0.017134 0.888000
-0.038945 0.005799 0.874000
0.003847 0.013292 0.870000
-0.027321 -0.014477 0.882000
0.012829 0.022295 0.872000
0.009314 0.002938 0.879000
-0.038629 0.004005 0.875000
-0.001921 -0.012383 0.888000
-0.035584 0.011156 0.871000
0.039469 -0.026696 0.890000
-0.014499 0.007606 0.875000
0.033974 -0.020836 0.890000
0.028651 -0.005050 0.884000
-0.017781 0.002570 0.877000
0.016078 -0.027154 0.893000
0.041733 0.007615 0.876000
-0.038945 0.020003 0.866000
-0.035943 0.010439 0.871000
0.028392 0.002567 0.876000
0.022726 -0.003216 0.880000
-0.006943 0.008336 0.876000
0.046165 0.008355 0.878000
0.044465 -0.030139 0.873000
0.008144 0.012218 0.870000
0.012961 -0.036579 0.881000
0.026923 -0.009813 0.887000
0.018284 -0.024949 0.893000
0.000624 0.012934 0.870000
0.041574 -0.024444 0.888000
0.002830 -0.012017 0.888000
-0.002602 0.029081 0.871000
0.038883 -0.011248 0.885000
-0.020493 -0.011612 0.885000
0.034200 0.001126 0.877000
-0.025786 0.038939 0.867000
0.013500 0.015780 0.869000
0.039931 0.016780 0.884000
0.033204 -0.018251 0.889000
0.020031 -0.033253 0.889000
0.046221 0.014995 0.886000
-0.021561 -0.017784 0.884000
0.024002 0.027059 0.887000
0.001693 0.020383 0.867000
-0.021652 0.007948 0.873000
-0.018460 0.005445 0.875000
0.007445 0.024807 0.872000
0.019040 -0.028288 0.894000
0.013079 -0.018617 0.889000
-0.025274 0.008317 0.874000
-0.014740 0.015405 0.868000
-0.038143 0.023513 0.864000
0.044033 -0.013813 0.886000
-0.030746 0.020003 0.866000
-0.035590 -0.012995 0.880000
0.032691 -0.010884 0.885000
-0.027701 0.032253 0.860000
-0.012211 0.030339 0.866000
-0.032004 -0.014461 0.881000
0.033532 -0.016768 0.888000
0.035041 -0.003216 0.880000
0.043175 0.004009 0.876000
0.036210 -0.007580 0.882000
-0.040106 0.016476 0.868000
0.022135 0.013666 0.871000
0.009013 -0.006149 0.885000
-0.027701 0.029775 0.860000
-0.009138 0.038754 0.879000
-0.001556 -0.010921 0.888000
-0.038365 0.026620 0.861000
-0.011657 0.006187 0.878000
-0.013889 -0.001045 0.882000
0.046533 -0.015983 0.885000
0.034089 -0.024949 0.893000
0.018785 -0.006491 0.882000
-0.043147 -0.001765 0.879000
0.019626 0.014383 0.871000
-0.038855 0.009733 0.872000
-0.033443 0.026651 0.862000
0.001693 0.022881 0.867000
-0.035666 0.008667 0.873000
0.003561 -0.013114 0.888000
-0.033664 0.005097 0.877000
0.038848 0.011220 0.876000
0.009399 -0.014194 0.887000
-0.026316 0.029810 0.861000
-0.042673 0.010862 0.848000
0.008210 0.006541 0.877000
-0.024752 -0.004670 0.881000
-0.018249 0.021048 0.865000
0.002830 -0.013479 0.888000
0.013324 0.000044 0.881000
-0.004840 -0.014924 0.887000
-0.022678 -0.012341 0.885000
0.039343 0.013429 0.879000
0.032469 -0.001765 0.879000
-0.033126 0.023841 0.863000
0.007885 -0.034766 0.881000
-0.023395 0.012590 0.871000
0.019648 0.018706 0.872000
-0.032440 -0.009405 0.883000
-0.030276 0.011541 0.873000
-0.008856 -0.016019 0.887000
-0.037569 0.029387 0.859000
-0.019924 0.002567 0.876000
-0.006515 0.018242 0.867000
-0.002248 0.030944 0.873000
-0.038169 -0.013373 0.881000
-0.002644 -0.021447 0.885000
0.003477 0.017528 0.867000
-0.040615 -0.001765 0.879000
0.019555 -0.010508 0.884000
-0.013587 -0.014543 0.886000
-0.019833 0.039163 0.872000
-0.024302 0.020692 0.865000
0.007947 -0.011652 0.888000
0.034379 -0.021959 0.891000
0.011287 -0.023819 0.892000
-0.014284 -0.004322 0.884000
0.037363 0.006526 0.875000
0.007208 -0.030257 0.887000
0.030209 -0.014194 0.887000
-0.027701 0.031545 0.860000
0.029810 -0.010896 0.886000
-0.030225 -0.006491 0.882000
0.020054 -0.019737 0.890000
-0.014268 -0.002864 0.883000
0.029013 0.010104 0.873000
0.021852 0.005439 0.874000
-0.018648 0.018599 0.867000
-0.040661 -0.009736 0.880000
-0.017519 -0.002861 0.882000
0.025944 -0.030760 0.891000
0.029279 -0.003583 0.881000
0.010163 -0.020103 0.890000
0.014741 -0.039029 0.879000
0.040158 0.014548 0.881000
0.010129 -0.015654 0.887000
-0.000093 0.009767 0.875000
-0.010061 0.021404 0.865000
-0.028773 -0.007217 0.882000
0.025635 -0.024949 0.893000
-0.026763 0.037026 0.864000
-0.003383 -0.013114 0.888000
-0.021677 0.041411 0.874000
0.034263 -0.017499 0.888000
0.028716 -0.008343 0.886000
0.014444 0.029118 0.883000
-0.020315 0.027716 0.862000
-0.021171 0.036840 0.868000
-0.020053 0.019290 0.866000
-0.024583 0.004005 0.875000
0.010435 0.030900 0.882000
-0.037081 -0.006121 0.881000
-0.031568 0.015065 0.869000
0.020076 0.020211 0.875000
-0.014316 0.029558 0.864000
0.015988 -0.032119 0.888000
-0.029814 0.014366 0.870000
0.040202 -0.021934 0.890000
0.012022 -0.024187 0.892000
0.021205 0.001126 0.877000
0.024537 0.022137 0.880000
-0.009086 0.034936 0.874000
-0.039529 -0.002489 0.879000
-0.017175 -0.018128 0.883000
-0.025303 0.043980 0.875000
-0.030569 0.027329 0.861000
0.010281 0.018999 0.869000
-0.014482 0.007957 0.874000
-0.020516 -0.018189 0.886000
-0.032491 0.021048 0.865000
0.030160 0.014809 0.875000
-0.011657 0.005464 0.878000
0.003521 0.005103 0.878000
0.000979 0.017171 0.867000
-0.016488 0.019646 0.866000
0.033783 0.020442 0.885000
0.014791 -0.006491 0.882000
-0.024555 0.007238 0.874000
-0.039394 0.002928 0.876000
-0.017639 0.012576 0.870000
-0.020598 0.005799 0.874000
0.048278 -0.017644 0.877000
0.033042 0.005085 0.875000
0.017234 0.023506 0.877000
-0.029365 0.003657 0.878000
-0.024808 -0.008679 0.883000
0.020283 -0.010508 0.884000
0.002097 -0.024781 0.887000
-0.019378 -0.015238 0.884000
0.035806 -0.004670 0.881000
0.042066 -0.026850 0.883000
0.038388 0.016379 0.882000
-0.009457 0.036057 0.875000
-0.004742 0.029014 0.869000
-0.018271 0.033904 0.866000
-0.015401 0.021048 0.865000
0.038241 -0.014924 0.887000
0.006478 -0.029527 0.887000
-0.018691 0.014349 0.869000
0.035806 -0.021202 0.890000
0.007437 0.010798 0.871000
-0.023126 0.029810 0.861000
-0.024471 0.014383 0.871000
0.025118 0.005085 0.875000
-0.030846 0.001491 0.879000
-0.024695 -0.002851 0.879000
-0.018584 0.022801 0.864000
-0.041555 0.014926 0.861000
-0.022444 0.032683 0.862000
0.024843 0.000405 0.878000
-0.005205 -0.012369 0.887000
-0.038938 -0.013388 0.882000
0.010996 0.017211 0.869000
0.005625 0.021835 0.868000
-0.013936 -0.017076 0.885000
-0.019496 0.007229 0.873000
-0.011827 0.022446 0.864000
0.040797 -0.014924 0.887000
-0.019960 0.030199 0.862000
-0.032885 0.018934 0.866000
0.031113 -0.023819 0.892000
0.013985 0.024949 0.877000
0.033354 -0.025684 0.893000
0.012584 0.027932 0.880000
0.005996 0.013292 0.870000
0.005285 0.010798 0.871000
0.006405 0.006901 0.877000
0.011472 0.027146 0.878000
0.012684 -0.031718 0.887000
0.009367 -0.032702 0.884000
0.042987 -0.022591 0.887000
-0.042153 0.008954 0.866000
0.043352 -0.014924 0.887000
0.008639 -0.032702 0.884000
-0.031931 0.000405 0.879000
0.025549 -0.014975 0.890000
0.016931 -0.003216 0.880000
-0.011485 0.028524 0.865000
0.041892 -0.014924 0.887000
0.032838 -0.019349 0.889000
0.014982 0.009733 0.872000
0.024138 -0.032631 0.892000
0.024175 -0.003216 0.880000
-0.004796 0.036583 0.879000
-0.007933 0.020003 0.866000
-0.009554 -0.020331 0.884000
-0.040831 0.020585 0.846000
0.037172 0.014515 0.879000
-0.043322 0.006116 0.868000
0.027924 -0.005414 0.884000
-0.017700 0.038489 0.873000
0.020121 -0.030094 0.893000
0.001698 0.012218 0.870000
-0.018842 0.002928 0.876000
-0.011399 -0.007979 0.886000
-0.020480 0.037240 0.869000
-0.012756 0.004023 0.879000
0.011287 -0.027858 0.892000
0.027935 0.014416 0.873000
0.018657 0.003649 0.876000
0.041514 -0.001765 0.879000
-0.018249 0.021760 0.865000
0.015394 0.023092 0.875000
0.023010 0.020257 0.877000
0.005401 -0.020103 0.890000
-0.001524 0.013292 0.870000
-0.023207 0.023157 0.864000
-0.038356 0.001487 0.877000
-0.026113 0.000043 0.878000
-0.019605 0.027716 0.862000
0.013020 -0.012341 0.885000
0.036456 -0.016403 0.888000
0.009356 -0.003227 0.883000
-0.020053 0.034616 0.866000
0.011589 -0.016019 0.887000
-0.008726 0.034577 0.874000
-0.021961 0.011873 0.871000
0.000636 -0.022565 0.886000
-0.012380 0.035819 0.878000
-0.022473 0.000404 0.877000
-0.026949 0.016156 0.870000
-0.035217 0.026651 0.862000
0.013505 -0.026786 0.893000
-0.034826 -0.001042 0.879000
-0.034102 0.001491 0.879000
0.029114 -0.010908 0.887000
-0.006300 -0.013099 0.887000
0.029180 0.000405 0.878000
-0.033954 0.019646 0.866000
-0.026082 0.021760 0.865000
-0.010441 0.017528 0.867000
0.045699 0.005091 0.876000
0.028176 -0.023085 0.892000
-0.027383 -0.010508 0.884000
0.019334 0.006878 0.874000
-0.033417 -0.012995 0.880000
0.033344 -0.007588 0.883000
0.005637 0.013650 0.870000
0.005023 -0.029926 0.888000
0.008698 -0.020103 0.890000
0.043996 -0.025975 0.878000
0.036415 -0.015654 0.887000
0.035524 -0.009042 0.883000
0.027288 -0.009083 0.887000
0.001337 0.016119 0.868000
-0.033443 0.027006 0.862000
-0.042104 0.009299 0.865000
0.030608 -0.016403 0.888000
-0.003703 0.007623 0.877000
-0.042951 0.002924 0.875000
0.043635 0.000043 0.878000
0.011615 -0.029960 0.889000
0.034922 0.001487 0.877000
-0.001547 0.006222 0.883000
-0.038364 0.013992 0.869000
0.008266 -0.003591 0.883000
-0.019385 0.016834 0.868000
0.014965 0.019760 0.871000
-0.014655 0.025261 0.863000
0.029212 -0.020836 0.890000
-0.033492 -0.007217 0.882000
0.023430 -0.030094 0.893000
0.030520 0.004005 0.875000
0.034719 -0.006121 0.881000
-0.023234 0.021760 0.865000
0.027073 0.020326 0.880000
0.024844 -0.020126 0.891000
-0.041488 0.013603 0.867000
-0.015721 0.028103 0.863000
-0.033779 -0.003941 0.880000
0.041892 -0.014559 0.887000
-0.005141 0.009057 0.876000
-0.014432 0.010798 0.871000
0.025061 0.015493 0.873000
0.000623 0.013992 0.869000
0.017352 -0.036662 0.883000
-0.036034 -0.007217 0.882000
-0.016641 0.007238 0.874000
0.029146 0.025262 0.888000
0.032980 -0.006861 0.883000
-0.009575 -0.017825 0.886000
0.027310 0.003288 0.876000
-0.019014 -0.010508 0.884000
-0.015323 0.000769 0.881000
0.047589 -0.023259 0.871000
-0.015739 0.023157 0.864000
-0.035027 0.005445 0.875000
0.004605 0.005103 0.878000
0.029479 0.024504 0.887000
-0.043478 0.018384 0.857000
0.035923 0.010847 0.875000
0.013826 -0.019737 0.890000
0.006696 0.021121 0.868000
0.023088 -0.027920 0.894000
0.016280 -0.035612 0.884000
0.023983 0.016212 0.873000
-0.023691 -0.007217 0.882000
0.029732 0.012978 0.873000
0.010639 0.019357 0.869000
0.014281 0.007229 0.873000
0.029013 0.007589 0.873000
0.006507 -0.025993 0.891000
-0.018713 0.012934 0.870000
0.028716 -0.007979 0.886000
0.022102 0.025876 0.884000
0.014049 0.028327 0.881000
-0.006888 0.015065 0.869000
-0.012712 0.038622 0.876000
-0.016225 0.010439 0.871000
0.005989 0.014707 0.869000
-0.001876 0.018599 0.867000
-0.017497 0.030234 0.863000
0.040337 -0.029727 0.893000
-0.044329 0.013032 0.853000
-0.025726 0.021048 0.865000
-0.037432 0.023157 0.864000
-0.020668 0.001487 0.877000
0.029015 0.022238 0.884000
-0.001519 0.025735 0.867000
-0.037119 0.020692 0.865000
0.018058 -0.037710 0.882000
0.025779 0.014775 0.873000
-0.020083 -0.007588 0.883000
-0.022799 0.033037 0.862000
-0.012128 -0.014907 0.886000
-0.040153 0.012561 0.869000
0.038937 0.000043 0.878000
-0.040774 0.017528 0.867000
-0.019071 0.012576 0.870000
-0.011498 0.030339 0.866000
0.017066 -0.016019 0.887000
-0.010822 0.032590 0.869000
0.019919 -0.010508 0.884000
-0.032209 0.018599 0.867000
0.018317 0.023145 0.877000
0.000628 0.007975 0.876000
-0.030241 0.012963 0.872000
0.031516 -0.026419 0.893000
-0.000825 -0.013479 0.888000
0.037271 -0.028894 0.890000
0.043896 0.002928 0.876000
-0.000459 -0.018230 0.888000
-0.042737 -0.009352 0.878000
0.018657 0.002567 0.876000
0.017615 0.023894 0.878000
0.013354 -0.003227 0.883000
0.023678 0.018410 0.875000
0.045127 -0.016731 0.886000
-0.016786 0.027037 0.863000
-0.038938 -0.009395 0.882000
0.037355 -0.027858 0.892000
-0.032809 0.022801 0.864000
-0.012394 0.002938 0.879000
-0.039880 0.022728 0.848000
0.009957 0.023372 0.872000
-0.040568 -0.001041 0.878000
-0.032618 0.005103 0.878000
0.037384 -0.010144 0.884000
0.030520 0.005085 0.875000
-0.013794 0.037179 0.876000
0.029346 -0.004681 0.883000
-0.035968 0.024906 0.863000
0.041620 0.019436 0.889000
0.015103 0.026092 0.879000
0.009452 -0.026389 0.892000
0.036698 0.018985 0.885000
0.008871 0.023703 0.871000
0.043946 -0.026668 0.877000
0.001003 -0.016768 0.888000
-0.004475 -0.013099 0.887000
-0.036149 0.004009 0.876000
0.019267 0.012949 0.871000
-0.017873 0.032403 0.864000
-0.036635 -0.001765 0.879000
-0.005558 -0.020719 0.885000
-0.036232 0.000405 0.878000
0.021319 -0.034659 0.897000
-0.015029 -0.011248 0.885000
0.004292 -0.017134 0.888000
-0.025845 0.016495 0.869000
0.018017 0.025397 0.880000
-0.016786 0.030234 0.863000
0.043224 0.008706 0.877000
0.028031 0.002567 0.876000
0.037130 0.013414 0.878000
0.000271 -0.007988 0.887000
0.013138 -0.024949 0.893000
0.044498 0.017222 0.888000
-0.024555 0.007957 0.874000
-0.030746 0.019290 0.866000
0.007208 -0.009083 0.887000
0.041325 0.005805 0.875000
0.036988 -0.023452 0.892000
-0.031632 0.029101 0.861000
-0.041826 0.017431 0.845000
0.013324 -0.000319 0.881000
-0.014655 0.027037 0.863000
-0.007221 0.020359 0.866000
-0.037401 -0.012633 0.880000
-0.009359 0.020359 0.866000
-0.030916 -0.013373 0.881000
-0.026053 0.004009 0.876000
-0.034503 -0.013720 0.880000
-0.019071 0.013292 0.870000
0.010663 0.010798 0.871000
-0.022087 0.003288 0.876000
0.003196 -0.016403 0.888000
0.026281 -0.019370 0.890000
-0.015958 0.005451 0.876000
-0.040568 -0.000679 0.878000
-0.003011 -0.008708 0.886000
-0.035926 0.027006 0.862000
-0.041966 0.001126 0.877000
0.015482 -0.001043 0.880000
0.001745 -0.026816 0.894000
0.023036 0.021364 0.878000
-0.020670 0.028070 0.862000
0.010518 -0.018617 0.889000
-0.040027 -0.013025 0.882000
-0.010305 -0.013084 0.886000
-0.009044 0.013292 0.870000
0.033306 -0.006491 0.882000
0.016777 0.009733 0.872000
0.032284 0.011914 0.874000
0.045494 -0.022025 0.879000
-0.033075 0.011873 0.871000
0.029766 0.007238 0.874000
0.021492 0.019108 0.874000
0.042987 0.017567 0.887000
0.016606 -0.036984 0.882000
-0.026565 -0.005396 0.881000
0.008580 -0.037178 0.878000
-0.012829 -0.004322 0.884000
-0.004394 0.012232 0.871000
-0.015393 -0.011612 0.885000
0.033822 0.019735 0.886000
-0.004054 0.010127 0.875000
0.001001 -0.007988 0.887000
-0.019181 0.004725 0.875000
0.031198 0.020055 0.884000
0.007496 0.028953 0.878000
0.040935 -0.021202 0.890000
0.021640 -0.003578 0.880000
-0.011034 -0.007249 0.886000
0.029645 -0.023085 0.892000
-0.020766 0.018934 0.866000
-0.033876 0.022801 0.864000
0.038751 -0.007217 0.882000
-0.038675 0.027297 0.860000
0.043746 -0.030498 0.873000
0.007462 0.007957 0.874000
-0.003686 0.031303 0.873000
-0.030415 0.006901 0.877000
-0.007568 0.022472 0.865000
0.023291 0.006158 0.874000
0.020420 -0.017905 0.890000
0.025577 -0.022693 0.891000
0.045490 -0.026157 0.872000
0.009441 -0.021592 0.891000
-0.018355 0.012934 0.870000
-0.024886 0.010463 0.873000
-0.005501 0.008696 0.876000
-0.020433 0.017528 0.867000
0.010447 0.031298 0.883000
0.016587 -0.005396 0.881000
0.036490 -0.004303 0.880000
-0.020377 -0.003216 0.880000
0.038981 -0.002851 0.879000
0.033279 -0.022326 0.891000
0.009399 -0.013099 0.887000
-0.011399 -0.014907 0.886000
0.007513 -0.035451 0.880000
-0.019115 0.038445 0.872000
-0.010095 0.016476 0.868000
0.036374 -0.013813 0.886000
0.023717 -0.014975 0.890000
-0.006856 0.024252 0.865000
0.044668 0.007984 0.877000
0.027576 0.009385 0.873000
0.022905 0.016931 0.873000
-0.010657 -0.005420 0.885000
0.000636 -0.007988 0.887000
-0.000825 -0.016768 0.888000
0.016096 0.021627 0.874000
-0.030484 0.002576 0.879000
0.044762 0.015360 0.886000
0.041372 0.004009 0.876000
-0.042834 -0.005027 0.880000
-0.039978 0.007589 0.873000
0.037620 -0.004670 0.881000
-0.033758 0.028747 0.861000
0.039657 0.018641 0.886000
0.044762 -0.018554 0.886000
-0.024836 -0.012691 0.884000
-0.037302 0.026975 0.861000
-0.007396 -0.009083 0.887000
0.023744 -0.020859 0.891000
0.041828 -0.030312 0.878000
0.017836 -0.017885 0.889000
0.012305 -0.011990 0.886000
-0.000094 -0.021471 0.886000
0.018976 -0.021959 0.891000
0.021812 -0.013099 0.887000
0.043536 0.007975 0.876000
-0.008846 -0.008343 0.886000
-0.038900 0.008667 0.873000
-0.020598 0.041052 0.874000
-0.041131 0.012889 0.867000
0.011654 -0.024554 0.892000
0.013173 0.011873 0.871000
0.024285 0.025148 0.884000
0.018930 0.019065 0.872000
0.032654 -0.009052 0.884000
-0.015721 0.027393 0.863000
0.012194 -0.039346 0.878000
-0.031459 0.019290 0.866000
-0.030881 -0.002854 0.880000
-0.007031 -0.009813 0.887000
0.021153 -0.020103 0.890000
0.043585 0.008706 0.877000
-0.016262 0.008307 0.873000
-0.026825 0.038181 0.866000
-0.016262 0.038130 0.873000
-0.020400 -0.004308 0.881000
0.030869 -0.009063 0.885000
-0.014825 0.008667 0.873000
-0.017497 0.027748 0.863000
0.013857 -0.023819 0.892000
0.015880 -0.006128 0.882000
0.013005 -0.008688 0.884000
0.029512 -0.016403 0.888000
0.038089 -0.024554 0.892000
-0.014284 -0.005050 0.884000
-0.024836 -0.011235 0.884000
-0.039123 0.000043 0.878000
-0.000818 0.035941 0.881000
-0.039755 0.003288 0.876000
-0.013464 0.005464 0.878000
-0.030259 -0.011586 0.883000
0.026708 -0.023819 0.892000
-0.005882 0.037307 0.879000
-0.004022 0.027551 0.868000
0.010106 -0.005784 0.885000
-0.017618 0.036167 0.869000
-0.003669 0.028656 0.869000
0.015464 0.026092 0.879000
0.044082 -0.016750 0.887000
-0.044854 -0.005010 0.877000
0.010140 -0.017134 0.888000
0.033193 -0.001765 0.879000
0.026648 -0.018638 0.890000
-0.016103 -0.005414 0.884000
0.004621 0.033040 0.881000
0.031848 -0.024187 0.892000
0.006874 -0.023059 0.891000
-0.023481 0.029810 0.861000
-0.029794 -0.003578 0.880000
0.007616 -0.024554 0.892000
0.006427 -0.035451 0.880000
0.006085 -0.032301 0.883000
-0.023617 0.018934 0.866000
0.016835 0.004725 0.875000
0.008952 0.004385 0.879000
-0.028047 -0.006854 0.882000
0.014741 -0.040114 0.879000
-0.033075 0.011515 0.871000
-0.012183 0.022446 0.864000
-0.042424 -0.011534 0.879000
-0.042470 0.022643 0.858000
-0.022755 -0.017865 0.888000
-0.003656 0.019646 0.866000
0.024505 -0.030428 0.892000
0.046834 0.006541 0.877000
-0.009065 0.033421 0.872000
0.005767 -0.026696 0.890000
0.000981 0.015065 0.869000
-0.030355 0.021048 0.865000
0.038839 -0.010871 0.884000
-0.020621 0.004725 0.875000
0.048718 -0.011248 0.885000
-0.025370 0.037069 0.865000
0.023975 0.026664 0.886000
0.002075 0.005464 0.878000
-0.026354 0.011195 0.874000
-0.026052 0.022090 0.864000
0.014177 -0.018983 0.889000
-0.005788 0.021760 0.865000
0.000995 0.034853 0.881000
-0.036449 0.020359 0.866000
0.029406 0.006518 0.874000
-0.000094 -0.012383 0.888000
0.008881 0.009733 0.872000
-0.017873 0.022801 0.864000
0.026229 0.017710 0.876000
0.021777 0.015458 0.871000
-0.023354 -0.008679 0.883000
-0.024544 0.029455 0.861000
0.009452 -0.024921 0.892000
-0.031822 0.007254 0.876000
0.016399 0.010798 0.871000
0.028720 0.004005 0.875000
0.013764 -0.012719 0.886000
0.004658 -0.017499 0.888000
-0.042007 0.010343 0.863000
0.042305 -0.016403 0.888000
-0.007752 -0.017825 0.886000
0.012642 -0.008688 0.884000
0.014161 -0.032119 0.888000
0.024398 0.004365 0.875000
-0.013296 0.017885 0.867000
-0.015721 0.026327 0.863000
-0.017221 0.034300 0.867000
0.027935 0.012978 0.873000
-0.031277 0.027329 0.861000
0.009775 -0.017865 0.888000
0.030869 -0.010520 0.885000
-0.017175 -0.004681 0.883000
-0.033740 0.000767 0.879000
0.007224 -0.028496 0.889000
-0.037119 0.021048 0.865000
0.003927 -0.026637 0.888000
0.027809 -0.031896 0.892000
-0.038900 0.007948 0.873000
-0.010282 -0.018876 0.884000
-0.015029 -0.005784 0.885000
-0.005815 0.014349 0.869000
-0.011034 -0.012719 0.886000
0.002763 0.021096 0.867000
-0.003300 0.020359 0.866000
0.013733 -0.007961 0.884000
0.036091 -0.017134 0.888000
-0.003681 0.030549 0.872000
0.020145 0.022448 0.878000
0.022212 0.018389 0.874000
0.036254 -0.023085 0.892000
-0.029608 0.023157 0.864000
0.013020 -0.009791 0.885000
-0.036763 0.021048 0.865000
0.034803 0.008677 0.874000
0.009409 -0.016768 0.888000
-0.028610 0.005458 0.877000
0.022237 0.004725 0.875000
-0.034102 0.002214 0.879000
-0.005935 -0.014559 0.887000
0.018593 0.008667 0.873000
-0.043679 0.006116 0.868000
0.023744 -0.021959 0.891000
-0.044493 -0.008981 0.877000
0.035280 0.019006 0.886000
0.036978 -0.007952 0.883000
-0.012829 -0.019604 0.884000
0.011287 -0.023452 0.892000
0.035964 0.002567 0.876000
-0.028442 -0.009769 0.883000
-0.035148 0.002573 0.878000
-0.036176 0.015762 0.868000
0.036961 0.007957 0.874000
0.038971 -0.015289 0.887000
-0.024386 0.038269 0.868000
-0.004409 0.010835 0.874000
0.017175 0.006518 0.874000
0.013640 -0.039346 0.878000
0.007159 0.031590 0.881000
0.013531 0.011873 0.871000
0.027987 0.024476 0.886000
0.018213 0.010092 0.872000
0.013294 -0.040114 0.879000
0.027350 -0.014592 0.889000
0.021443 0.009374 0.872000
-0.000459 -0.017134 0.888000
0.012097 0.021194 0.871000
-0.018307 -0.013434 0.885000
-0.031641 -0.006121 0.881000
-0.011827 0.026358 0.864000
0.034719 -0.005758 0.881000
0.019984 0.010798 0.871000
0.004292 -0.011286 0.888000
0.041986 -0.022642 0.889000
-0.012814 -0.018491 0.883000
-0.032999 0.014349 0.869000
0.029766 0.006158 0.874000
0.012427 0.016495 0.869000
-0.038212 -0.009395 0.882000
-0.009117 0.007262 0.877000
0.031529 0.007948 0.873000
0.005709 -0.035129 0.881000
-0.010305 -0.014178 0.886000
0.026252 -0.014226 0.889000
-0.020957 0.005799 0.874000
-0.003018 -0.017134 0.888000
-0.023142 0.004005 0.875000
0.019738 0.021315 0.876000
-0.020261 0.004365 0.875000
0.001696 0.014349 0.869000
0.003882 0.005825 0.878000
0.006058 0.030433 0.879000
-0.034582 -0.010847 0.882000
0.043224 0.009067 0.877000
-0.027590 -0.002489 0.879000
-0.031350 0.023841 0.863000
0.036241 0.007597 0.874000
0.010996 0.014707 0.869000
0.040523 -0.026301 0.889000
-0.043871 -0.004660 0.879000
-0.011854 0.020359 0.866000
-0.022522 0.021048 0.865000
0.027466 -0.003583 0.881000
-0.004114 -0.011286 0.888000
-0.023699 0.015780 0.869000
0.037062 -0.011612 0.885000
0.026281 -0.016074 0.890000
-0.013952 -0.014907 0.886000
0.026229 0.018071 0.876000
-0.019356 -0.018128 0.883000
-0.008646 0.028201 0.866000
0.046526 -0.020193 0.878000
-0.024499 0.012963 0.872000
-0.026825 0.020359 0.866000
0.002437 0.006187 0.878000
-0.021950 -0.017805 0.885000
-0.022678 0.012232 0.871000
0.026950 0.002207 0.876000
0.023237 0.015476 0.872000
0.015137 -0.003583 0.881000
0.012684 -0.016019 0.887000
-0.004419 0.008336 0.876000
-0.006658 -0.007249 0.886000
0.013339 -0.001045 0.882000
-0.028378 -0.004670 0.881000
-0.002950 0.015405 0.868000
0.018699 0.023171 0.878000
0.031163 0.020759 0.883000
0.028159 0.019964 0.880000
0.041012 0.004009 0.876000
-0.025564 -0.011235 0.884000
0.022830 -0.009780 0.884000
0.004302 -0.022301 0.890000
0.010724 0.026363 0.876000
0.021977 -0.002489 0.879000
-0.022089 0.026297 0.862000
0.011654 -0.028225 0.892000
-0.001919 -0.007258 0.887000
-0.033837 0.023841 0.863000
0.015517 -0.005039 0.882000
0.037046 0.002567 0.876000
0.021590 0.021725 0.878000
0.044978 0.002567 0.876000
-0.003745 -0.016384 0.887000
-0.023126 0.029101 0.861000
-0.007015 -0.006877 0.885000
0.007938 -0.030257 0.887000
-0.019960 0.029135 0.862000
-0.013684 0.014707 0.869000
-0.006251 0.037711 0.880000
0.016409 -0.022693 0.891000
0.004547 0.018955 0.867000
0.000625 0.027647 0.871000
0.016854 0.003649 0.876000
-0.013449 0.039749 0.877000
0.006507 -0.025260 0.891000
-0.032695 0.028392 0.861000
-0.042951 0.002564 0.875000
0.021959 -0.030829 0.893000
0.009786 -0.018617 0.889000
-0.031931 0.000767 0.879000
0.019039 0.000765 0.877000
-0.042110 -0.003941 0.880000
-0.035185 0.012576 0.870000
-0.018735 0.010439 0.871000
0.018934 -0.017885 0.889000
0.039164 0.005085 0.875000
-0.028088 0.027684 0.861000
0.050005 -0.014477 0.882000
0.014081 -0.005408 0.883000
-0.012553 0.021048 0.865000
0.047753 -0.020101 0.874000
0.006463 -0.030918 0.885000
-0.014300 0.026327 0.863000
0.027248 0.006518 0.874000
0.036685 0.003288 0.876000
0.011173 -0.003227 0.883000
0.017254 0.000405 0.878000
0.034551 0.019735 0.886000
-0.012843 -0.006149 0.885000
0.010072 -0.001045 0.882000
0.006789 -0.035089 0.880000
-0.040435 0.017779 0.845000
-0.001902 0.034774 0.879000
-0.007761 -0.014924 0.887000
-0.000812 0.010475 0.874000
0.047626 -0.010884 0.885000
-0.027729 0.014399 0.872000
0.014608 -0.026051 0.893000
-0.016095 0.022446 0.864000
-0.026897 -0.004303 0.880000
0.006851 -0.013114 0.888000
0.003834 0.020026 0.867000
0.017549 -0.028624 0.893000
-0.013587 -0.013449 0.886000
-0.046446 -0.001753 0.873000
-0.035671 -0.007217 0.882000
-0.023744 -0.011599 0.884000
0.037146 -0.014559 0.887000
0.015934 -0.011248 0.885000
0.028081 -0.016421 0.889000
-0.017539 -0.005771 0.883000
0.032509 -0.019737 0.890000
-0.000092 0.017885 0.867000
0.043569 -0.023242 0.884000
0.034551 -0.013813 0.886000
0.030248 -0.032517 0.899000
0.007454 0.025913 0.873000
-0.022268 0.015422 0.869000
0.042478 -0.010871 0.884000
-0.007023 -0.021471 0.886000
0.039433 -0.005758 0.881000
-0.029540 0.025942 0.862000
-0.016244 0.009733 0.872000
-0.020400 -0.005396 0.881000
-0.039167 -0.002851 0.879000
0.035192 -0.027889 0.893000
0.016418 0.009733 0.872000
0.031148 -0.026051 0.893000
0.006727 0.010092 0.872000
0.041620 -0.021178 0.889000
0.017736 -0.010871 0.884000
0.031410 -0.020836 0.890000
0.035121 -0.007580 0.882000
-0.001537 0.006541 0.877000
-0.016450 0.031336 0.864000
-0.000806 0.025765 0.868000
0.028095 0.000043 0.878000
0.025898 0.019174 0.877000
-0.014631 -0.018855 0.883000
0.037355 0.016198 0.892000
0.027639 0.004725 0.875000
0.030486 0.012993 0.874000
0.038562 -0.013449 0.886000
0.030505 -0.009063 0.885000
0.009709 -0.034806 0.882000
0.025239 -0.030061 0.892000
0.006140 -0.023059 0.891000
-0.017559 -0.010508 0.884000
0.008590 0.003661 0.879000
0.003927 -0.016768 0.888000
0.017136 0.020141 0.872000
0.036241 0.009036 0.874000
0.034994 0.021973 0.888000
0.031304 -0.015289 0.887000
0.011287 -0.028225 0.892000
0.021664 -0.006121 0.881000
-0.024444 -0.014493 0.883000
-0.000093 0.006187 0.878000
0.014225 -0.024187 0.892000
-0.027830 0.022801 0.864000
-0.029533 -0.009405 0.883000
0.015952 -0.013084 0.886000
0.029278 -0.028959 0.892000
-0.036933 0.014349 0.869000
0.025449 0.006878 0.874000
0.003517 0.030725 0.877000
-0.038452 0.010439 0.871000
-0.006194 0.032344 0.872000
0.036822 -0.016768 0.888000
0.013309 -0.037262 0.880000
-0.039439 0.001487 0.877000
-0.036426 0.006878 0.874000
-0.046659 0.000043 0.877000
-0.019878 0.006518 0.874000
-0.031279 -0.004670 0.881000
0.000980 0.016834 0.868000
-0.018918 0.030234 0.863000
-0.009575 -0.005061 0.886000
0.017715 -0.008679 0.883000
-0.017241 0.016834 0.868000
0.007965 -0.020103 0.890000
-0.036702 0.009016 0.872000
-0.006144 0.021048 0.865000
-0.027347 0.029421 0.860000
0.002763 0.020383 0.867000
0.021689 -0.006854 0.882000
0.046872 -0.025768 0.871000
-0.001164 0.015405 0.868000
0.021153 -0.018271 0.890000
0.012069 0.017568 0.869000
0.007831 0.007606 0.875000
0.013702 -0.036258 0.882000
0.018614 0.006518 0.874000
0.027350 -0.014226 0.889000
0.020670 -0.012341 0.885000
-0.005828 0.012232 0.871000
0.047936 -0.012691 0.884000
-0.036848 0.018599 0.867000
0.020810 -0.032227 0.891000
0.016427 -0.024187 0.892000
-0.025564 -0.009780 0.884000
-0.032566 0.017885 0.867000
0.016262 -0.008315 0.883000
0.029013 0.009385 0.873000
0.020796 0.005085 0.875000
-0.035993 -0.005033 0.881000
0.015324 0.011156 0.871000
-0.025994 0.007957 0.874000
0.039477 -0.007217 0.882000
0.017455 0.012934 0.870000
-0.013961 0.029558 0.864000
-0.006920 0.011541 0.873000
-0.034509 0.011156 0.871000
-0.020339 0.031655 0.863000
-0.037549 0.004725 0.875000
-0.038400 0.000405 0.878000
0.046375 -0.018107 0.882000
0.034032 -0.006854 0.882000
0.018120 -0.012705 0.885000
0.013094 -0.020836 0.890000
-0.016622 0.038130 0.873000
-0.045161 -0.009769 0.883000
0.025606 -0.023085 0.892000
-0.010669 -0.008708 0.886000
0.019671 0.008667 0.873000
0.040976 0.015671 0.883000
-0.001878 0.026480 0.868000
0.013655 0.002214 0.879000
0.021205 0.021701 0.877000
-0.018207 0.026327 0.863000
0.019776 -0.027920 0.894000
-0.022138 -0.000318 0.878000
-0.000453 0.009057 0.876000
0.042890 -0.012341 0.885000
0.016059 0.009374 0.872000
0.023141 0.024366 0.882000
0.035766 0.022729 0.889000
-0.010669 -0.010531 0.886000
-0.018266 -0.005771 0.883000
0.038971 -0.015654 0.887000
-0.019605 0.025942 0.862000
0.030834 -0.007233 0.884000
-0.029828 -0.004670 0.881000
0.013749 -0.012341 0.885000
0.038084 0.008326 0.875000
0.035559 -0.025684 0.893000
-0.028346 -0.003216 0.880000
0.001003 -0.019327 0.888000
-0.011991 0.008696 0.876000
-0.024190 0.029810 0.861000
-0.001552 -0.007614 0.886000
-0.010585 0.039477 0.879000
0.029810 -0.012355 0.886000
0.023877 -0.033514 0.896000
-0.014219 0.002217 0.880000
0.009420 -0.018251 0.889000
0.035363 -0.001765 0.879000
0.007192 -0.006149 0.885000
0.048223 -0.018345 0.876000
0.045908 -0.020239 0.880000
0.006120 -0.010921 0.888000
0.028943 -0.026419 0.893000
-0.004017 0.026449 0.867000
-0.018286 -0.015965 0.884000
0.026559 0.017330 0.875000
0.004933 0.025884 0.872000
-0.003741 -0.007614 0.886000
-0.034469 0.013650 0.870000
0.024314 0.013322 0.872000
-0.033792 0.011873 0.871000
-0.017195 -0.016329 0.884000
0.048972 -0.012676 0.883000
-0.010897 0.035696 0.875000
0.047665 -0.017684 0.879000
0.016006 -0.018251 0.889000
-0.005088 0.017171 0.867000
-0.028571 -0.016384 0.887000
0.034122 0.012288 0.875000
0.045127 -0.018189 0.886000
-0.001889 0.030585 0.873000
-0.008163 -0.021592 0.891000
0.015447 0.024978 0.878000
0.026252 -0.013494 0.889000
0.018099 0.028423 0.884000
0.020844 0.001848 0.877000
0.015137 -0.036942 0.881000
0.019386 -0.026051 0.893000
0.038301 0.014531 0.880000
-0.029693 0.005819 0.877000
0.040477 -0.026637 0.888000
0.015257 -0.017499 0.888000
0.030091 0.009385 0.873000
-0.014648 -0.019240 0.884000
-0.034987 0.006878 0.874000
-0.013794 0.007254 0.876000
0.043983 -0.021811 0.885000
0.041059 0.001848 0.877000
0.020121 -0.024949 0.893000
0.034302 -0.019349 0.889000
0.027497 -0.004313 0.882000
0.026408 -0.004676 0.882000
0.020740 -0.015306 0.888000
0.006071 -0.036217 0.881000
0.023371 0.000765 0.877000
0.034083 0.006878 0.874000
-0.017935 0.017171 0.867000
0.007822 0.007957 0.874000
-0.040743 0.006158 0.874000
0.036739 -0.013813 0.886000
0.027576 0.014416 0.873000
0.038171 0.000765 0.877000
0.042863 0.009428 0.877000
0.007616 -0.023085 0.892000
0.018171 0.013292 0.870000
-0.007761 -0.009083 0.887000
0.014691 0.024200 0.876000
-0.014672 0.028847 0.864000
0.022415 0.024729 0.882000
0.029868 0.001848 0.877000
-0.040821 0.014333 0.868000
-0.017175 -0.002864 0.883000
-0.005501 0.009057 0.876000
-0.034503 -0.013358 0.880000
0.016777 0.009016 0.872000
0.035923 0.004365 0.875000
-0.008826 -0.020331 0.884000
0.006704 0.014707 0.869000
-0.021379 0.029490 0.862000
0.024038 0.018410 0.875000
0.020076 -0.021959 0.891000
-0.030207 0.013666 0.871000
-0.041700 -0.011534 0.879000
-0.018562 0.030589 0.863000
0.001712 0.007262 0.877000
0.043896 0.002207 0.876000
-0.022444 0.031973 0.862000
-0.022037 0.006518 0.874000
-0.042224 0.014318 0.846000
-0.017914 0.020003 0.866000
0.042454 0.004370 0.876000
-0.036991 0.026297 0.862000
0.011135 -0.036176 0.880000
0.027319 -0.011652 0.888000
-0.021073 0.033470 0.864000
0.045442 -0.022723 0.878000
0.016757 -0.031092 0.890000
0.034512 -0.012341 0.885000
-0.007665 0.036098 0.876000
0.023264 0.008307 0.873000
0.012069 0.015065 0.869000
0.019829 0.023948 0.880000
-0.031669 0.026297 0.862000
-0.017214 -0.011612 0.885000
0.037705 0.016398 0.883000
0.034551 -0.013084 0.886000
0.007777 0.021860 0.869000
-0.019541 0.041098 0.875000
-0.025043 0.037468 0.866000
-0.020670 0.027361 0.862000
0.007479 0.007254 0.876000
0.008659 -0.008708 0.886000
