0.007078 -0.011070 0.871000
0.032815 -0.008541 0.869000
-0.050869 0.009780 0.845000
0.019876 0.020007 0.851000
-0.003239 0.015435 0.850000
-0.046599 -0.000310 0.856000
0.024487 0.024969 0.853000
-0.019775 0.007775 0.854000
-0.027245 -0.015319 0.868000
-0.013020 0.017863 0.849000
0.000969 0.008871 0.858000
0.048218 0.000753 0.863000
-0.041458 -0.003140 0.859000
0.028096 0.010964 0.856000
0.036157 0.012359 0.855000
-0.020502 0.005321 0.855000
-0.036390 0.013654 0.848000
-0.019798 0.006025 0.855000
-0.028641 -0.012803 0.867000
-0.017355 0.005327 0.856000
-0.024989 0.009159 0.852000
0.025304 -0.009972 0.869000
-0.039485 0.017472 0.847000
-0.017914 -0.010650 0.866000
-0.024930 0.012287 0.850000
-0.034417 0.010550 0.851000
-0.019287 0.020285 0.848000
0.008414 0.031582 0.861000
0.016286 -0.003517 0.865000
0.034285 0.003232 0.861000
-0.011154 -0.006023 0.867000
-0.032078 0.026052 0.854000
-0.026361 0.024210 0.851000
-0.031963 -0.018935 0.870000
-0.025919 0.018191 0.848000
0.012829 -0.016466 0.872000
0.020915 -0.004942 0.865000
-0.007428 0.016116 0.849000
0.012785 -0.009614 0.869000
0.039110 0.028646 0.858000
-0.037614 0.007406 0.852000
0.031669 -0.002455 0.867000
0.028983 0.022458 0.851000
-0.002212 0.007467 0.859000
0.015893 0.032721 0.863000
0.001659 0.016835 0.850000
-0.007612 -0.011415 0.870000
-0.041325 0.012622 0.849000
0.021377 0.010951 0.855000
0.014965 -0.015372 0.871000
0.010068 0.022458 0.851000
0.031523 0.004305 0.863000
-0.042723 0.001452 0.856000
-0.028414 -0.020749 0.871000
-0.022079 0.018191 0.848000
0.012470 -0.017543 0.872000
-0.019514 0.000749 0.858000
0.023596 -0.021850 0.872000
-0.029860 0.000751 0.861000
0.040286 0.024267 0.853000
0.008697 0.010938 0.854000
0.024831 -0.003873 0.865000
0.017314 -0.001023 0.863000
-0.020829 0.007072 0.854000
0.006658 0.033076 0.863000
0.018475 0.017905 0.851000
0.002009 0.017534 0.850000
0.016267 0.033470 0.864000
-0.002919 0.006760 0.859000
0.010198 0.003590 0.862000
0.026304 0.010951 0.855000
0.028382 0.012696 0.854000
0.018913 0.010599 0.855000
0.012370 -0.000669 0.865000
0.015007 0.013734 0.853000
0.040617 0.004998 0.860000
-0.014074 -0.018598 0.871000
0.042472 -0.016767 0.869000
-0.001880 -0.022490 0.869000
0.011456 0.021382 0.850000
-0.030851 0.002871 0.859000
0.039344 -0.014296 0.871000
-0.013416 0.024238 0.852000
0.022545 -0.020078 0.873000
0.022905 -0.019000 0.873000
0.011631 0.033076 0.863000
-0.017193 0.018889 0.848000
0.050521 -0.010429 0.848000
-0.042972 -0.015904 0.861000
-0.038945 -0.022769 0.866000
-0.033523 0.004969 0.855000
0.049811 -0.013502 0.866000
-0.004687 0.006760 0.859000
0.051629 -0.012188 0.849000
0.021320 -0.007808 0.867000
0.035495 0.010612 0.856000
-0.045329 0.006354 0.852000
0.007957 0.021382 0.850000
0.010541 0.005004 0.861000
-0.030249 0.024939 0.852000
-0.026763 -0.008136 0.864000
-0.044277 -0.006270 0.852000
-0.031558 0.002871 0.859000
-0.015098 0.018889 0.848000
-0.031169 0.004280 0.858000
-0.039337 0.030094 0.859000
0.041565 -0.002093 0.865000
0.026913 0.024238 0.852000
0.041447 -0.010341 0.870000
-0.038143 -0.010981 0.864000
0.034088 0.034220 0.865000
0.004458 0.016835 0.850000
0.045334 -0.008541 0.869000
-0.015097 -0.012818 0.868000
-0.003273 0.007113 0.859000
0.001342 -0.012504 0.871000
0.041495 -0.017881 0.871000
-0.020406 0.012301 0.851000
0.023516 0.010259 0.856000
0.009411 0.026435 0.855000
0.011604 0.006067 0.861000
-0.002539 0.022782 0.850000
0.050930 -0.001356 0.849000
-0.026516 0.003918 0.856000
0.000260 0.013702 0.851000
-0.037562 -0.023152 0.867000
0.019626 -0.014296 0.871000
0.011276 0.002884 0.863000
0.033615 0.016192 0.853000
-0.046896 0.001450 0.855000
-0.015045 -0.004586 0.865000
-0.030107 0.019936 0.848000
-0.021220 -0.021800 0.870000
-0.027664 0.017144 0.848000
-0.012625 -0.020009 0.870000
-0.000092 -0.022542 0.871000
0.040778 -0.012863 0.871000
-0.037248 -0.017105 0.868000
0.044510 0.006414 0.860000
0.009900 -0.003882 0.867000
0.005858 0.017884 0.850000
0.017444 0.015822 0.852000
0.034564 -0.007459 0.868000
0.030069 0.023186 0.852000
0.032982 0.000754 0.864000
0.047507 0.001819 0.863000
-0.010095 -0.008531 0.868000
-0.018670 -0.015319 0.868000
-0.033326 0.030094 0.859000
0.030734 0.021758 0.851000
0.024544 0.011655 0.855000
0.035278 -0.008174 0.868000
-0.027794 0.009159 0.852000
0.049055 0.005699 0.859000
-0.034427 0.030483 0.860000
-0.025756 -0.012789 0.866000
0.011022 -0.017881 0.871000
0.010269 -0.020321 0.868000
0.008326 0.024589 0.852000
0.014931 -0.011760 0.869000
-0.009284 0.005699 0.859000
0.010908 0.032328 0.862000
-0.039811 0.004260 0.854000
-0.024133 0.029033 0.859000
-0.045519 0.013670 0.849000
-0.026899 0.002864 0.857000
-0.003934 0.019960 0.849000
-0.008972 0.033076 0.863000
0.008860 -0.010341 0.870000
0.002014 0.013367 0.852000
0.038627 -0.015372 0.871000
0.032210 -0.013595 0.872000
0.043295 0.000398 0.864000
0.021729 0.010599 0.855000
0.005508 0.019633 0.850000
-0.048257 0.012258 0.848000
-0.037432 -0.010981 0.864000
-0.047908 0.013305 0.848000
-0.028382 -0.022516 0.870000
0.029036 -0.027663 0.863000
-0.021608 0.002159 0.857000
-0.025577 0.030483 0.860000
0.010406 0.019983 0.850000
-0.004003 0.033470 0.864000
0.028295 -0.019719 0.873000
-0.008507 0.011965 0.852000
0.036904 0.011316 0.856000
-0.011649 0.013001 0.851000
-0.032973 0.029741 0.859000
-0.010344 0.029741 0.859000
0.019400 0.030873 0.861000
-0.008328 -0.019651 0.870000
-0.030179 0.002166 0.860000
-0.022481 0.013686 0.850000
-0.041362 0.028966 0.857000
0.016060 0.025320 0.853000
0.018913 0.011303 0.855000
0.022705 0.015121 0.852000
0.005968 0.005389 0.866000
-0.009547 0.013352 0.851000
-0.028382 -0.020009 0.870000
0.015218 -0.002805 0.865000
-0.010477 -0.011057 0.870000
0.011276 0.032721 0.863000
-0.037614 0.024589 0.852000
-0.034469 -0.020725 0.870000
0.035288 0.020707 0.851000
-0.022481 0.012287 0.850000
-0.028608 -0.011719 0.866000
0.027186 -0.014672 0.872000
0.028548 0.007113 0.859000
-0.018940 -0.008136 0.864000
0.008657 0.019633 0.850000
0.020749 -0.017922 0.873000
0.012870 0.016504 0.851000
-0.033203 -0.009214 0.865000
0.038268 -0.016089 0.871000
0.017156 -0.019719 0.873000
-0.041374 0.010887 0.850000
-0.035998 0.017821 0.847000
-0.031965 0.010199 0.851000
0.046851 -0.001024 0.864000
0.013698 0.006053 0.859000
-0.036782 0.012272 0.849000
-0.016845 -0.010294 0.866000
-0.043428 0.001452 0.856000
-0.039485 0.016426 0.847000
0.032867 0.030873 0.861000
0.027576 -0.016844 0.873000
-0.027125 0.008468 0.853000
0.029732 -0.015767 0.873000
-0.013188 0.004644 0.860000
-0.003677 -0.012504 0.871000
-0.021961 0.002159 0.857000
0.030810 -0.018641 0.873000
-0.004319 0.027523 0.856000
-0.039833 0.015729 0.847000
0.031121 0.022835 0.852000
-0.006380 0.016465 0.849000
-0.024744 -0.016034 0.868000
-0.023853 0.013670 0.849000
-0.036647 0.004963 0.854000
-0.038900 -0.012774 0.865000
0.001340 -0.018935 0.870000
-0.042470 -0.003136 0.858000
0.029919 -0.023893 0.868000
-0.020122 -0.017125 0.869000
0.002754 0.033470 0.864000
0.008346 0.011641 0.854000
-0.039904 0.027875 0.856000
0.019870 -0.026689 0.866000
0.041066 0.002881 0.862000
0.020369 0.028260 0.857000
0.014828 0.033076 0.863000
0.019626 -0.022542 0.871000
-0.047908 -0.001005 0.848000
0.031785 0.020007 0.851000
-0.043729 -0.008052 0.855000
0.017669 -0.001733 0.863000
-0.015666 0.002166 0.860000
0.025891 0.015139 0.853000
-0.042074 0.010187 0.850000
0.027359 0.011303 0.855000
-0.031503 0.015399 0.848000
0.011367 -0.011774 0.870000
-0.040277 0.012272 0.849000
-0.036390 0.021332 0.848000
0.024701 -0.018282 0.873000
-0.002536 0.017863 0.849000
0.003445 0.007820 0.859000
0.025573 -0.025977 0.866000
-0.046861 0.013305 0.848000
-0.038225 0.011237 0.850000
-0.033641 0.001102 0.858000
-0.017955 -0.015319 0.868000
0.010056 0.019633 0.850000
0.026211 0.016523 0.852000
-0.015502 0.011951 0.851000
-0.035818 0.009149 0.851000
-0.050173 0.010823 0.845000
0.029391 0.004305 0.863000
0.027292 0.033114 0.864000
0.036665 -0.005667 0.867000
0.012184 0.024589 0.852000
-0.033756 0.008107 0.852000
-0.017997 -0.018935 0.870000
0.010769 0.016504 0.851000
-0.013326 -0.012118 0.869000
-0.036113 0.029000 0.858000
-0.005755 0.030837 0.860000
0.000260 0.023159 0.851000
-0.017456 -0.002084 0.861000
0.020249 -0.007808 0.867000
0.010920 0.002174 0.863000
0.036552 0.010612 0.856000
-0.040324 -0.013486 0.865000
0.034005 -0.017543 0.872000
-0.023475 0.017144 0.848000
0.013906 -0.018261 0.872000
0.025003 -0.013221 0.871000
-0.021709 -0.004919 0.861000
-0.047739 -0.002741 0.845000
0.006704 -0.018913 0.869000
-0.022600 -0.014962 0.868000
0.027744 0.010612 0.856000
0.031377 0.029741 0.859000
-0.040751 0.029741 0.859000
-0.018376 -0.019315 0.871000
-0.000789 0.018911 0.849000
-0.020053 -0.011363 0.866000
-0.024744 -0.024608 0.868000
-0.048033 -0.007891 0.838000
-0.014993 -0.000312 0.862000
0.048106 0.003941 0.861000
0.045282 -0.013890 0.868000
-0.037205 -0.016372 0.867000
-0.030456 0.017493 0.848000
0.038896 -0.008541 0.869000
0.000266 -0.012504 0.871000
0.039337 0.000043 0.863000
0.018233 -0.020078 0.873000
-0.011142 -0.005304 0.866000
0.008483 -0.020678 0.868000
0.022545 -0.018282 0.873000
0.040590 -0.005310 0.867000
0.009229 -0.017881 0.871000
-0.039413 0.025320 0.853000
0.037107 -0.018198 0.869000
-0.013783 0.010223 0.853000
0.004152 0.007820 0.859000
0.016373 0.015804 0.851000
0.013954 0.013383 0.853000
0.012470 -0.018620 0.872000
0.047752 0.003941 0.861000
0.035702 0.003232 0.861000
-0.002241 -0.019293 0.870000
-0.020862 -0.018577 0.870000
-0.033987 0.022755 0.849000
-0.039136 0.016426 0.847000
0.025750 0.005352 0.860000
-0.011039 0.029353 0.858000
0.027355 0.034616 0.866000
0.039862 0.007113 0.859000
-0.019985 0.016795 0.848000
-0.035118 0.009149 0.851000
0.024475 -0.003873 0.865000
-0.045189 -0.001367 0.856000
-0.028362 0.020634 0.848000
0.024745 0.001816 0.862000
-0.011471 0.033470 0.864000
0.034937 0.019656 0.851000
-0.011167 -0.008888 0.868000
-0.034547 -0.007416 0.863000
-0.031652 0.009159 0.852000
-0.029117 0.001812 0.860000
0.004157 0.007122 0.860000
-0.017456 0.031227 0.861000
-0.034336 0.013670 0.849000
-0.025487 -0.017483 0.869000
-0.029814 -0.023590 0.870000
-0.024960 0.024210 0.851000
-0.025548 -0.001725 0.859000
-0.038439 0.016078 0.847000
0.019870 -0.006373 0.866000
0.005631 -0.007468 0.869000
-0.023481 -0.003856 0.861000
-0.022243 -0.014604 0.868000
0.025187 -0.026303 0.865000
0.044924 -0.016034 0.868000
-0.025875 -0.018935 0.870000
0.023681 0.000752 0.862000
0.032638 0.012711 0.855000
-0.015080 -0.009592 0.867000
-0.038677 -0.021035 0.868000
-0.048834 -0.002362 0.834000
0.016098 0.010951 0.855000
0.049588 -0.004538 0.856000
0.024802 0.033114 0.864000
-0.019787 -0.018219 0.870000
-0.045976 0.008448 0.851000
-0.043478 -0.004190 0.857000
0.022186 -0.017204 0.873000
0.019288 0.009202 0.856000
-0.011167 -0.022107 0.868000
0.033342 0.013063 0.855000
0.016173 0.029741 0.859000
0.029402 0.015490 0.853000
0.017057 -0.009246 0.868000
0.025158 -0.027695 0.864000
-0.028674 -0.024608 0.868000
0.008860 -0.012132 0.870000
-0.032321 -0.021442 0.870000
0.017795 0.023537 0.852000
0.021827 -0.017922 0.873000
-0.014432 -0.019315 0.871000
0.040947 -0.005667 0.867000
0.003409 0.019283 0.850000
-0.010586 0.014036 0.850000
-0.047210 -0.005891 0.848000
-0.032315 0.010550 0.851000
0.017515 -0.019000 0.873000
-0.001165 -0.022490 0.869000
0.013555 0.018234 0.850000
0.002731 0.028260 0.857000
-0.011000 0.027139 0.855000
0.004490 0.027170 0.856000
0.011698 -0.005673 0.868000
0.032777 -0.005673 0.868000
-0.020480 -0.024994 0.869000
0.034237 0.019656 0.851000
0.004916 -0.021417 0.869000
0.040263 0.004998 0.860000
-0.024049 0.003918 0.856000
-0.034469 -0.022158 0.870000
0.025989 -0.008174 0.868000
-0.020009 0.022056 0.849000
0.028983 0.020007 0.851000
0.005213 0.029387 0.859000
-0.027411 0.031973 0.862000
0.036834 -0.011787 0.871000
0.023596 -0.015390 0.872000
0.006557 0.020683 0.850000
-0.003315 -0.013564 0.870000
-0.047137 0.004255 0.853000
-0.029253 -0.005291 0.864000
0.030634 0.008165 0.858000
-0.020315 0.032328 0.862000
-0.040893 -0.008117 0.862000
-0.014767 0.016116 0.849000
0.024063 -0.001378 0.863000
-0.032416 -0.003865 0.863000
-0.044978 -0.005919 0.852000
-0.001166 -0.013922 0.870000
-0.024872 0.017842 0.848000
-0.032973 0.030094 0.859000
0.011132 0.014069 0.852000
0.012227 0.026787 0.855000
0.025216 -0.004947 0.866000
0.014623 -0.019337 0.872000
0.006215 0.015103 0.851000
0.038582 -0.009625 0.870000
0.034840 -0.004234 0.866000
0.006259 0.027908 0.857000
0.028781 -0.000314 0.866000
-0.009738 -0.022821 0.868000
0.019310 0.007097 0.857000
0.025830 0.017905 0.851000
0.032562 0.024618 0.853000
-0.017042 0.029353 0.858000
-0.028284 -0.013874 0.867000
-0.027220 0.003918 0.856000
0.034403 -0.016126 0.873000
0.020749 -0.021156 0.873000
0.045586 -0.004239 0.867000
0.025129 -0.028018 0.863000
0.015324 -0.021825 0.871000
-0.003315 -0.014996 0.870000
-0.042215 -0.014824 0.860000
0.023623 -0.019360 0.873000
0.017334 -0.002802 0.864000
-0.013234 -0.000668 0.863000
0.007714 0.031973 0.862000
-0.041958 -0.010601 0.862000
-0.026299 0.014019 0.849000
0.003812 0.031973 0.862000
-0.009761 -0.017145 0.870000
-0.022428 0.016097 0.848000
0.026827 -0.015748 0.872000
0.024867 0.026052 0.854000
0.041304 -0.006023 0.867000
-0.022804 0.021357 0.849000
-0.027245 -0.024965 0.868000
-0.032627 0.011937 0.850000
0.034599 0.004998 0.860000
0.027231 0.018956 0.851000
-0.036051 -0.011350 0.865000
0.046354 -0.006030 0.868000
0.022186 -0.019719 0.873000
-0.036534 -0.023536 0.868000
0.017374 -0.006373 0.866000
-0.017022 0.028260 0.857000
0.020576 0.020707 0.851000
-0.019287 0.016446 0.848000
-0.040021 0.009849 0.851000
0.009378 0.014419 0.852000
0.015042 0.026787 0.855000
-0.020854 0.004617 0.855000
0.016604 -0.001733 0.863000
0.027775 -0.023893 0.868000
0.005508 0.018584 0.850000
0.042521 -0.014280 0.870000
0.022328 0.019656 0.851000
-0.016206 -0.020367 0.870000
-0.003584 0.021008 0.849000
-0.010260 0.010913 0.852000
-0.032283 -0.018198 0.869000
-0.001863 0.031227 0.861000
0.009935 -0.009625 0.870000
0.010103 0.025701 0.854000
0.049466 0.002874 0.860000
-0.009761 -0.013564 0.870000
0.008708 0.010599 0.855000
0.010756 0.017884 0.850000
-0.007860 0.008165 0.858000
0.004464 0.023159 0.851000
0.007054 -0.020678 0.868000
-0.029999 -0.006722 0.865000
-0.028284 -0.013517 0.867000
0.013205 0.020683 0.850000
-0.003235 0.018562 0.849000
0.016078 -0.017922 0.873000
-0.016825 -0.006722 0.865000
0.010305 -0.017164 0.871000
-0.020742 -0.010994 0.865000
-0.000791 0.015103 0.851000
0.038627 -0.011787 0.871000
0.018233 -0.021156 0.873000
0.004558 -0.019271 0.869000
0.010092 0.012681 0.853000
0.032063 -0.004601 0.868000
-0.030425 -0.012090 0.867000
0.000619 0.032721 0.863000
-0.031641 -0.021825 0.871000
-0.000807 -0.008899 0.869000
-0.030495 -0.018198 0.869000
0.043238 -0.009267 0.870000
0.032562 0.014787 0.853000
-0.013652 -0.007451 0.867000
-0.023645 -0.013874 0.867000
-0.037744 -0.009903 0.863000
-0.000091 0.007820 0.859000
0.011523 0.009544 0.855000
0.051098 -0.006574 0.846000
0.034921 -0.007459 0.868000
-0.028496 0.024589 0.852000
-0.036176 -0.017463 0.868000
-0.005815 -0.022848 0.869000
-0.030285 0.007064 0.853000
-0.023974 -0.012432 0.866000
-0.050342 0.008705 0.842000
-0.025224 -0.002435 0.860000
0.041495 -0.013938 0.871000
-0.010284 0.026052 0.854000
-0.047343 -0.006857 0.838000
-0.023317 0.004617 0.855000
0.004200 -0.021775 0.869000
0.008041 0.008174 0.859000
-0.001157 0.032721 0.863000
0.017334 0.033114 0.864000
-0.004031 -0.013922 0.870000
-0.022217 -0.013160 0.867000
0.012456 -0.018957 0.871000
-0.036218 -0.019271 0.869000
0.026049 -0.011415 0.870000
0.035329 0.022134 0.852000
0.015502 0.003232 0.861000
0.029698 -0.014672 0.872000
-0.043478 -0.003838 0.857000
0.031486 -0.027631 0.862000
-0.016514 0.019960 0.849000
-0.005822 -0.011057 0.870000
-0.044173 0.009488 0.850000
0.030563 -0.000314 0.866000
0.019198 0.014770 0.852000
0.023028 0.020357 0.851000
-0.026268 0.015748 0.848000
0.046407 -0.008899 0.869000
0.023326 -0.000312 0.862000
0.009522 -0.000669 0.865000
0.019400 -0.032443 0.877000
0.032982 0.000398 0.864000
-0.038833 0.020634 0.848000
0.042570 -0.012146 0.871000
0.019571 0.024969 0.853000
0.018593 -0.017204 0.873000
0.028633 0.022108 0.851000
0.030562 0.011316 0.856000
-0.030207 -0.021466 0.871000
-0.044184 -0.002427 0.857000
0.033926 0.023887 0.852000
-0.024989 0.024589 0.852000
0.044208 0.004649 0.861000
-0.006761 0.025320 0.853000
-0.021479 -0.011363 0.866000
0.035635 -0.008174 0.868000
0.046960 -0.012789 0.866000
-0.023010 -0.021084 0.870000
-0.029456 -0.018577 0.870000
0.007966 0.022458 0.851000
0.013127 -0.006030 0.868000
0.022055 0.013047 0.854000
0.002734 0.028646 0.858000
-0.030853 -0.023921 0.869000
0.022511 0.006046 0.858000
-0.036576 -0.020344 0.869000
-0.021858 0.009170 0.853000
0.027513 -0.013221 0.871000
-0.012730 0.024969 0.853000
0.025661 -0.009256 0.869000
0.039647 0.002171 0.862000
-0.038585 0.029353 0.858000
0.005625 -0.020678 0.868000
-0.028541 -0.006358 0.864000
0.046603 -0.002809 0.866000
0.017962 0.003582 0.860000
0.006980 0.029387 0.859000
0.043903 -0.014264 0.869000
-0.028864 -0.004220 0.863000
-0.036083 0.022056 0.849000
0.001322 0.008871 0.858000
0.005644 -0.010712 0.871000
-0.003627 0.006760 0.859000
0.031450 -0.029725 0.861000
-0.024989 0.024939 0.852000
0.011456 0.019283 0.850000
-0.002187 0.018212 0.849000
0.012111 -0.017543 0.872000
-0.029548 0.008458 0.852000
0.045639 -0.005673 0.868000
0.036792 -0.009983 0.870000
-0.046246 -0.001719 0.856000
0.034750 0.013415 0.855000
-0.010453 -0.008174 0.868000
-0.038945 -0.022412 0.866000
-0.040531 0.014683 0.847000
-0.016903 0.011951 0.851000
-0.038098 0.002506 0.855000
0.034599 0.004644 0.860000
0.013283 0.009895 0.855000
0.020511 0.032365 0.863000
0.039611 -0.017483 0.869000
-0.040229 0.013654 0.848000
-0.015455 -0.014604 0.868000
-0.012140 0.003232 0.861000
0.027423 0.009213 0.857000
0.017792 -0.011760 0.869000
-0.042473 0.008098 0.851000
-0.022455 0.014369 0.849000
-0.002217 0.031582 0.861000
-0.011895 -0.014979 0.869000
-0.010586 0.015085 0.850000
0.039785 -0.001737 0.865000
0.036861 0.012711 0.855000
0.032271 0.001109 0.864000
0.035722 0.024267 0.853000
-0.003311 -0.008183 0.869000
0.032486 0.018956 0.851000
-0.023726 -0.019293 0.870000
-0.040417 -0.019227 0.867000
-0.039858 0.027139 0.855000
-0.003962 0.026435 0.855000
0.028198 -0.012132 0.870000
-0.014417 0.015766 0.849000
0.006719 -0.016806 0.871000
0.009112 0.007122 0.860000
0.025158 0.033114 0.864000
-0.039875 -0.009192 0.863000
0.012520 0.022108 0.851000
-0.001507 0.006060 0.860000
0.028195 -0.031070 0.859000
0.038531 0.016543 0.853000
-0.001166 -0.010341 0.870000
0.037120 0.004295 0.861000
-0.031912 0.029741 0.859000
0.010163 0.029741 0.859000
0.030810 -0.017204 0.873000
0.022339 -0.003873 0.865000
-0.017456 -0.001729 0.861000
-0.012126 0.030837 0.860000
-0.031852 0.018889 0.848000
-0.013204 0.003232 0.861000
0.050057 0.006399 0.858000
0.037784 0.018978 0.852000
-0.035530 -0.004919 0.861000
0.012213 0.011290 0.854000
0.006346 -0.007468 0.869000
-0.021280 0.000749 0.858000
0.047752 0.004295 0.861000
-0.030782 -0.013517 0.867000
0.029357 0.006074 0.862000
0.001320 0.028613 0.857000
-0.033484 0.026052 0.854000
-0.017769 0.000042 0.859000
-0.011800 0.001816 0.862000
-0.017497 -0.005996 0.863000
-0.042067 -0.000310 0.857000
-0.029185 0.032328 0.862000
-0.006896 -0.013564 0.870000
0.030175 0.012359 0.855000
-0.002536 0.019261 0.849000
0.019046 0.001814 0.861000
0.023407 -0.026659 0.865000
-0.040913 0.026787 0.855000
0.045481 -0.002093 0.865000
0.002412 -0.019986 0.869000
0.023729 0.020357 0.851000
0.041805 -0.009267 0.870000
-0.049536 0.011532 0.846000
0.017415 -0.009960 0.868000
0.000266 -0.018935 0.870000
-0.025101 -0.015319 0.868000
-0.006729 0.016465 0.849000
-0.043933 -0.012332 0.859000
-0.031139 -0.010306 0.867000
0.012870 0.015453 0.851000
0.005989 -0.008183 0.869000
0.033260 0.002171 0.862000
0.020649 0.025701 0.854000
-0.018304 0.011600 0.851000
-0.035613 -0.009192 0.863000
0.025130 0.017555 0.851000
-0.038630 0.030094 0.859000
-0.004693 0.005706 0.860000
0.002057 -0.014280 0.870000
0.018952 -0.019000 0.873000
-0.027315 0.017842 0.848000
-0.018355 -0.021800 0.870000
0.021394 -0.012848 0.870000
-0.039531 0.020634 0.848000
0.012799 -0.012848 0.870000
0.022826 -0.013206 0.870000
0.012456 -0.015013 0.871000
0.017053 0.018584 0.850000
0.024860 -0.005660 0.866000
0.021277 0.023159 0.851000
-0.015871 0.024238 0.852000
-0.006038 0.021732 0.850000
-0.016863 0.021357 0.849000
0.031435 0.018606 0.851000
0.024780 0.021057 0.851000
-0.045116 0.012607 0.848000
0.017874 -0.017922 0.873000
0.034872 0.007458 0.858000
0.031523 0.002884 0.863000
0.018593 -0.019719 0.873000
0.030669 -0.004249 0.869000
0.029664 -0.013221 0.871000
-0.010026 0.031973 0.862000
0.025750 -0.020773 0.872000
-0.040976 0.012272 0.849000
0.028490 -0.002458 0.868000
-0.006896 -0.019651 0.870000
-0.048257 0.012607 0.848000
0.039187 0.022485 0.852000
0.001700 -0.017523 0.871000
-0.019891 0.030094 0.859000
-0.037562 -0.015658 0.867000
-0.033049 -0.001375 0.861000
-0.017707 0.004622 0.856000
0.039018 0.027170 0.856000
0.014972 0.017205 0.851000
0.021602 0.033470 0.864000
0.025159 0.023537 0.852000
-0.013621 -0.003517 0.865000
-0.018611 0.022056 0.849000
-0.018261 0.020658 0.849000
-0.006395 0.013702 0.851000
0.032829 0.030483 0.860000
0.040169 0.008165 0.858000
0.036808 0.001462 0.862000
-0.000444 0.006760 0.859000
-0.029898 0.008458 0.852000
0.020030 -0.017922 0.873000
-0.006737 0.015085 0.850000
-0.013400 0.012651 0.851000
-0.029478 0.012636 0.850000
-0.040578 0.021332 0.848000
0.041469 0.000753 0.863000
0.031888 -0.016844 0.873000
-0.008338 -0.018957 0.871000
-0.048143 0.000390 0.846000
0.047425 -0.009960 0.868000
0.029562 -0.003530 0.868000
0.036031 0.019329 0.852000
0.036434 -0.018577 0.870000
-0.028023 -0.020009 0.870000
0.036517 -0.016107 0.872000
0.025012 -0.031777 0.859000
-0.030249 0.027716 0.862000
0.034668 0.024618 0.853000
-0.028153 -0.004930 0.863000
0.024809 0.016874 0.852000
0.022210 -0.032168 0.860000
-0.004389 -0.015712 0.870000
0.026687 0.010259 0.856000
-0.038099 -0.008837 0.863000
0.035680 0.017926 0.852000
0.023873 -0.011045 0.869000
-0.027150 -0.009214 0.865000
0.031420 -0.009267 0.870000
0.038183 0.031227 0.861000
-0.039062 0.005659 0.853000
0.046634 0.006060 0.860000
-0.003635 0.031582 0.861000
0.017057 -0.009603 0.868000
0.043445 -0.004596 0.867000
-0.026774 0.024969 0.853000
-0.028349 -0.018198 0.869000
0.026427 -0.031423 0.859000
0.020030 -0.019000 0.873000
-0.012611 -0.013906 0.869000
-0.043780 0.001452 0.856000
0.033536 0.019656 0.851000
-0.001166 -0.018935 0.870000
-0.003948 0.024589 0.852000
0.027679 0.025701 0.854000
0.026843 -0.029370 0.861000
-0.023481 -0.004919 0.861000
-0.016206 -0.018577 0.870000
-0.034307 0.001453 0.857000
-0.047343 -0.007547 0.838000
-0.028362 0.018540 0.848000
-0.024772 -0.016410 0.869000
0.047918 -0.000669 0.864000
-0.017395 0.029353 0.858000
0.029505 0.027523 0.856000
-0.037649 -0.019629 0.869000
-0.021910 0.026787 0.855000
-0.039904 0.027523 0.856000
-0.046786 0.004606 0.853000
-0.001524 -0.018219 0.870000
-0.011193 -0.016787 0.870000
-0.015702 0.031973 0.862000
0.032249 0.014453 0.854000
0.021729 0.011655 0.855000
0.032345 0.034616 0.866000
-0.013050 0.011951 0.851000
0.030806 0.024267 0.853000
-0.013684 -0.014621 0.869000
-0.021404 -0.007416 0.863000
-0.026742 0.009510 0.852000
0.018778 -0.027015 0.865000
0.021729 0.010247 0.855000
0.038050 0.008871 0.858000
0.009935 -0.008551 0.870000
-0.024173 0.018889 0.848000
-0.002960 -0.017523 0.871000
0.032400 0.008165 0.858000
0.016782 0.011993 0.854000
0.040061 -0.011429 0.871000
0.005560 0.029353 0.858000
0.015783 0.007450 0.857000
0.040373 -0.009625 0.870000
-0.040372 0.009499 0.851000
0.045639 -0.014962 0.868000
0.036266 -0.003878 0.866000
-0.003677 -0.017523 0.871000
-0.038720 0.031936 0.861000
-0.018720 0.026404 0.854000
-0.010477 -0.012490 0.870000
0.010794 0.013383 0.853000
0.019525 0.018255 0.851000
-0.013864 0.005339 0.858000
-0.047671 -0.002757 0.850000
-0.018304 0.012301 0.851000
-0.000090 0.018911 0.849000
0.017608 0.003228 0.860000
0.029402 0.025320 0.853000
-0.019914 0.030483 0.860000
-0.036933 -0.018556 0.869000
-0.048428 0.004245 0.851000
-0.018455 0.001455 0.858000
-0.021381 0.019587 0.848000
0.029997 -0.030044 0.860000
-0.044132 -0.003833 0.856000
0.010663 -0.017881 0.871000
-0.042874 0.006705 0.852000
-0.014383 -0.022464 0.868000
-0.002902 0.026052 0.854000
-0.022878 -0.010282 0.865000
0.029683 0.022108 0.851000
-0.000791 0.023509 0.851000
0.046657 -0.005667 0.867000
-0.046512 0.012258 0.848000
-0.026561 -0.025709 0.869000
0.015322 0.022809 0.851000
0.026316 -0.024579 0.867000
-0.037790 0.027875 0.856000
-0.039485 0.018518 0.847000
-0.031411 0.026787 0.855000
-0.024414 -0.016767 0.869000
-0.020056 0.011600 0.851000
-0.027862 -0.009214 0.865000
0.023790 0.034616 0.866000
0.020392 0.005339 0.858000
0.006557 0.020333 0.850000
0.041805 -0.014280 0.870000
0.028983 0.018606 0.851000
-0.031604 -0.020725 0.870000
0.023218 0.007105 0.858000
0.009356 0.021033 0.850000
0.043600 0.001108 0.863000
-0.040372 0.024210 0.851000
-0.031705 -0.003154 0.863000
-0.039690 -0.003493 0.859000
-0.042018 0.001099 0.856000
-0.044485 -0.000310 0.856000
0.007976 0.013718 0.852000
0.022571 -0.033771 0.874000
0.024925 0.009202 0.856000
-0.034498 0.006010 0.853000
-0.035902 0.007064 0.853000
-0.028376 0.001457 0.859000
0.014573 -0.010329 0.869000
-0.001158 0.033825 0.864000
0.040239 0.018627 0.852000
0.032362 0.009919 0.857000
0.021827 -0.020797 0.873000
-0.027570 -0.013874 0.867000
0.002052 -0.021750 0.868000
-0.006840 0.033076 0.863000
-0.032566 -0.014945 0.867000
0.004927 -0.016447 0.871000
-0.037963 -0.021392 0.868000
-0.017598 -0.014247 0.868000
0.031952 -0.030575 0.865000
-0.009874 0.017863 0.849000
0.014134 0.000043 0.864000
-0.027697 -0.021466 0.871000
0.047316 -0.012789 0.866000
0.036369 0.005352 0.860000
-0.016184 0.013686 0.850000
0.039611 -0.016767 0.869000
0.000266 -0.016070 0.870000
0.017649 -0.000667 0.862000
0.014972 0.015804 0.851000
0.024774 -0.000313 0.863000
-0.035986 0.026787 0.855000
-0.021107 0.024210 0.851000
0.013531 -0.023259 0.871000
0.030067 -0.028340 0.862000
0.034404 -0.000669 0.864000
-0.021000 -0.004564 0.861000
0.025391 -0.021491 0.872000
0.029171 -0.001028 0.867000
-0.012538 0.033470 0.864000
-0.043225 0.007406 0.852000
-0.004704 0.031973 0.862000
0.018605 0.028260 0.857000
-0.041471 0.008107 0.852000
-0.032885 -0.012789 0.866000
-0.000450 -0.008899 0.869000
-0.031632 0.000397 0.861000
0.032607 -0.017922 0.873000
0.011536 0.027523 0.856000
0.029562 -0.002101 0.868000
0.016469 0.027523 0.856000
-0.003315 -0.015712 0.870000
0.039279 0.015156 0.854000
-0.011051 0.030094 0.859000
0.022971 0.030909 0.862000
0.027971 0.032365 0.863000
0.018465 -0.007451 0.867000
-0.016863 0.020658 0.849000
0.014215 -0.010329 0.869000
-0.028046 0.013320 0.849000
0.031822 0.022134 0.852000
-0.009186 0.022782 0.850000
-0.026931 0.000749 0.858000
0.010651 -0.013564 0.870000
-0.008319 -0.021059 0.869000
0.033887 0.018956 0.851000
0.034317 0.015841 0.853000
-0.009536 0.014735 0.850000
-0.006888 -0.008899 0.869000
0.004205 -0.013922 0.870000
-0.033677 0.023482 0.850000
-0.007970 -0.016787 0.870000
0.020678 -0.013206 0.870000
-0.013173 0.030094 0.859000
0.008502 -0.014996 0.870000
0.037823 -0.009614 0.869000
-0.021171 -0.024608 0.868000
-0.022587 0.007072 0.854000
-0.011971 0.017863 0.849000
-0.048090 0.000041 0.839000
0.000609 0.018212 0.849000
0.023626 -0.030752 0.860000
0.045386 -0.009983 0.870000
-0.049177 -0.001675 0.834000
0.039163 -0.005667 0.867000
-0.008676 -0.023205 0.869000
0.029747 0.004660 0.863000
-0.006094 0.029000 0.858000
0.016078 -0.019360 0.873000
-0.045160 -0.010329 0.869000
0.029928 0.029000 0.858000
0.010870 0.007467 0.859000
0.021345 -0.009246 0.868000
0.024601 0.008155 0.857000
0.023729 0.020707 0.851000
0.036224 -0.003161 0.865000
-0.026966 0.019587 0.848000
0.032569 -0.013595 0.872000
-0.005363 0.026052 0.854000
-0.023508 -0.005634 0.862000
0.011341 -0.004601 0.868000
0.020673 0.010951 0.855000
-0.036933 -0.018198 0.869000
-0.037746 0.003561 0.855000
0.003847 -0.017861 0.870000
0.013547 -0.019337 0.872000
-0.015437 -0.008878 0.867000
-0.044837 0.000042 0.856000
-0.048320 -0.007193 0.837000
0.004511 0.006768 0.860000
-0.007262 -0.013221 0.871000
0.007070 -0.021442 0.870000
-0.033365 -0.001019 0.860000
0.012667 0.005004 0.861000
-0.022261 0.005321 0.855000
0.021702 -0.009246 0.868000
0.037336 -0.004234 0.866000
-0.030425 -0.008521 0.867000
-0.010987 0.026052 0.854000
0.037083 0.017225 0.852000
0.036015 0.030129 0.860000
-0.020099 -0.014247 0.868000
-0.003938 0.016135 0.850000
-0.027538 -0.012076 0.866000
-0.022777 0.020285 0.848000
0.036732 0.020030 0.852000
0.002033 0.030837 0.860000
0.033810 -0.005310 0.867000
-0.022340 0.000396 0.858000
-0.036281 -0.006698 0.862000
0.021527 0.002169 0.861000
0.019289 -0.021850 0.872000
-0.014923 0.029000 0.858000
0.006565 0.014753 0.851000
0.017174 0.027170 0.856000
-0.003242 0.014403 0.851000
-0.016903 0.023859 0.851000
0.003785 0.027523 0.856000
-0.037786 0.020285 0.848000
-0.047544 -0.000661 0.854000
-0.022455 0.022056 0.849000
0.038621 0.026083 0.855000
0.024258 -0.012848 0.870000
-0.007860 0.029353 0.858000
0.032046 0.007811 0.858000
0.020951 0.015121 0.852000
-0.048898 0.011895 0.847000
-0.023181 0.012986 0.850000
-0.040021 0.009499 0.851000
-0.018720 0.007775 0.854000
-0.007254 -0.016787 0.870000
0.000964 0.010938 0.854000
0.000974 0.033076 0.863000
-0.029060 0.015748 0.848000
-0.020334 0.019238 0.848000
0.045271 0.005004 0.861000
0.016738 -0.023590 0.870000
-0.005332 0.019610 0.849000
-0.035064 -0.014588 0.867000
0.028621 -0.015031 0.872000
0.028326 0.004305 0.863000
-0.035650 0.017472 0.847000
-0.030460 -0.024608 0.868000
0.011145 0.013383 0.853000
0.002016 0.024969 0.853000
-0.017542 0.017842 0.848000
0.039201 0.030483 0.860000
0.019899 0.023537 0.852000
-0.023946 -0.010994 0.865000
-0.027411 0.011600 0.851000
0.036073 0.016192 0.853000
-0.036296 0.026052 0.854000
0.006712 -0.009625 0.870000
0.011986 0.032721 0.863000
-0.041248 -0.009891 0.862000
-0.014058 -0.016787 0.870000
0.039831 -0.003878 0.866000
-0.034821 -0.004919 0.861000
-0.038276 -0.024579 0.867000
-0.018261 0.021357 0.849000
0.005961 0.034220 0.865000
0.009588 -0.016447 0.871000
-0.042569 -0.014824 0.860000
0.051856 -0.005536 0.847000
0.018757 -0.003513 0.864000
0.021302 0.015822 0.852000
0.041824 0.001819 0.863000
-0.033875 0.004265 0.855000
-0.034113 -0.004564 0.861000
0.024175 -0.007451 0.867000
-0.017852 0.032721 0.863000
0.013329 0.029000 0.858000
0.042741 0.007122 0.860000
0.031952 -0.000669 0.865000
-0.041105 -0.004554 0.859000
-0.029758 0.015748 0.848000
0.050293 0.004622 0.856000
-0.038787 0.015729 0.847000
-0.025570 0.015399 0.848000
0.019491 0.034220 0.865000
0.013937 0.014419 0.852000
-0.042573 0.014787 0.853000
0.023024 -0.027695 0.864000
0.040029 0.015174 0.855000
0.027231 0.020357 0.851000
0.007054 -0.019963 0.868000
-0.036281 -0.007053 0.862000
-0.034113 -0.003501 0.861000
-0.041276 0.014701 0.848000
0.032211 0.024618 0.853000
0.031952 -0.025947 0.865000
-0.007428 0.019610 0.849000
0.019824 -0.028406 0.864000
0.021402 0.009555 0.856000
-0.040370 -0.015997 0.866000
-0.027538 -0.011007 0.866000
0.021678 0.025320 0.853000
-0.031632 0.031582 0.861000
-0.029083 0.029741 0.859000
-0.021181 0.006721 0.854000
-0.049531 0.006956 0.840000
0.028969 -0.032205 0.861000
-0.022640 0.002861 0.856000
-0.005463 -0.014280 0.870000
0.047974 -0.010638 0.865000
-0.025194 -0.001372 0.859000
0.031062 -0.011774 0.870000
0.036496 0.000398 0.863000
-0.044277 0.007406 0.852000
-0.002953 -0.008899 0.869000
0.003847 -0.015712 0.870000
-0.005332 0.019960 0.849000
0.007070 -0.013564 0.870000
-0.030711 -0.006366 0.865000
-0.015116 0.016465 0.849000
-0.018207 -0.005285 0.863000
-0.004031 -0.009983 0.870000
0.033415 -0.002809 0.866000
-0.042975 0.004612 0.854000
-0.010936 0.015085 0.850000
-0.021220 -0.017503 0.870000
-0.006094 0.008165 0.858000
-0.013718 0.016815 0.849000
0.009488 0.032328 0.862000
0.020226 -0.006017 0.866000
-0.005470 -0.023259 0.871000
-0.005111 -0.012863 0.871000
-0.022105 0.021707 0.849000
-0.004026 -0.021059 0.869000
0.037697 0.029000 0.858000
-0.018655 0.012651 0.851000
-0.018313 -0.023893 0.868000
-0.036806 -0.013858 0.866000
-0.047137 0.003202 0.853000
-0.029064 -0.023563 0.869000
-0.026255 0.029741 0.859000
0.022406 0.012344 0.854000
0.005279 -0.008551 0.870000
0.045926 0.007476 0.860000
0.026377 -0.009972 0.869000
-0.035543 -0.021084 0.870000
-0.044485 0.001099 0.856000
-0.029219 -0.002799 0.863000
0.018887 -0.012490 0.870000
0.037551 -0.019674 0.871000
0.027775 -0.004244 0.868000
0.035744 0.001816 0.862000
0.050521 -0.007986 0.848000
0.021295 -0.025977 0.866000
-0.039275 0.010537 0.850000
-0.018655 0.011951 0.851000
0.048385 -0.012789 0.866000
-0.009671 0.031973 0.862000
-0.043377 -0.005940 0.855000
0.035993 -0.008174 0.868000
0.032524 0.016523 0.852000
-0.038055 -0.007763 0.862000
0.029104 0.001111 0.865000
0.042570 -0.013580 0.871000
-0.041374 0.011237 0.850000
-0.024173 0.015748 0.848000
0.017314 0.032365 0.863000
0.027841 -0.031423 0.859000
-0.031949 0.000750 0.860000
0.038582 -0.010699 0.870000
0.044562 0.005004 0.861000
-0.008338 -0.018598 0.871000
-0.021032 0.016446 0.848000
0.037518 0.031973 0.862000
-0.024658 -0.011350 0.865000
-0.036905 -0.005267 0.860000
-0.034667 -0.012432 0.866000
0.012170 0.015804 0.851000
-0.031632 0.031227 0.861000
-0.018786 0.002159 0.857000
0.037508 -0.010341 0.870000
-0.001857 0.029353 0.858000
-0.039528 -0.024693 0.871000
0.011671 -0.001383 0.866000
-0.002899 0.025320 0.853000
0.008317 0.015804 0.851000
0.025959 -0.006023 0.867000
0.028648 -0.028340 0.862000
-0.032896 0.028613 0.857000
0.012564 0.010938 0.854000
-0.029814 -0.019293 0.870000
0.045386 -0.011415 0.870000
0.012991 0.006760 0.859000
-0.025577 -0.002081 0.860000
-0.001168 -0.017164 0.871000
-0.040626 0.017863 0.849000
0.033732 -0.002449 0.865000
0.034206 -0.007459 0.868000
-0.048898 0.010500 0.847000
-0.018123 0.030094 0.859000
-0.043072 -0.018783 0.863000
-0.028846 0.009159 0.852000
0.018825 0.016154 0.851000
0.023378 0.018255 0.851000
0.019778 -0.000312 0.862000
0.036117 -0.011787 0.871000
-0.028880 0.008117 0.853000
-0.012670 0.018911 0.849000
-0.039108 0.026052 0.854000
-0.017583 0.022782 0.850000
-0.046972 0.008788 0.850000
0.019617 0.010247 0.855000
0.018757 -0.003869 0.864000
0.020625 0.013383 0.853000
0.030810 -0.017563 0.873000
-0.032604 -0.025322 0.868000
0.013890 -0.023259 0.871000
-0.036848 -0.023866 0.867000
-0.036819 -0.000664 0.858000
-0.028145 0.008458 0.852000
0.016723 0.021758 0.851000
0.026012 0.008155 0.857000
-0.026998 0.013670 0.849000
-0.035380 -0.013145 0.866000
-0.015098 0.017842 0.848000
0.050350 -0.001709 0.851000
-0.029253 -0.004936 0.864000
0.023571 0.006752 0.858000
0.034277 0.018277 0.852000
-0.030355 -0.005298 0.865000
0.030491 0.013399 0.854000
-0.015544 -0.024749 0.873000
0.020794 -0.031814 0.860000
-0.029643 -0.005654 0.865000
-0.029934 0.025671 0.853000
0.018869 0.014436 0.853000
0.021084 -0.021850 0.872000
0.028935 -0.029690 0.860000
0.009935 -0.009267 0.870000
-0.041024 0.011237 0.850000
0.030777 0.005719 0.862000
-0.014774 -0.017503 0.870000
-0.027540 0.004969 0.855000
-0.010037 0.032721 0.863000
0.025061 -0.019719 0.873000
0.020016 0.027908 0.857000
-0.014519 0.006728 0.855000
0.009356 0.017184 0.850000
-0.038925 0.010887 0.850000
-0.048134 0.001445 0.852000
0.016623 -0.003158 0.864000
0.014604 0.020333 0.850000
0.029085 0.014102 0.854000
0.022747 -0.007451 0.867000
-0.021032 0.019587 0.848000
0.019112 -0.003513 0.864000
0.005631 -0.008183 0.869000
-0.000450 -0.009267 0.870000
0.008444 0.033470 0.864000
-0.018060 0.004270 0.856000
0.043495 -0.006030 0.868000
-0.027307 -0.023232 0.870000
-0.041812 -0.005261 0.859000
0.000624 -0.014996 0.870000
-0.038983 0.030448 0.859000
-0.018938 0.016446 0.848000
0.014965 -0.015730 0.871000
-0.036562 0.024939 0.852000
0.032982 0.033114 0.864000
-0.024630 -0.009914 0.864000
0.007351 0.031582 0.861000
0.000982 -0.013206 0.870000
-0.034747 -0.024250 0.868000
0.001337 -0.021392 0.868000
-0.020456 -0.023536 0.868000
0.033927 -0.021800 0.870000
0.019355 0.004992 0.859000
-0.028046 0.021357 0.849000
-0.037831 0.022056 0.849000
-0.002539 0.016485 0.850000
-0.000092 -0.021750 0.868000
0.048573 -0.008837 0.863000
-0.029031 -0.016748 0.868000
-0.040514 0.026052 0.854000
-0.049177 0.001414 0.834000
-0.004354 0.032721 0.863000
-0.028864 -0.003865 0.863000
-0.047377 0.008098 0.851000
-0.031604 -0.019651 0.870000
-0.005828 -0.018240 0.871000
-0.043125 -0.002427 0.857000
-0.024551 0.015068 0.849000
0.017134 0.011993 0.854000
0.039862 0.029741 0.859000
0.004808 0.016485 0.850000
-0.030888 -0.018935 0.870000
-0.012509 0.032328 0.862000
-0.009547 0.023859 0.851000
0.023407 -0.004586 0.865000
-0.000090 0.026052 0.854000
-0.027827 0.007766 0.853000
-0.039062 0.006010 0.853000
0.030032 0.031227 0.861000
0.042081 0.003941 0.861000
-0.030564 0.024210 0.851000
-0.022288 0.003213 0.856000
0.009566 -0.019629 0.869000
-0.036338 0.026787 0.855000
-0.024580 0.023482 0.850000
0.020951 0.015822 0.852000
0.023983 -0.017204 0.873000
0.033173 -0.022490 0.869000
0.028003 0.003243 0.864000
0.009017 0.022458 0.851000
0.008069 0.032328 0.862000
-0.006455 0.029741 0.859000
-0.040561 0.003561 0.855000
-0.020732 0.014036 0.850000
-0.000450 -0.007826 0.869000
-0.022366 0.029741 0.859000
0.025839 0.000398 0.863000
-0.038787 0.016775 0.847000
-0.042773 0.000042 0.857000
0.035359 -0.020725 0.870000
0.015341 -0.020055 0.872000
0.033608 -0.020749 0.871000
0.015271 -0.008174 0.868000
-0.002960 -0.022900 0.871000
0.017772 -0.026037 0.868000
-0.010119 -0.020725 0.870000
0.019709 0.004285 0.859000
-0.027347 -0.000665 0.860000
0.039064 0.028260 0.857000
-0.033249 0.003570 0.857000
-0.003235 0.016815 0.849000
-0.000442 0.025701 0.854000
-0.003235 0.017164 0.849000
0.022905 -0.019719 0.873000
0.028801 0.010259 0.856000
0.041114 0.001108 0.863000
-0.032641 -0.018198 0.869000
0.022616 -0.000667 0.862000
-0.026408 -0.008492 0.864000
0.020086 -0.031106 0.860000
0.019558 -0.009960 0.868000
-0.000091 0.007113 0.859000
-0.039337 0.029741 0.859000
0.027295 0.014436 0.853000
0.031062 -0.006402 0.870000
0.012313 0.031582 0.861000
0.030457 0.004660 0.863000
-0.011193 -0.011415 0.870000
-0.025931 -0.002789 0.860000
-0.010441 -0.007094 0.867000
-0.011800 0.032328 0.862000
0.037193 -0.011429 0.871000
0.001342 -0.016806 0.871000
0.002747 0.032328 0.862000
0.032063 -0.023536 0.868000
0.012097 -0.016089 0.871000
0.029402 0.024969 0.853000
0.030951 0.008860 0.857000
-0.017294 0.025320 0.853000
0.014623 -0.021132 0.872000
-0.025459 0.003565 0.856000
0.030102 0.032721 0.863000
0.032966 -0.018282 0.873000
-0.010987 0.009181 0.854000
0.018046 -0.002802 0.864000
0.028935 -0.030398 0.860000
-0.039578 0.012622 0.849000
-0.031350 -0.003154 0.863000
0.028133 -0.003887 0.868000
-0.012140 0.031582 0.861000
-0.019139 0.002511 0.857000
0.029153 0.010259 0.856000
-0.010623 0.010575 0.853000
0.034709 0.014805 0.854000
0.027583 0.005719 0.862000
-0.013718 0.020309 0.849000
-0.030425 -0.013517 0.867000
0.035225 0.008518 0.858000
0.015574 -0.003873 0.865000
-0.021578 -0.021084 0.870000
-0.041700 -0.020938 0.864000
-0.022314 0.028260 0.857000
-0.041625 0.013305 0.848000
-0.024173 0.017144 0.848000
-0.010961 0.011965 0.852000
0.014656 0.013383 0.853000
0.030346 -0.010699 0.870000
-0.011090 0.031973 0.862000
-0.040674 0.011237 0.850000
0.013937 0.014770 0.852000
0.004229 -0.022285 0.875000
-0.042165 -0.005261 0.859000
-0.038588 -0.014571 0.866000
-0.032550 0.020983 0.848000
-0.036197 -0.003497 0.860000
-0.023835 -0.004564 0.861000
-0.031338 0.025671 0.853000
0.005279 -0.013564 0.870000
-0.024218 -0.005279 0.862000
0.013921 0.015804 0.851000
-0.006538 -0.014280 0.870000
-0.047544 0.001800 0.854000
0.025425 0.003586 0.861000
0.015148 0.003586 0.861000
-0.016526 -0.023536 0.868000
0.023681 0.000043 0.862000
-0.021684 -0.003143 0.860000
-0.037481 0.022755 0.849000
0.018913 0.009895 0.855000
0.037653 0.009566 0.857000
-0.025487 -0.016767 0.869000
0.029683 0.021408 0.851000
0.014811 0.031618 0.862000
0.027217 -0.017563 0.873000
-0.013400 0.011951 0.851000
0.014673 0.026052 0.854000
0.007985 0.025320 0.853000
-0.005828 -0.013580 0.871000
-0.013574 0.000397 0.862000
-0.035778 -0.024222 0.867000
-0.040014 -0.020630 0.866000
-0.019049 -0.015694 0.869000
0.017475 -0.014296 0.871000
0.044510 0.007122 0.860000
0.023623 -0.019000 0.873000
0.043345 -0.002449 0.865000
-0.014025 -0.012461 0.868000
-0.033126 -0.005285 0.863000
0.050117 -0.002767 0.853000
-0.029117 0.030483 0.860000
0.017774 0.021758 0.851000
0.018869 0.013383 0.853000
-0.001148 0.027170 0.856000
0.039537 0.023537 0.852000
0.026139 -0.019719 0.873000
0.038135 0.023537 0.852000
0.004157 0.006768 0.860000
0.023488 -0.009246 0.868000
-0.029711 -0.011376 0.867000
-0.047433 0.004601 0.852000
-0.021220 -0.018577 0.870000
0.020794 0.003582 0.860000
-0.039200 0.002156 0.856000
-0.025488 0.001806 0.857000
-0.012183 0.033470 0.864000
0.020576 0.022809 0.851000
0.028198 -0.008909 0.870000
0.035143 0.027523 0.856000
-0.011077 0.002523 0.861000
0.020343 -0.014296 0.871000
0.030034 0.021057 0.851000
-0.013416 0.010913 0.852000
-0.023808 -0.003497 0.860000
-0.025221 0.020983 0.848000
-0.036113 -0.001370 0.858000
0.037697 0.028646 0.858000
-0.013684 -0.014264 0.869000
0.042633 -0.002093 0.865000
-0.032190 0.028260 0.857000
-0.024190 -0.003856 0.861000
0.035319 -0.009256 0.869000
-0.048371 0.002841 0.850000
0.018561 0.009895 0.855000
-0.021935 0.003213 0.856000
0.014523 -0.003165 0.866000
0.025861 0.016874 0.852000
-0.009525 0.018212 0.849000
0.007419 -0.007110 0.869000
0.009155 0.033825 0.864000
0.027679 0.026052 0.854000
-0.002554 0.026787 0.855000
0.022879 -0.021850 0.872000
0.025158 -0.002091 0.864000
0.040617 0.005706 0.860000
-0.006073 0.009544 0.855000
-0.007204 0.033470 0.864000
0.000981 -0.007826 0.869000
0.034086 0.011669 0.856000
-0.020221 0.001455 0.858000
0.001677 0.007820 0.859000
0.015341 -0.017184 0.872000
-0.006080 0.027875 0.856000
0.008738 0.028646 0.858000
0.018295 0.004285 0.859000
0.025391 -0.021132 0.872000
-0.037291 -0.019629 0.869000
0.007966 0.014753 0.851000
-0.033405 0.009159 0.852000
-0.034686 0.022755 0.849000
0.012255 0.027908 0.857000
0.003847 -0.013564 0.870000
-0.033016 0.024210 0.851000
0.022081 0.026787 0.855000
0.003066 0.013367 0.852000
-0.028349 -0.025709 0.869000
-0.016206 -0.018219 0.870000
0.032982 -0.000313 0.864000
-0.031522 0.003927 0.858000
-0.016241 0.008468 0.853000
-0.032742 0.007415 0.853000
-0.023672 -0.024250 0.868000
0.006208 0.019283 0.850000
-0.024772 -0.025351 0.869000
-0.001880 -0.009256 0.869000
0.048348 0.006760 0.859000
-0.000440 0.014753 0.851000
0.023928 -0.021825 0.871000
-0.010107 -0.009972 0.869000
-0.021355 0.031582 0.861000
-0.012969 -0.016052 0.869000
0.025425 -0.030079 0.861000
-0.034113 -0.004210 0.861000
0.020630 -0.009603 0.868000
-0.021935 0.004270 0.856000
0.007795 -0.011070 0.871000
-0.004283 0.019610 0.849000
-0.036956 0.006362 0.853000
-0.031103 -0.007442 0.866000
0.008022 0.009213 0.857000
0.035661 0.030483 0.860000
0.002009 0.021732 0.850000
0.017899 0.006744 0.857000
0.006354 -0.015354 0.870000
0.019671 -0.017563 0.873000
-0.038270 0.023859 0.851000
-0.005721 0.027139 0.855000
-0.004994 0.013352 0.851000
0.032211 0.015490 0.853000
-0.020006 -0.008136 0.864000
-0.002192 0.023859 0.851000
0.030705 0.030129 0.860000
0.013682 0.007105 0.858000
-0.016545 -0.022490 0.869000
-0.035635 0.003561 0.855000
0.010056 0.021033 0.850000
-0.024801 -0.018577 0.870000
0.048573 -0.001023 0.863000
0.011367 -0.019651 0.870000
0.013188 -0.019337 0.872000
-0.026711 0.011600 0.851000
0.021327 0.024969 0.853000
-0.048607 -0.005120 0.836000
0.006361 -0.009995 0.871000
0.042830 -0.008183 0.869000
-0.016431 0.033076 0.863000
-0.003673 -0.018935 0.870000
-0.026022 -0.006706 0.863000
0.000616 0.007113 0.859000
0.015654 0.020333 0.850000
-0.035819 -0.025322 0.868000
0.042929 -0.012504 0.871000
-0.030425 -0.013874 0.867000
0.000624 -0.013206 0.870000
-0.012611 -0.015337 0.869000
-0.014101 0.013001 0.851000
0.012505 0.019283 0.850000
-0.007952 -0.022821 0.868000
-0.041392 -0.017402 0.865000
0.032982 0.033470 0.864000
-0.034827 -0.020367 0.870000
-0.022831 0.013336 0.850000
-0.040727 -0.018848 0.866000
0.026881 0.021057 0.851000
-0.031912 0.030094 0.859000
0.015095 0.006752 0.858000
-0.007621 -0.018957 0.871000
-0.024801 -0.022874 0.870000
0.048385 -0.012432 0.866000
-0.024609 0.024210 0.851000
0.029391 -0.027663 0.863000
0.025929 -0.004234 0.866000
-0.003673 -0.009983 0.870000
0.039110 0.029000 0.858000
-0.027669 0.000750 0.859000
0.006719 -0.012146 0.871000
0.048050 0.005706 0.860000
0.014422 0.004998 0.860000
0.016723 0.016854 0.851000
0.013634 0.010247 0.855000
-0.011971 0.020309 0.849000
-0.004764 -0.023312 0.873000
-0.029444 0.012971 0.849000
-0.020756 0.023859 0.851000
-0.011731 0.028260 0.857000
0.039584 0.024267 0.853000
0.037873 0.002526 0.862000
0.031456 -0.013580 0.871000
-0.048090 -0.008591 0.839000
-0.023341 -0.023563 0.869000
0.024946 -0.023205 0.869000
0.015341 -0.020414 0.872000
0.038582 0.001816 0.862000
-0.021986 0.000042 0.858000
-0.018102 0.002161 0.858000
0.000613 0.009895 0.855000
-0.024358 -0.013517 0.867000
-0.015132 -0.017145 0.870000
-0.032641 -0.024278 0.869000
0.009923 -0.021417 0.869000
-0.006187 -0.013221 0.871000
0.002773 -0.014638 0.870000
0.008434 0.032721 0.863000
0.008135 -0.019629 0.869000
-0.015205 0.026404 0.854000
0.014972 0.023159 0.851000
-0.035819 -0.017105 0.868000
-0.000799 0.030837 0.860000
-0.026887 -0.015319 0.868000
-0.010648 0.027139 0.855000
0.023569 -0.014655 0.871000
-0.025340 0.009861 0.852000
0.011262 0.004300 0.862000
-0.018347 0.025671 0.853000
-0.013385 0.014386 0.850000
-0.038439 0.017821 0.847000
0.014793 0.003586 0.861000
-0.023824 0.019587 0.848000
0.011725 -0.012490 0.870000
0.019423 0.000397 0.862000
-0.030425 -0.014231 0.867000
0.003441 0.008871 0.858000
-0.013848 0.006039 0.857000
0.022564 0.003936 0.860000
0.023729 0.018956 0.851000
-0.048205 0.000041 0.835000
-0.008567 0.029353 0.858000
0.002415 -0.008909 0.870000
-0.030107 0.016097 0.848000
0.003851 -0.017164 0.871000
0.005637 -0.009625 0.870000
-0.019752 0.009170 0.853000
0.029187 0.009566 0.857000
0.021957 0.033114 0.864000
0.025218 0.025701 0.854000
-0.006896 -0.016787 0.870000
-0.035343 0.020983 0.848000
0.014101 0.031973 0.862000
0.003091 0.007113 0.859000
-0.038405 0.004963 0.854000
-0.038484 0.013305 0.848000
-0.039927 0.012971 0.849000
0.023326 -0.029050 0.862000
-0.018102 0.001455 0.858000
0.042066 -0.007102 0.868000
0.013826 -0.003882 0.867000
-0.028931 -0.006722 0.865000
-0.010477 -0.011415 0.870000
-0.027061 0.010900 0.851000
0.018486 -0.009246 0.868000
0.004479 0.010938 0.854000
-0.005105 -0.014638 0.870000
-0.006896 -0.011057 0.870000
0.041277 0.007467 0.859000
0.030704 -0.006760 0.870000
0.019153 0.019983 0.850000
0.026255 -0.002093 0.865000
0.010293 -0.018577 0.870000
0.007428 -0.013564 0.870000
-0.025101 -0.014962 0.868000
-0.036476 0.010537 0.850000
0.021652 0.015822 0.852000
0.019915 -0.032467 0.868000
-0.046544 -0.002069 0.855000
-0.001859 0.007820 0.859000
0.031027 -0.005322 0.869000
0.010553 0.004655 0.862000
0.019899 0.023887 0.852000
-0.007079 0.018911 0.849000
-0.043823 0.010537 0.850000
0.036076 -0.011415 0.870000
0.017485 0.011641 0.854000
0.007062 -0.019271 0.869000
-0.024725 0.004969 0.855000
0.023406 0.015471 0.852000
-0.036576 -0.018913 0.869000
-0.014383 -0.009603 0.868000
0.024774 -0.000668 0.863000
-0.015848 -0.021800 0.870000
-0.027444 0.008809 0.852000
0.003437 0.027908 0.857000
-0.029608 -0.004225 0.864000
0.023184 -0.012132 0.870000
-0.001889 -0.022953 0.873000
-0.010698 0.029741 0.859000
-0.017687 0.006376 0.855000
-0.000450 -0.008541 0.869000
0.043596 -0.011415 0.870000
-0.006102 0.029741 0.859000
-0.027860 0.005666 0.854000
-0.018017 -0.019674 0.871000
-0.024638 0.009510 0.852000
0.009946 -0.018240 0.871000
-0.011649 0.012651 0.851000
-0.029758 0.019238 0.848000
-0.013652 -0.006380 0.867000
0.022442 -0.010329 0.869000
0.048029 -0.007442 0.866000
0.037257 0.011316 0.856000
0.009855 0.033076 0.863000
-0.006087 0.008508 0.857000
0.010651 -0.008909 0.870000
0.015912 0.033825 0.864000
