-0.012901 0.019802 0.889000
0.002094 0.027758 0.886000
0.033299 -0.007772 0.863000
-0.000094 -0.039239 0.892000
-0.032404 -0.014274 0.892000
-0.036686 -0.026301 0.889000
0.039657 0.024034 0.870000
-0.011463 0.018380 0.891000
0.007795 0.041628 0.871000
-0.005902 0.004763 0.882000
-0.022591 0.009632 0.896000
0.037150 0.020811 0.870000
0.036283 0.033176 0.875000
0.016243 0.035619 0.882000
-0.019653 -0.026034 0.880000
-0.009232 0.021973 0.888000
-0.000810 -0.011801 0.872000
-0.023277 0.000780 0.894000
-0.037586 -0.019803 0.893000
-0.006673 -0.040159 0.888000
-0.025564 0.020055 0.884000
0.012292 0.029548 0.885000
-0.014316 0.000408 0.886000
-0.013088 0.029281 0.877000
-0.004485 0.022729 0.889000
0.024871 0.029348 0.879000
-0.038385 0.013536 0.886000
0.017695 0.035982 0.882000
0.006774 0.011246 0.878000
-0.033768 -0.001066 0.899000
-0.045761 0.002643 0.902000
-0.012224 0.014746 0.893000
-0.011109 0.013261 0.892000
0.011725 0.043012 0.870000
-0.030065 -0.020789 0.888000
-0.004862 0.018380 0.891000
-0.031705 -0.011717 0.893000
-0.031785 -0.035289 0.885000
-0.025535 -0.025760 0.883000
-0.005223 0.015429 0.890000
-0.026202 0.022162 0.881000
-0.001559 0.019825 0.890000
0.017854 0.005068 0.872000
-0.012785 -0.014098 0.881000
-0.027019 0.018963 0.884000
0.003501 -0.020797 0.873000
0.014395 0.016342 0.880000
0.026589 0.023839 0.876000
0.014896 -0.012447 0.867000
0.025929 -0.000314 0.866000
-0.017059 -0.027750 0.877000
0.011511 0.015998 0.881000
0.000983 -0.011787 0.871000
-0.023095 0.018297 0.887000
0.000272 0.019436 0.889000
0.020623 0.033115 0.883000
0.017374 -0.009937 0.866000
0.026741 0.037392 0.881000
-0.008376 0.033896 0.875000
-0.027445 -0.013084 0.886000
-0.024780 -0.025367 0.882000
-0.014631 -0.010859 0.883000
0.005637 -0.008193 0.870000
0.039434 0.028429 0.873000
0.043238 -0.001747 0.870000
-0.003724 0.028722 0.882000
-0.029599 -0.002537 0.896000
-0.019122 -0.004713 0.889000
-0.006279 0.007320 0.884000
0.041949 0.015493 0.873000
-0.025898 -0.025760 0.883000
0.034049 0.006444 0.864000
-0.012210 0.017299 0.892000
-0.002269 0.008021 0.881000
-0.023717 -0.015947 0.883000
0.030229 0.031086 0.877000
0.042502 0.029281 0.877000
0.002440 0.008364 0.879000
0.013718 0.034206 0.883000
0.043175 0.027084 0.876000
-0.031634 -0.037361 0.891000
0.027186 0.019065 0.872000
-0.025114 -0.032228 0.881000
0.026286 0.009310 0.866000
0.014232 0.002550 0.870000
-0.024808 -0.035936 0.883000
-0.014268 -0.037753 0.883000
0.011354 -0.012475 0.869000
0.027615 -0.004575 0.863000
-0.013526 -0.011210 0.882000
-0.031677 0.019283 0.882000
-0.001531 -0.008590 0.874000
-0.022964 -0.017381 0.882000
0.018296 0.014465 0.876000
0.013142 -0.016052 0.869000
-0.010007 0.018401 0.892000
-0.036851 -0.011093 0.902000
0.002434 0.034695 0.877000
-0.013133 -0.016617 0.880000
0.041971 0.033040 0.881000
-0.033028 0.000414 0.899000
0.016380 0.001833 0.870000
0.024889 0.004325 0.867000
-0.001170 -0.021875 0.873000
0.021108 0.010822 0.873000
0.009346 0.033441 0.882000
-0.043099 0.007027 0.893000
0.005034 0.008469 0.890000
0.030884 0.008231 0.865000
-0.003357 0.005120 0.881000
-0.040339 0.004844 0.897000
-0.047191 0.011361 0.887000
0.012932 0.013429 0.879000
0.017615 0.017028 0.878000
-0.014910 -0.035009 0.878000
-0.001906 0.005483 0.881000
0.016681 -0.009235 0.867000
0.022468 0.004698 0.870000
0.032739 0.011819 0.867000
0.046429 0.030814 0.890000
0.036792 0.021169 0.870000
-0.037218 -0.019068 0.893000
-0.025089 0.012908 0.893000
0.036538 0.010000 0.864000
-0.030636 0.010347 0.894000
-0.022601 0.022550 0.882000
0.020273 -0.002101 0.868000
0.041161 -0.004225 0.864000
-0.019630 -0.035049 0.879000
0.015324 0.002552 0.871000
-0.011671 -0.010810 0.879000
-0.030671 -0.005481 0.895000
-0.028524 0.001890 0.897000
0.036766 0.003941 0.861000
-0.018650 -0.015238 0.884000
0.036057 0.002523 0.861000
0.036876 0.026961 0.872000
-0.029169 -0.030121 0.883000
0.024946 0.013634 0.869000
-0.006208 0.034936 0.874000
0.001370 0.020168 0.889000
0.024314 0.019783 0.872000
0.035389 -0.007053 0.862000
-0.009457 -0.023005 0.875000
0.030229 0.031447 0.877000
0.038848 0.033213 0.876000
0.007885 0.034491 0.881000
0.005689 0.009800 0.878000
-0.020015 0.025035 0.880000
-0.014731 0.001507 0.889000
-0.007054 0.012498 0.890000
-0.022832 -0.004723 0.891000
0.034840 0.012518 0.866000
0.017535 0.042490 0.874000
0.021181 0.041867 0.876000
0.039555 0.001104 0.860000
0.026905 -0.007772 0.863000
0.015610 -0.011376 0.867000
0.015500 0.036304 0.881000
-0.038299 0.016053 0.884000
0.016644 0.032789 0.884000
-0.002248 0.036693 0.873000
-0.021537 -0.016311 0.883000
-0.010742 0.016932 0.892000
-0.023043 -0.013434 0.885000
-0.035908 0.006321 0.897000
0.008620 0.015290 0.882000
-0.020763 -0.036579 0.881000
-0.015012 -0.008325 0.884000
0.012222 0.036263 0.880000
0.014477 0.028455 0.885000
0.020773 0.011914 0.874000
-0.008529 0.019847 0.891000
-0.004818 0.028027 0.883000
-0.004824 0.026968 0.884000
0.036979 0.013231 0.866000
-0.031492 -0.025511 0.887000
-0.029665 0.002262 0.898000
0.015171 0.025120 0.883000
0.020553 0.024673 0.880000
-0.004087 0.007667 0.882000
-0.014910 -0.023446 0.878000
0.012292 0.030641 0.885000
-0.016598 0.002978 0.891000
-0.012394 -0.018769 0.879000
0.043701 0.006807 0.865000
-0.031513 0.000784 0.898000
0.019267 0.045929 0.871000
-0.009190 0.004774 0.884000
-0.041985 0.013157 0.885000
-0.025477 -0.031140 0.881000
-0.035954 -0.025569 0.889000
-0.005949 0.012118 0.889000
0.040199 0.029900 0.874000
-0.042397 0.014630 0.886000
0.038494 0.017191 0.868000
0.037088 0.036139 0.877000
-0.036809 -0.033365 0.892000
0.032626 0.003599 0.864000
0.004647 0.017912 0.886000
0.026642 0.009310 0.866000
0.011186 0.021874 0.884000
-0.035579 0.005219 0.898000
0.002805 0.010185 0.880000
0.008639 0.018599 0.884000
0.007184 0.030606 0.884000
0.014573 0.046897 0.869000
0.016243 0.024003 0.882000
-0.036028 -0.002178 0.900000
0.000272 0.021632 0.889000
0.020007 0.007221 0.872000
-0.012422 -0.036579 0.881000
-0.011710 -0.002135 0.882000
0.012785 0.044751 0.869000
-0.016411 0.025426 0.881000
-0.004114 -0.039428 0.888000
-0.010316 -0.040114 0.887000
-0.033212 -0.010259 0.894000
0.021108 0.043879 0.873000
-0.006272 -0.036299 0.883000
0.014674 0.009047 0.875000
0.039201 -0.001373 0.860000
-0.028174 -0.037152 0.886000
0.033608 0.021911 0.871000
-0.024081 0.021486 0.883000
0.009023 0.028487 0.886000
-0.014664 -0.002142 0.885000
-0.019608 -0.029227 0.878000
-0.013841 -0.019854 0.879000
0.002779 0.040599 0.872000
-0.025898 -0.024306 0.883000
0.023051 -0.010282 0.865000
-0.008836 0.006236 0.885000
-0.019787 -0.012719 0.886000
0.040778 0.022986 0.871000
-0.014284 -0.002867 0.884000
0.003900 0.013838 0.882000
0.025653 0.040292 0.881000
0.035676 0.018999 0.869000
-0.028442 -0.028667 0.883000
0.007786 -0.013564 0.870000
-0.036479 0.016053 0.884000
-0.023671 0.011095 0.895000
-0.022550 0.024310 0.880000
0.028127 0.031880 0.879000
-0.038364 -0.017250 0.894000
0.004595 0.036098 0.876000
0.021713 0.033115 0.883000
0.025245 0.001113 0.867000
0.023407 -0.005654 0.865000
0.024447 -0.008492 0.864000
0.004210 0.041269 0.871000
0.003160 0.034012 0.878000
-0.012945 0.009957 0.892000
0.016815 0.042131 0.874000
-0.029367 -0.018251 0.889000
-0.008520 0.010667 0.890000
0.033654 0.002884 0.863000
-0.009565 0.024813 0.885000
-0.037010 0.013201 0.888000
0.023088 0.038798 0.880000
-0.013587 -0.039340 0.886000
-0.012046 -0.007200 0.880000
0.010700 0.006518 0.874000
0.016004 -0.000315 0.869000
-0.024361 -0.032192 0.880000
-0.012060 0.026876 0.881000
-0.019608 -0.031757 0.878000
-0.038689 0.008498 0.893000
0.037422 0.016476 0.868000
-0.015757 0.022627 0.885000
-0.013889 -0.012662 0.882000
-0.033910 -0.014658 0.893000
0.023051 -0.006366 0.865000
0.003545 0.029515 0.884000
0.027839 0.016514 0.870000
-0.027841 -0.013464 0.887000
-0.035182 -0.034312 0.888000
-0.038208 -0.005876 0.899000
-0.008756 0.031086 0.877000
-0.002970 -0.028015 0.874000
0.029003 -0.004215 0.862000
-0.016926 0.018705 0.889000
-0.027414 -0.036746 0.885000
-0.020470 -0.014510 0.884000
-0.033398 -0.000326 0.899000
-0.016318 -0.029161 0.876000
0.016700 -0.003530 0.868000
-0.023592 -0.003994 0.892000
0.045594 0.030745 0.888000
0.005728 0.015689 0.884000
0.017736 0.030242 0.884000
-0.018431 0.016546 0.891000
0.013173 0.002911 0.871000
-0.033175 -0.012820 0.893000
-0.026595 -0.030813 0.882000
0.020168 0.021750 0.879000
0.044617 0.023839 0.876000
-0.022781 -0.007274 0.889000
-0.010972 -0.003945 0.881000
0.017352 0.033842 0.883000
0.010281 -0.015694 0.869000
-0.023691 -0.017018 0.882000
0.032756 0.034695 0.877000
0.012456 -0.017881 0.871000
0.032681 0.028854 0.875000
-0.011476 0.016565 0.892000
0.020053 0.011914 0.874000
0.013127 -0.011032 0.868000
0.019223 -0.000315 0.869000
-0.031443 0.008526 0.896000
0.025959 0.012175 0.867000
-0.007479 -0.042412 0.897000
0.004210 -0.012863 0.871000
0.025653 0.034491 0.881000
-0.010316 0.006250 0.887000
0.025391 0.019424 0.872000
0.025602 0.011819 0.867000
0.021640 0.038436 0.880000
0.018996 0.013008 0.875000
-0.001926 0.018359 0.890000
-0.002626 0.031157 0.879000
-0.014365 0.002239 0.889000
0.029180 0.031844 0.878000
0.042179 0.007147 0.863000
0.028748 -0.010638 0.865000
0.006789 0.014169 0.880000
-0.031758 -0.038321 0.905000
0.023477 0.038117 0.881000
0.029507 0.028559 0.877000
-0.016774 -0.036942 0.881000
0.000638 0.020168 0.889000
0.033042 0.028854 0.875000
-0.008053 -0.033964 0.879000
0.003493 -0.014296 0.871000
-0.018885 -0.028866 0.878000
-0.036524 -0.016146 0.894000
0.034161 0.032492 0.876000
-0.017136 -0.019900 0.881000
0.038127 0.033574 0.876000
-0.040519 0.000045 0.901000
0.039474 0.013231 0.866000
0.015306 0.044802 0.870000
0.002785 0.037095 0.874000
-0.032288 0.001894 0.899000
0.020099 0.016268 0.876000
-0.000814 0.034295 0.876000
-0.001537 0.033251 0.877000
-0.027352 -0.035209 0.883000
-0.036603 0.013552 0.887000
-0.022806 -0.006550 0.890000
0.026611 -0.001381 0.865000
0.016437 0.005433 0.873000
-0.013857 -0.016980 0.880000
-0.026927 0.021800 0.881000
0.038493 0.002166 0.860000
-0.008786 -0.035089 0.880000
-0.027050 -0.018533 0.885000
0.024537 0.029019 0.880000
-0.016176 0.019780 0.888000
-0.042923 -0.018046 0.897000
0.031596 0.008943 0.865000
0.003505 -0.021540 0.874000
-0.036562 0.014630 0.886000
0.002417 -0.009278 0.871000
0.014001 0.013414 0.878000
0.008629 0.016761 0.883000
0.014346 0.011594 0.877000
-0.015410 -0.003968 0.886000
-0.017781 -0.032443 0.877000
0.017813 0.000401 0.870000
-0.032771 -0.014641 0.892000
-0.009850 -0.010075 0.878000
-0.025882 0.000413 0.895000
0.033930 -0.004564 0.861000
0.032513 -0.003147 0.861000
-0.004059 0.033574 0.876000
-0.000094 0.017222 0.888000
0.011380 0.002194 0.871000
-0.022289 -0.037068 0.884000
0.019829 0.038074 0.880000
-0.010972 -0.002857 0.881000
-0.027294 -0.005469 0.893000
-0.013510 -0.014823 0.881000
0.038760 0.031339 0.874000
-0.014252 -0.013025 0.882000
0.035759 0.024420 0.871000
-0.028155 0.002998 0.897000
-0.016831 0.022602 0.884000
0.040664 0.004295 0.861000
-0.013297 0.007012 0.891000
-0.036173 -0.036405 0.913000
0.039479 0.030260 0.874000
0.021467 0.018727 0.873000
0.012785 -0.014979 0.869000
-0.031669 -0.014641 0.892000
-0.036810 -0.011822 0.901000
0.005650 -0.019337 0.872000
0.004616 0.012358 0.880000
-0.023225 0.014729 0.892000
-0.008746 -0.011494 0.876000
-0.004124 0.019092 0.890000
-0.023043 -0.013069 0.885000
0.028003 -0.008847 0.864000
-0.042328 -0.024620 0.908000
0.016114 0.041098 0.875000
0.003131 -0.011415 0.870000
-0.000452 -0.019000 0.873000
0.001702 0.038445 0.872000
0.016758 0.002194 0.871000
0.001716 0.008003 0.879000
-0.019787 -0.011261 0.886000
-0.035873 -0.030257 0.887000
-0.004077 -0.034003 0.880000
0.013485 -0.006388 0.868000
-0.025570 0.007428 0.897000
-0.023852 -0.009093 0.888000
-0.016616 0.005918 0.892000
-0.028029 -0.006204 0.893000
0.018529 0.000043 0.870000
0.006766 0.010150 0.877000
-0.034645 -0.015760 0.893000
0.028095 0.030398 0.878000
-0.025485 -0.000692 0.894000
-0.018204 -0.036900 0.880000
-0.037218 -0.017965 0.893000
0.011860 0.014893 0.880000
0.041495 0.022269 0.871000
-0.024836 -0.036340 0.884000
0.020749 0.043879 0.873000
0.030916 0.028526 0.876000
0.025275 0.013261 0.868000
-0.012945 0.018033 0.892000
-0.011270 0.031411 0.876000
-0.039836 -0.019825 0.894000
0.006843 0.025599 0.887000
0.016022 -0.016070 0.870000
0.002099 0.025628 0.888000
-0.025911 0.010370 0.896000
0.007867 0.013429 0.879000
0.041901 0.021936 0.872000
0.010095 0.021510 0.884000
0.001343 -0.014313 0.872000
-0.009117 -0.018365 0.877000
-0.042364 0.007027 0.893000
0.020582 -0.005660 0.866000
-0.021197 -0.037432 0.884000
0.013263 0.011594 0.877000
0.015034 0.040378 0.875000
-0.023664 -0.022075 0.881000
0.035676 0.018284 0.869000
0.029766 0.023425 0.874000
-0.028123 -0.000325 0.896000
0.019039 0.016647 0.877000
-0.004851 0.013216 0.889000
0.032756 0.033612 0.877000
0.034200 0.036139 0.877000
0.020237 0.030174 0.882000
0.026620 0.026393 0.877000
-0.026631 -0.038448 0.908000
-0.042364 0.007395 0.893000
-0.010340 0.020900 0.889000
0.034044 0.025913 0.873000
-0.018566 -0.024223 0.880000
0.015808 0.038710 0.878000
-0.037427 0.004849 0.898000
0.020606 -0.013517 0.867000
-0.038969 -0.025260 0.891000
-0.002652 0.013201 0.888000
0.041590 0.018368 0.873000
-0.025911 0.010001 0.896000
-0.024190 -0.009448 0.887000
0.032247 0.024836 0.873000
0.003142 -0.020438 0.873000
-0.017801 0.028591 0.878000
-0.028969 -0.018596 0.888000
0.041727 0.003941 0.861000
0.016114 0.040738 0.875000
0.030137 0.002888 0.864000
-0.018587 0.024338 0.881000
0.000268 -0.024806 0.875000
-0.009511 -0.004665 0.880000
-0.026565 0.021437 0.881000
0.034599 -0.001019 0.860000
-0.028015 0.022162 0.881000
-0.015515 0.005551 0.892000
0.030137 0.002532 0.864000
0.014556 -0.013890 0.868000
0.004563 -0.008909 0.870000
0.018529 0.000759 0.870000
-0.019466 -0.007631 0.888000
-0.011991 -0.032766 0.876000
0.009632 -0.020124 0.875000
0.011393 0.041316 0.872000
0.016719 -0.002461 0.869000
-0.035013 -0.015393 0.893000
0.014556 -0.009603 0.868000
-0.029633 0.016454 0.886000
-0.008098 0.006229 0.884000
0.037130 0.037264 0.878000
0.047357 0.020688 0.880000
0.012770 -0.011746 0.868000
-0.005922 0.025905 0.885000
-0.022213 -0.025701 0.881000
-0.006258 0.028689 0.881000
-0.026202 -0.032228 0.881000
-0.022912 -0.022412 0.880000
0.013985 0.011955 0.877000
0.040107 0.027678 0.872000
-0.025535 -0.023579 0.883000
-0.002246 -0.014313 0.872000
-0.001889 -0.020438 0.873000
0.041136 0.024420 0.871000
-0.028806 -0.031574 0.883000
-0.019290 0.025397 0.880000
-0.009467 -0.021589 0.876000
-0.003383 0.012836 0.888000
0.048573 0.025657 0.889000
-0.004050 -0.020461 0.874000
-0.041950 0.008121 0.892000
0.037077 -0.002789 0.860000
-0.002638 0.028391 0.883000
0.014573 0.000758 0.869000
0.012770 -0.006388 0.868000
0.012814 -0.017881 0.871000
0.002417 -0.011429 0.871000
0.010834 0.029912 0.885000
0.024230 0.035619 0.882000
-0.048761 0.007728 0.889000
-0.001533 -0.027327 0.875000
0.040558 0.029540 0.874000
0.035034 0.004300 0.862000
-0.002248 -0.021875 0.873000
0.015700 0.043111 0.872000
0.004287 0.019393 0.887000
0.031022 0.035498 0.879000
-0.040662 -0.016919 0.896000
-0.039512 0.006675 0.895000
-0.005570 0.024504 0.887000
-0.003004 0.010595 0.884000
0.030422 -0.001731 0.862000
0.023010 0.042636 0.877000
-0.033287 -0.006963 0.896000
0.004944 -0.021180 0.874000
-0.017389 0.012923 0.894000
0.027310 0.024560 0.876000
0.032196 -0.006344 0.862000
-0.030225 0.021461 0.882000
0.014825 0.026604 0.884000
-0.035539 -0.007339 0.897000
-0.035348 0.018215 0.883000
-0.027321 -0.030450 0.882000
-0.007726 0.005132 0.883000
-0.035143 -0.029527 0.887000
-0.022163 -0.032517 0.879000
-0.016448 0.023303 0.883000
0.018909 0.044854 0.871000
0.014808 0.034569 0.883000
-0.008836 0.024448 0.885000
-0.037712 0.005945 0.896000
-0.011631 -0.032406 0.876000
-0.013648 0.005172 0.890000
-0.008766 -0.007907 0.878000
0.034599 -0.003497 0.860000
0.038139 -0.000311 0.860000
0.041921 0.009655 0.865000
-0.010165 -0.028015 0.874000
0.037022 0.016101 0.867000
0.035359 0.021169 0.870000
0.018996 0.042179 0.875000
-0.017002 0.015481 0.893000
-0.005129 -0.016144 0.874000
0.016343 -0.004244 0.868000
0.014556 -0.008888 0.868000
-0.006778 -0.042649 0.902000
0.005996 -0.011415 0.870000
-0.045468 0.009191 0.889000
0.002456 0.028455 0.885000
-0.008806 0.027270 0.882000
0.020582 -0.007086 0.866000
-0.035131 0.007051 0.896000
-0.035539 0.005951 0.897000
0.025333 0.016873 0.870000
0.019533 0.034933 0.883000
-0.005929 -0.038610 0.886000
-0.034047 -0.028797 0.887000
0.018099 0.030242 0.884000
-0.031548 0.003004 0.899000
-0.022364 0.018297 0.887000
0.049194 0.022313 0.887000
-0.014429 0.009233 0.893000
0.018421 0.026907 0.882000
0.036580 0.010723 0.865000
0.033685 0.026632 0.873000
0.010305 0.000043 0.871000
-0.027325 -0.002899 0.894000
-0.019876 -0.004352 0.890000
-0.022213 -0.035854 0.881000
-0.001530 -0.015407 0.873000
0.016569 0.019240 0.880000
0.025032 0.020141 0.872000
-0.012128 0.023017 0.886000
0.005352 0.031626 0.882000
0.037518 0.005364 0.862000
0.031168 -0.007772 0.863000
0.018550 0.044495 0.871000
-0.011296 -0.011882 0.878000
-0.016888 -0.007258 0.887000
0.032588 0.001463 0.863000
-0.021512 -0.017018 0.882000
-0.034316 -0.012466 0.894000
0.017915 0.011568 0.875000
-0.042923 -0.019892 0.897000
-0.007429 0.014346 0.891000
-0.030636 -0.007315 0.894000
-0.035548 -0.028098 0.888000
-0.017479 -0.023499 0.880000
-0.017862 0.024701 0.881000
-0.027355 -0.002534 0.895000
0.009388 0.029581 0.886000
-0.002977 0.033574 0.876000
-0.013312 0.016932 0.892000
-0.028029 -0.005837 0.893000
-0.012224 0.014378 0.893000
-0.034684 0.009243 0.894000
-0.029235 0.017892 0.885000
-0.021077 -0.028899 0.879000
0.013203 0.006151 0.873000
-0.029800 0.012512 0.891000
-0.022755 -0.008362 0.888000
0.034564 0.015047 0.868000
-0.020354 -0.027814 0.879000
0.003927 0.025628 0.888000
0.036099 -0.006344 0.862000
-0.035052 -0.013570 0.894000
-0.017862 -0.020625 0.881000
0.007911 0.030970 0.884000
-0.021999 -0.010543 0.887000
-0.032040 0.018920 0.882000
-0.032295 -0.020446 0.889000
-0.028603 -0.014210 0.888000
-0.003021 0.015412 0.889000
0.020963 -0.003169 0.867000
-0.021707 -0.004718 0.890000
-0.036028 0.000044 0.900000
0.026550 -0.005640 0.863000
0.019738 0.014465 0.876000
0.012055 -0.003530 0.868000
0.010737 0.012316 0.877000
-0.038536 0.004110 0.898000
-0.014893 -0.033887 0.877000
0.012292 0.025905 0.885000
0.034484 0.010736 0.866000
-0.025957 -0.013434 0.885000
-0.023275 -0.029656 0.880000
0.033135 0.013976 0.868000
-0.015046 -0.002144 0.886000
-0.030268 -0.007683 0.894000
0.023623 0.020524 0.873000
-0.015236 -0.032766 0.876000
0.031131 -0.007408 0.862000
-0.032288 0.000414 0.899000
-0.039070 0.014249 0.885000
0.015288 -0.002103 0.869000
-0.037098 0.004115 0.899000
0.025595 0.028624 0.879000
-0.008053 -0.006469 0.879000
0.031486 -0.000312 0.862000
-0.050195 0.008517 0.895000
-0.022912 0.023948 0.880000
0.022027 0.028689 0.881000
0.019126 0.026514 0.881000
-0.018266 0.022939 0.883000
0.013985 0.038305 0.877000
0.008135 -0.011402 0.869000
0.011022 0.042703 0.871000
-0.026595 -0.029361 0.882000
-0.022364 -0.010178 0.887000
-0.021950 -0.013798 0.885000
0.016399 0.003269 0.871000
0.028391 0.008231 0.865000
0.044206 0.020211 0.875000
-0.008453 0.001861 0.883000
0.047003 0.027424 0.887000
-0.036933 0.009990 0.895000
0.039434 0.028788 0.873000
0.011367 -0.001031 0.870000
-0.030099 -0.018617 0.889000
0.047773 0.019987 0.881000
-0.016598 0.002611 0.891000
-0.020356 0.008148 0.895000
-0.016523 -0.005797 0.887000
0.035785 0.007147 0.863000
0.043157 0.018578 0.883000
-0.006215 -0.016883 0.875000
-0.007770 -0.040159 0.888000
0.036808 -0.005989 0.862000
0.013294 0.036583 0.879000
-0.041585 0.001526 0.900000
0.000273 -0.038872 0.892000
-0.028936 0.016107 0.887000
-0.017253 -0.007258 0.887000
-0.041031 0.004838 0.896000
-0.023671 0.011832 0.895000
0.013127 0.045414 0.868000
-0.037953 -0.020171 0.893000
-0.017370 0.015848 0.893000
0.026905 -0.004575 0.863000
-0.029262 0.007797 0.897000
0.022494 0.007571 0.871000
-0.037460 -0.026696 0.890000
-0.026291 -0.022150 0.884000
0.042668 0.021602 0.873000
-0.034374 0.014995 0.886000
0.017813 -0.016070 0.870000
0.011873 0.015635 0.881000
-0.020786 0.023277 0.882000
-0.033026 -0.022642 0.889000
-0.032040 0.020009 0.882000
-0.038429 0.013186 0.887000
-0.035103 -0.031317 0.886000
-0.010375 0.015096 0.892000
0.027679 0.008943 0.865000
-0.013889 0.025092 0.882000
-0.018928 -0.024586 0.880000
0.017772 -0.003887 0.868000
-0.006208 -0.013986 0.874000
0.029988 0.015440 0.870000
0.004568 0.039835 0.871000
-0.041256 0.013885 0.885000
-0.002998 0.028722 0.882000
0.008163 0.040958 0.872000
-0.021561 0.020782 0.884000
0.018800 -0.008512 0.866000
-0.022566 0.011095 0.895000
0.036046 0.037987 0.878000
-0.018514 0.009990 0.895000
0.027092 0.015065 0.869000
0.042260 0.024089 0.872000
-0.007287 -0.022979 0.874000
0.021253 0.039839 0.879000
-0.003361 0.008393 0.882000
-0.036483 0.008865 0.893000
0.007786 0.042296 0.870000
0.032905 -0.006698 0.862000
0.029080 0.025613 0.875000
0.016606 0.024366 0.882000
0.031961 0.027413 0.875000
0.008659 0.027393 0.886000
-0.013449 -0.023780 0.877000
0.003851 -0.007485 0.871000
-0.037385 0.005582 0.897000
-0.010305 -0.038975 0.886000
0.023900 0.014366 0.870000
-0.015029 -0.006149 0.885000
0.003856 0.039163 0.872000
-0.007726 0.002224 0.883000
-0.012338 -0.028047 0.875000
0.018463 0.031698 0.884000
0.016700 -0.013890 0.868000
-0.007346 -0.035492 0.881000
-0.008786 -0.034727 0.880000
0.012264 0.021486 0.883000
0.039839 0.029540 0.874000
0.039909 0.001458 0.860000
-0.025795 0.013628 0.892000
-0.017678 0.017993 0.890000
-0.011309 -0.017684 0.879000
-0.035908 0.005951 0.897000
-0.012060 -0.004670 0.881000
-0.011737 0.002591 0.884000
0.021802 0.008298 0.872000
-0.041308 0.007035 0.894000
-0.026958 -0.029724 0.882000
-0.020692 -0.032841 0.878000
0.002465 0.023800 0.888000
0.009555 -0.008888 0.868000
-0.006696 0.019480 0.891000
0.038444 0.032455 0.875000
0.005279 -0.011415 0.870000
0.006354 -0.015354 0.870000
0.036015 0.000750 0.860000
0.005722 0.015308 0.883000
0.017332 0.024729 0.882000
-0.035143 -0.032813 0.887000
-0.015650 -0.022749 0.879000
-0.033242 -0.034196 0.885000
-0.038732 -0.017986 0.894000
-0.019809 -0.010543 0.887000
0.007876 0.014169 0.880000
-0.023645 0.001884 0.894000
0.027971 -0.008482 0.863000
0.049249 0.023069 0.888000
0.012292 0.027362 0.885000
0.029036 -0.001023 0.863000
-0.008043 -0.006823 0.878000
-0.020810 -0.015947 0.883000
-0.018714 -0.009448 0.887000
0.021350 0.032389 0.883000
0.010117 0.029581 0.886000
-0.027786 0.006690 0.897000
0.014607 0.043778 0.871000
-0.010561 -0.020170 0.877000
-0.000453 -0.026998 0.876000
-0.019143 -0.002154 0.890000
0.032905 -0.007408 0.862000
0.016777 0.004350 0.872000
-0.004119 0.013582 0.889000
0.023141 0.032715 0.882000
-0.006215 -0.011121 0.875000
0.039246 0.003586 0.861000
0.019851 0.027239 0.881000
-0.000457 -0.035976 0.884000
0.038312 0.028396 0.872000
0.019806 0.039477 0.879000
-0.023069 -0.011261 0.886000
-0.010537 -0.024086 0.875000
-0.013587 0.001867 0.886000
-0.007665 0.032492 0.876000
0.015189 0.026968 0.884000
0.005650 0.039522 0.872000
0.010060 0.015635 0.881000
0.009742 0.031005 0.885000
-0.026565 0.021800 0.881000
0.000627 0.039613 0.874000
0.042238 0.031157 0.879000
0.016550 0.018856 0.879000
0.011173 0.020395 0.883000
-0.010282 0.024785 0.884000
-0.000818 0.006563 0.880000
-0.026529 -0.006197 0.892000
0.017136 0.004350 0.872000
0.026741 0.034128 0.881000
0.006735 -0.020438 0.873000
-0.028507 0.018256 0.885000
0.008891 -0.019719 0.873000
0.039389 0.028037 0.872000
0.017097 0.000401 0.870000
-0.031057 0.017528 0.885000
0.031878 0.000398 0.863000
-0.004470 0.025570 0.886000
-0.040940 -0.023137 0.894000
-0.001174 0.034656 0.876000
-0.004119 -0.040205 0.889000
-0.034009 -0.030223 0.886000
0.038227 0.006429 0.862000
-0.031162 -0.022251 0.888000
-0.011121 0.015113 0.893000
-0.009117 -0.017644 0.877000
0.019851 0.026876 0.881000
0.004287 0.026329 0.887000
0.015189 0.026604 0.884000
-0.010188 -0.021950 0.876000
-0.030191 0.020712 0.881000
-0.019444 -0.009813 0.887000
0.002442 0.032641 0.880000
-0.014515 -0.032766 0.876000
0.032626 0.003954 0.864000
-0.018882 0.009622 0.895000
0.022415 0.034893 0.882000
-0.008453 0.001134 0.883000
-0.021485 0.008895 0.896000
0.016550 0.017409 0.879000
0.007428 -0.014996 0.870000
-0.045440 0.002275 0.903000
0.013233 0.039658 0.875000
0.014081 0.022939 0.883000
0.007911 0.017144 0.884000
-0.006935 0.033176 0.875000
0.027292 -0.002447 0.864000
0.002805 0.008012 0.880000
-0.019992 0.027539 0.879000
-0.001184 0.010946 0.883000
-0.022364 0.018663 0.887000
0.013500 0.000043 0.869000
0.004210 -0.018240 0.871000
-0.029466 0.021075 0.881000
0.027971 -0.007416 0.863000
0.008303 0.026329 0.887000
-0.013664 0.018380 0.891000
-0.035143 -0.033543 0.887000
-0.026074 -0.007640 0.889000
-0.006251 0.029381 0.880000
-0.024804 0.003732 0.896000
0.004933 -0.019696 0.872000
0.004205 -0.009267 0.870000
-0.019057 0.020465 0.886000
0.019245 0.000401 0.870000
0.012153 0.009407 0.875000
0.040824 0.018706 0.872000
-0.013526 -0.007217 0.882000
0.008921 0.010139 0.876000
-0.027386 0.009264 0.896000
-0.028556 0.003001 0.898000
0.025720 0.019043 0.871000
-0.023301 -0.024251 0.881000
0.017977 0.017028 0.878000
-0.035222 -0.024837 0.889000
-0.035908 -0.008078 0.897000
0.022494 0.013307 0.871000
-0.015615 -0.026668 0.877000
0.023237 0.019065 0.872000
0.043323 0.028624 0.879000
-0.018085 0.002614 0.892000
0.039647 0.006429 0.862000
0.038582 -0.005989 0.862000
0.016324 -0.011019 0.867000
0.023873 0.010058 0.869000
-0.011830 0.019113 0.891000
-0.025795 -0.005096 0.892000
0.025573 0.006815 0.866000
0.019513 -0.011363 0.866000
0.026559 0.022372 0.875000
0.022747 -0.000314 0.867000
0.004563 -0.011057 0.870000
0.031742 0.014349 0.869000
0.020099 0.017349 0.876000
-0.024417 -0.023552 0.882000
-0.023329 0.004838 0.896000
0.015482 0.019240 0.880000
0.021302 0.037754 0.881000
0.032551 0.000043 0.862000
0.016004 -0.015694 0.869000
-0.032661 -0.022276 0.889000
-0.031127 -0.023686 0.887000
0.029800 0.025253 0.875000
0.035359 0.020453 0.870000
-0.010328 0.006988 0.888000
-0.027264 -0.037770 0.892000
-0.011257 -0.025526 0.875000
0.019581 -0.014979 0.869000
0.030669 0.015065 0.869000
0.030160 0.026333 0.875000
0.030812 0.000043 0.863000
0.013158 0.001833 0.870000
-0.011450 0.020191 0.890000
0.030137 0.003243 0.864000
0.004967 0.009439 0.878000
-0.006322 0.014696 0.890000
-0.016504 -0.007614 0.886000
-0.025477 -0.031866 0.881000
0.041517 0.009288 0.864000
-0.034723 -0.009902 0.895000
0.040965 0.030294 0.875000
-0.016393 -0.036176 0.880000
-0.036035 -0.020492 0.891000
0.028748 0.009299 0.865000
0.034044 0.026632 0.873000
-0.013148 -0.007209 0.881000
0.006704 -0.007468 0.869000
-0.030034 0.005958 0.898000
0.028714 0.005021 0.864000
0.018614 0.008677 0.874000
0.016569 0.021051 0.880000
-0.021269 -0.010543 0.887000
0.014914 -0.014247 0.868000
-0.014300 -0.001413 0.885000
-0.000826 0.017241 0.889000
0.032891 0.020477 0.871000
-0.009128 -0.007907 0.878000
-0.001559 0.020557 0.890000
-0.004124 0.017260 0.890000
-0.000810 -0.015031 0.872000
-0.008529 0.018747 0.891000
0.036350 0.017906 0.868000
-0.000825 0.024897 0.888000
0.036727 0.036861 0.877000
-0.007787 0.021290 0.890000
0.009923 -0.015694 0.869000
-0.025621 -0.011990 0.886000
-0.007287 0.033497 0.874000
0.036159 0.027678 0.872000
-0.036399 0.002637 0.900000
-0.011697 -0.005758 0.881000
0.003851 -0.016447 0.871000
0.027104 0.036666 0.881000
0.016777 0.003632 0.872000
-0.041855 0.009934 0.890000
-0.006215 -0.010401 0.875000
-0.001913 0.027695 0.884000
0.024928 0.038842 0.881000
-0.019444 -0.008353 0.887000
-0.004091 0.008402 0.883000
0.018380 0.022499 0.880000
-0.015615 -0.032804 0.877000
-0.001180 0.031554 0.880000
-0.001889 -0.017922 0.873000
0.015646 -0.001745 0.869000
0.023983 0.020524 0.873000
-0.012436 -0.002498 0.882000
-0.028838 -0.028700 0.884000
-0.015722 -0.013403 0.883000
0.015271 0.046128 0.868000
0.019267 -0.015730 0.871000
-0.035499 -0.009544 0.896000
0.008911 0.007246 0.875000
-0.014030 0.007012 0.891000
-0.009963 -0.040525 0.888000
0.004972 0.010897 0.879000
-0.009906 0.026210 0.883000
-0.000456 -0.034443 0.882000
0.047056 0.028186 0.888000
0.034364 0.024807 0.872000
0.025927 0.027869 0.878000
0.048261 0.027151 0.890000
0.024956 0.034893 0.882000
-0.008089 0.004768 0.883000
0.031705 0.012547 0.868000
0.022161 0.012246 0.872000
0.008901 0.006158 0.874000
0.034524 0.014316 0.867000
0.022084 0.002189 0.869000
-0.016158 -0.005067 0.887000
0.035644 0.036861 0.877000
-0.029566 0.009990 0.895000
-0.010935 0.029676 0.878000
-0.034124 -0.023373 0.889000
0.003181 0.029515 0.884000
0.022494 0.007930 0.871000
0.018887 0.000759 0.870000
0.020076 0.042539 0.875000
0.009992 0.008326 0.875000
-0.033317 -0.026607 0.887000
0.010482 0.028852 0.886000
-0.005855 -0.010401 0.875000
0.019466 0.022862 0.880000
0.002417 -0.013938 0.871000
0.012917 0.012330 0.878000
-0.035091 0.008148 0.895000
-0.013133 -0.016255 0.880000
0.006113 0.024869 0.887000
-0.038235 -0.023793 0.891000
-0.014062 0.012908 0.893000
-0.047556 0.010631 0.887000
0.018108 -0.013874 0.867000
-0.005495 -0.016883 0.875000
0.042260 0.024807 0.872000
-0.017801 -0.026337 0.878000
-0.004851 -0.040205 0.889000
0.017394 -0.011733 0.867000
0.013369 0.032789 0.884000
-0.033205 0.017144 0.884000
-0.005123 -0.024390 0.873000
-0.032001 -0.015358 0.891000
0.001003 0.024531 0.888000
0.021205 0.040831 0.877000
0.013485 -0.013890 0.868000
0.005370 0.017528 0.885000
-0.009817 0.032455 0.875000
-0.021077 -0.034326 0.879000
0.019169 0.033479 0.883000
0.012055 -0.006388 0.868000
-0.001528 -0.014313 0.872000
0.023088 0.028657 0.880000
-0.018064 0.001878 0.891000
0.018822 -0.013517 0.867000
0.006712 -0.016787 0.870000
-0.029964 -0.026547 0.885000
-0.009640 0.015096 0.892000
-0.039468 -0.019457 0.894000
-0.016616 0.016932 0.892000
0.002789 0.036777 0.875000
0.018463 0.031334 0.884000
0.009003 0.020419 0.884000
-0.021197 -0.014510 0.884000
0.037003 0.033536 0.875000
0.009720 0.018942 0.883000
-0.035209 0.005588 0.898000
-0.030404 0.001153 0.898000
0.018952 0.008667 0.873000
-0.011009 0.024785 0.884000
0.016777 0.003991 0.872000
-0.020446 -0.016674 0.883000
0.004921 -0.007477 0.870000
-0.006575 -0.016883 0.875000
0.018401 0.037029 0.881000
-0.018142 -0.029555 0.877000
-0.012712 -0.025555 0.876000
0.014948 0.002191 0.870000
-0.000455 0.007649 0.880000
0.017575 0.012662 0.876000
-0.013177 0.025120 0.883000
-0.015976 0.028920 0.877000
-0.033249 0.010358 0.895000
-0.034490 -0.024105 0.889000
-0.019079 0.019393 0.887000
-0.014648 -0.007233 0.884000
0.010305 -0.000315 0.871000
0.031205 0.024145 0.874000
0.019169 0.033115 0.883000
-0.027383 -0.036340 0.884000
-0.021245 -0.012719 0.886000
-0.012465 0.000407 0.884000
-0.018524 0.027869 0.878000
0.010470 0.031005 0.885000
0.021060 0.004703 0.871000
-0.011617 -0.025526 0.875000
-0.002638 0.004768 0.883000
-0.003757 0.020557 0.890000
0.014573 -0.015694 0.869000
-0.013327 0.012173 0.893000
-0.025869 -0.028272 0.882000
0.028681 -0.008837 0.863000
0.008522 -0.018979 0.872000
-0.028061 -0.004003 0.894000
-0.019653 -0.025672 0.880000
0.021271 -0.009214 0.865000
0.017635 0.038392 0.879000
-0.024054 0.021824 0.882000
-0.014910 0.028230 0.878000
-0.036565 -0.013585 0.895000
0.030067 -0.006344 0.862000
-0.031143 0.000414 0.898000
-0.021093 0.007043 0.895000
0.039831 0.013231 0.866000
-0.031847 -0.003648 0.897000
0.012264 0.020395 0.883000
0.005715 0.014564 0.882000
0.029357 -0.005989 0.862000
0.014556 -0.004244 0.868000
0.026650 0.028230 0.878000
-0.019992 -0.035049 0.879000
-0.037417 -0.028862 0.889000
-0.035143 -0.032448 0.887000
-0.016964 0.001878 0.891000
-0.002970 -0.018662 0.874000
0.032644 0.027382 0.874000
-0.039100 0.007771 0.894000
0.025720 0.018684 0.871000
0.036324 0.035016 0.876000
-0.022591 0.006313 0.896000
0.018806 0.030935 0.883000
-0.001170 0.036693 0.873000
0.006058 0.012344 0.879000
-0.013434 -0.027358 0.876000
-0.000818 0.030502 0.881000
-0.001900 0.032205 0.878000
-0.020739 -0.021326 0.880000
-0.025592 0.024813 0.885000
-0.021069 0.013290 0.894000
0.001718 0.010547 0.880000
0.046690 0.019936 0.895000
0.011009 0.045519 0.870000
-0.027476 -0.012004 0.887000
0.034639 0.001460 0.861000
0.000626 0.037727 0.872000
-0.040573 0.013172 0.886000
-0.033682 -0.027337 0.887000
0.014556 -0.002101 0.868000
0.002445 0.007658 0.881000
0.020260 0.032389 0.883000
0.003142 -0.020797 0.873000
0.020773 0.016590 0.874000
-0.006322 0.013231 0.890000
0.031348 0.034735 0.878000
0.015736 0.041771 0.874000
-0.003334 -0.030208 0.875000
0.021652 -0.005304 0.866000
0.027807 0.015065 0.869000
0.034285 0.019379 0.870000
-0.018431 0.000044 0.891000
-0.024067 0.010370 0.896000
-0.003741 0.025935 0.886000
-0.008367 -0.023699 0.874000
-0.033644 -0.028764 0.886000
0.001001 0.017202 0.887000
0.019511 0.028722 0.882000
-0.029665 0.002632 0.898000
0.017751 -0.012803 0.867000
0.006471 0.028487 0.886000
0.005285 -0.016806 0.871000
0.035685 0.037264 0.878000
-0.011463 0.008479 0.891000
0.029834 0.027084 0.876000
0.010700 0.008317 0.874000
0.013020 0.028091 0.885000
0.003188 0.017548 0.886000
-0.019378 0.021874 0.884000
-0.004409 -0.017224 0.874000
-0.032367 -0.017559 0.891000
0.032196 -0.001022 0.862000
0.016969 0.025092 0.882000
-0.019987 0.008885 0.895000
0.027310 0.023839 0.876000
-0.025143 -0.027183 0.882000
-0.013118 -0.020216 0.879000
0.013842 -0.008174 0.868000
0.020483 -0.015478 0.877000
0.029494 0.010379 0.866000
-0.005902 0.004400 0.882000
0.023461 -0.012447 0.867000
-0.005570 -0.039384 0.887000
0.049447 0.020442 0.885000
0.020007 0.005785 0.872000
0.018317 0.015925 0.877000
-0.024892 -0.011990 0.886000
-0.024976 0.016509 0.889000
-0.032149 -0.030918 0.885000
-0.010742 0.013261 0.892000
-0.045885 0.008103 0.890000
0.016078 0.006511 0.873000
0.016644 0.032425 0.884000
-0.034508 0.003745 0.899000
-0.017902 -0.016311 0.883000
0.030137 0.000754 0.864000
0.036434 0.022602 0.870000
-0.041443 0.010655 0.889000
0.009610 0.003277 0.873000
-0.008025 -0.032045 0.876000
0.019915 -0.003172 0.868000
0.011393 0.003632 0.872000
-0.007396 0.008440 0.887000
-0.022491 0.014729 0.892000
0.012770 -0.003887 0.868000
-0.025535 -0.023216 0.883000
0.013718 0.023303 0.883000
0.026286 0.001112 0.866000
-0.028969 -0.017865 0.888000
-0.025173 0.003732 0.896000
-0.044520 0.007387 0.892000
-0.012916 0.019092 0.890000
0.016133 0.011220 0.876000
0.037406 0.035016 0.876000
-0.005170 -0.035129 0.881000
-0.041667 0.013172 0.886000
0.015967 -0.008878 0.867000
0.024560 0.007902 0.868000
-0.035460 0.008148 0.895000
0.019245 0.001117 0.870000
0.045029 0.023506 0.877000
-0.027662 0.012173 0.893000
-0.027321 -0.029361 0.882000
0.003851 -0.008561 0.871000
0.036580 0.011079 0.865000
-0.027141 0.015760 0.888000
-0.009532 -0.001772 0.882000
0.025602 0.010391 0.867000
0.013005 0.023693 0.884000
-0.020356 0.008517 0.895000
-0.043905 0.010996 0.887000
0.016815 0.008317 0.874000
-0.034124 -0.022642 0.889000
0.006712 -0.011774 0.870000
-0.017370 0.015481 0.893000
-0.034917 0.002267 0.900000
-0.020701 0.004092 0.894000
-0.030658 -0.034521 0.884000
-0.023744 -0.013782 0.884000
0.014363 0.037987 0.878000
-0.004059 -0.031324 0.876000
0.035042 0.022269 0.871000
-0.031456 0.016454 0.886000
-0.035499 -0.008806 0.896000
-0.029132 0.011438 0.893000
-0.006272 0.006949 0.883000
0.016096 0.041771 0.874000
0.033299 0.004305 0.863000
-0.030259 -0.033392 0.883000
0.047475 0.027852 0.889000
-0.018928 -0.024223 0.880000
0.030457 -0.000313 0.863000
-0.028079 -0.028667 0.883000
0.007094 -0.020078 0.873000
0.014914 -0.007817 0.868000
0.029596 0.015065 0.869000
0.014215 -0.001388 0.869000
-0.011671 0.028624 0.879000
-0.033806 -0.036998 0.900000
-0.035063 0.015706 0.885000
-0.018142 -0.030999 0.877000
0.003927 0.021607 0.888000
-0.021125 0.023613 0.881000
-0.000459 -0.038289 0.887000
0.015628 -0.006388 0.868000
-0.036277 -0.008816 0.897000
0.029781 0.006088 0.864000
-0.034723 0.009622 0.895000
0.010340 0.039613 0.874000
0.000996 0.030537 0.882000
0.010626 -0.009603 0.868000
0.046325 0.029648 0.888000
0.021652 -0.004947 0.866000
0.002465 0.021973 0.888000
-0.030099 -0.017885 0.889000
0.020606 -0.003169 0.867000
0.031276 0.009666 0.866000
-0.031337 -0.010247 0.893000
-0.015376 -0.011963 0.884000
-0.007796 0.013246 0.891000
0.000636 0.026329 0.887000
-0.020446 -0.015947 0.883000
0.038847 -0.002789 0.860000
-0.033644 0.015360 0.886000
-0.022264 -0.015947 0.883000
0.006419 0.012344 0.879000
0.003185 0.028819 0.885000
-0.022491 0.014362 0.892000
0.005741 0.019735 0.886000
0.012167 0.011220 0.876000
0.017415 -0.005316 0.868000
-0.006089 -0.043027 0.910000
-0.022730 -0.010908 0.887000
0.034922 0.036139 0.877000
0.011211 0.027758 0.886000
0.002078 0.008364 0.879000
-0.038645 0.009222 0.892000
0.015700 0.047418 0.872000
0.041304 0.012889 0.867000
-0.038602 -0.026726 0.891000
0.031596 0.007163 0.865000
0.014556 -0.006030 0.868000
0.015826 0.015962 0.879000
0.016343 -0.007102 0.868000
0.017394 -0.013517 0.867000
0.039209 0.033574 0.876000
0.013655 0.036583 0.879000
-0.027966 0.013246 0.891000
-0.041169 0.002634 0.899000
0.029474 0.027805 0.876000
0.003192 0.026694 0.887000
0.008210 0.010511 0.877000
0.026589 0.024200 0.876000
0.014097 0.031698 0.884000
-0.028155 0.007428 0.897000
0.012961 0.017811 0.881000
0.038940 0.024750 0.870000
0.027608 0.021986 0.874000
0.038227 0.006783 0.862000
0.034245 -0.003497 0.860000
-0.028492 -0.001800 0.896000
0.017057 -0.013890 0.868000
-0.010525 -0.027655 0.874000
-0.006560 -0.027624 0.873000
-0.015393 -0.008334 0.885000
0.009208 -0.011402 0.869000
0.011085 0.010499 0.876000
-0.007296 -0.012561 0.875000
0.008492 -0.007468 0.869000
0.049503 0.020829 0.886000
0.014573 0.000043 0.869000
-0.007673 -0.008981 0.877000
0.042668 0.025195 0.873000
-0.010972 -0.004670 0.881000
-0.009929 -0.038203 0.885000
0.010447 0.032389 0.883000
-0.037260 -0.015410 0.894000
-0.014268 -0.005044 0.883000
-0.036524 -0.015042 0.894000
0.020600 0.036708 0.882000
0.019157 -0.008868 0.866000
-0.009273 0.017666 0.892000
0.011354 -0.014264 0.869000
-0.006575 -0.020484 0.875000
-0.001904 -0.032916 0.880000
0.026019 0.014349 0.869000
-0.022525 -0.031793 0.879000
-0.034817 -0.026271 0.888000
-0.001889 0.036333 0.873000
-0.027653 0.022525 0.881000
0.044566 0.022011 0.875000
0.041727 0.001106 0.861000
0.033927 0.019021 0.870000
0.018317 0.015204 0.877000
-0.027050 -0.019626 0.885000
-0.017039 -0.030964 0.876000
-0.037052 -0.028862 0.889000
0.030422 -0.005989 0.862000
0.011406 0.005792 0.873000
0.012111 0.005068 0.872000
0.012427 -0.016052 0.869000
0.003529 0.011996 0.880000
0.008668 0.025234 0.887000
0.016280 0.032789 0.884000
-0.028797 -0.005843 0.894000
0.039163 0.015387 0.867000
-0.000093 0.031916 0.880000
-0.031267 0.013613 0.891000
0.021702 0.000757 0.868000
-0.033910 -0.014290 0.893000
0.027679 -0.010638 0.865000
0.015154 0.022187 0.882000
-0.007412 0.022364 0.889000
-0.040249 -0.018374 0.895000
-0.005489 -0.014346 0.874000
-0.011817 0.020191 0.890000
0.029732 0.021602 0.873000
-0.045355 0.005196 0.894000
-0.009086 -0.028375 0.874000
0.017555 0.041819 0.875000
-0.004807 0.004395 0.881000
-0.034762 -0.009544 0.896000
0.024203 0.031227 0.881000
-0.003368 0.027695 0.884000
0.016969 0.024366 0.882000
0.027260 -0.004930 0.863000
-0.033324 -0.003648 0.897000
0.036369 -0.004205 0.860000
0.019422 0.019919 0.878000
0.040158 0.037029 0.881000
0.008502 -0.014996 0.870000
0.025216 -0.000670 0.866000
-0.025898 -0.026850 0.883000
-0.013633 0.020168 0.889000
-0.009805 -0.028015 0.874000
-0.023999 -0.031467 0.880000
0.035441 0.026602 0.872000
-0.026172 0.023224 0.880000
-0.029733 0.014680 0.889000
-0.024527 -0.010531 0.886000
0.039702 0.026571 0.871000
-0.013541 -0.037753 0.883000
0.025216 -0.011363 0.866000
-0.037718 -0.009267 0.905000
-0.024408 0.001886 0.895000
-0.035380 -0.015025 0.893000
-0.015182 0.013658 0.894000
0.003561 0.023069 0.888000
-0.004775 -0.030568 0.875000
0.023062 0.025730 0.879000
-0.033796 -0.020103 0.890000
0.021060 0.005779 0.871000
-0.014062 0.016216 0.893000
0.042485 0.002171 0.862000
0.046428 0.025120 0.883000
-0.025257 -0.011625 0.886000
0.015292 -0.018271 0.890000
-0.003728 0.028027 0.883000
0.043946 0.025671 0.877000
-0.007296 -0.013282 0.875000
-0.004045 -0.021156 0.873000
0.034763 0.028069 0.873000
-0.033398 0.002264 0.899000
-0.010258 0.026907 0.882000
0.026255 -0.010638 0.865000
-0.001173 0.034976 0.875000
-0.037140 -0.002549 0.900000
0.008639 0.019691 0.884000
0.001700 -0.011429 0.871000
0.043735 0.028657 0.880000
-0.019764 -0.013069 0.885000
-0.036687 0.005219 0.898000
-0.014664 0.022991 0.885000
-0.036279 -0.032484 0.888000
-0.021439 -0.032517 0.879000
0.028851 0.033689 0.879000
-0.024026 -0.019537 0.881000
0.044006 0.003954 0.864000
-0.026678 0.007797 0.897000
-0.041256 0.013521 0.885000
0.043206 0.033153 0.884000
-0.016616 0.004817 0.892000
0.039647 -0.004215 0.862000
0.017535 0.007597 0.874000
0.011779 0.007597 0.874000
0.023786 0.042372 0.879000
0.037321 0.031339 0.874000
-0.000094 0.026329 0.887000
0.038224 0.020095 0.870000
0.037637 0.029147 0.873000
-0.010947 -0.015151 0.879000
-0.020539 -0.010908 0.887000
0.030195 0.028166 0.876000
0.015394 0.040738 0.875000
-0.036687 -0.006608 0.898000
-0.016103 0.023329 0.884000
-0.003326 -0.014689 0.873000
0.005637 -0.013206 0.870000
0.018486 -0.004244 0.868000
-0.001893 -0.028767 0.875000
-0.005551 0.026604 0.884000
0.019157 -0.006729 0.866000
0.023818 -0.000314 0.867000
-0.009974 0.008094 0.889000
-0.035420 -0.014306 0.894000
0.002097 0.016472 0.887000
-0.007665 -0.011855 0.876000
-0.019809 -0.009083 0.887000
0.040015 0.017947 0.870000
-0.019400 -0.013069 0.885000
-0.009817 -0.031649 0.875000
-0.023275 -0.029294 0.880000
-0.027715 -0.034482 0.883000
0.011354 -0.014979 0.869000
-0.016337 -0.033887 0.877000
0.021812 -0.015289 0.887000
-0.037052 -0.031789 0.889000
0.041776 0.005010 0.862000
-0.003025 0.021656 0.890000
0.013020 0.027727 0.885000
0.041514 0.032965 0.879000
0.008001 0.004828 0.894000
0.006441 0.031989 0.882000
0.020582 -0.006017 0.866000
-0.024389 -0.028602 0.881000
-0.011257 -0.030208 0.875000
0.041136 0.023345 0.871000
-0.019079 -0.008353 0.887000
0.023542 0.012576 0.870000
0.010364 0.010139 0.876000
-0.036768 -0.022693 0.891000
-0.017078 0.029314 0.878000
0.024560 0.007545 0.868000
0.031276 0.010736 0.866000
0.030229 0.030725 0.877000
0.033325 0.024836 0.873000
-0.034490 -0.023739 0.889000
-0.035103 -0.031682 0.886000
-0.042761 0.012442 0.886000
-0.034124 -0.024105 0.889000
0.009980 0.039613 0.874000
-0.002292 0.022022 0.890000
-0.048449 0.007370 0.890000
0.038937 0.007138 0.862000
-0.010790 -0.041996 0.896000
-0.001926 0.021656 0.890000
-0.025839 -0.030053 0.881000
0.023818 0.000400 0.867000
0.019378 0.015907 0.876000
0.025216 0.000756 0.866000
-0.014978 -0.015929 0.882000
0.001354 0.032604 0.879000
-0.042222 0.009202 0.890000
0.024203 0.004330 0.868000
-0.000452 -0.024058 0.874000
0.013842 -0.013890 0.868000
0.043436 0.021267 0.874000
0.033615 -0.007053 0.862000
-0.012577 0.016565 0.892000
0.022002 0.026121 0.880000
-0.012741 -0.034287 0.878000
-0.017195 -0.012327 0.884000
0.020963 -0.003526 0.867000
0.038488 0.033935 0.876000
0.002099 0.024531 0.888000
0.038627 0.008567 0.863000
-0.019488 0.017973 0.889000
-0.029998 -0.025118 0.886000
-0.034974 -0.017945 0.892000
0.036517 0.026602 0.872000
0.003188 0.016818 0.886000
-0.012563 0.018747 0.891000
-0.034047 -0.035003 0.887000
0.044307 0.024949 0.877000
-0.009273 0.016198 0.892000
-0.012338 -0.030928 0.875000
0.046844 0.025148 0.884000
-0.000092 -0.021516 0.873000
-0.030658 -0.030519 0.884000
0.005989 -0.008899 0.869000
-0.033175 -0.012452 0.893000
-0.024361 -0.030743 0.880000
-0.010935 -0.033925 0.878000
0.023569 0.017967 0.871000
0.031559 0.006088 0.864000
-0.024463 0.005951 0.897000
0.020773 0.013353 0.874000
-0.033693 0.007059 0.897000
0.000272 0.017587 0.888000
0.025484 -0.005996 0.863000
-0.024190 0.017932 0.887000
-0.031021 -0.033429 0.884000
-0.012046 -0.014806 0.880000
-0.007312 0.031447 0.877000
-0.010200 -0.033165 0.877000
-0.012930 0.007378 0.891000
0.046791 0.024393 0.883000
-0.022938 -0.026789 0.881000
0.021627 -0.007434 0.865000
0.011148 0.035579 0.881000
0.006774 0.010884 0.878000
0.022442 0.002547 0.869000
-0.011684 -0.007563 0.880000
0.014914 -0.009246 0.868000
-0.030133 0.013231 0.890000
-0.025898 -0.021035 0.883000
0.026079 0.018684 0.871000
-0.014203 -0.035049 0.879000
0.012413 -0.013533 0.868000
-0.000452 -0.021156 0.873000
-0.005135 -0.010041 0.875000
-0.011296 -0.012605 0.878000
0.033888 0.018284 0.869000
0.008294 0.028123 0.886000
0.045908 0.024310 0.880000
-0.006928 -0.030174 0.874000
-0.033644 -0.029494 0.886000
-0.019165 0.000411 0.891000
0.000985 -0.009288 0.872000
-0.021485 0.007051 0.896000
0.020030 0.007948 0.873000
0.010785 0.034491 0.881000
-0.021221 -0.014162 0.885000
0.038139 -0.001373 0.860000
0.034239 0.037264 0.878000
0.021229 0.040517 0.878000
0.013874 0.044086 0.870000
-0.021561 0.021510 0.884000
-0.000451 -0.012877 0.872000
0.010458 0.031698 0.884000
-0.003001 -0.035936 0.883000
0.019289 0.005785 0.872000
0.013354 0.021849 0.883000
-0.017059 -0.032804 0.877000
-0.028474 -0.027972 0.884000
-0.004050 0.036015 0.874000
-0.012727 0.029642 0.877000
0.011034 0.004350 0.872000
-0.009828 -0.022311 0.876000
0.012991 0.022939 0.883000
0.018952 0.043520 0.873000
-0.027383 -0.025425 0.884000
0.038892 0.003941 0.861000
0.010785 -0.019900 0.881000
0.025750 0.019424 0.872000
-0.032661 -0.020812 0.889000
-0.021149 -0.017381 0.882000
0.024860 -0.011363 0.866000
0.034643 0.020095 0.870000
0.001357 0.010559 0.881000
-0.008025 0.032132 0.876000
-0.043759 -0.019566 0.899000
-0.029295 0.005219 0.898000
0.033693 0.006444 0.864000
-0.019122 0.018339 0.889000
-0.024780 -0.034806 0.882000
-0.025957 -0.014526 0.885000
0.009753 0.024476 0.886000
-0.031857 -0.036463 0.887000
0.013278 0.012691 0.878000
-0.019742 -0.015601 0.884000
-0.044919 0.002267 0.900000
0.014199 -0.006030 0.868000
-0.032216 -0.003278 0.897000
0.024203 0.005044 0.868000
-0.027321 0.021098 0.882000
-0.009805 -0.029814 0.874000
0.042766 0.026693 0.875000
-0.015900 0.016216 0.893000
0.030422 -0.002086 0.862000
0.024503 -0.000314 0.866000
0.025187 -0.001381 0.865000
-0.006208 -0.013267 0.874000
0.008901 0.004720 0.874000
-0.031776 -0.007323 0.895000
0.031878 0.001819 0.863000
-0.020423 0.023277 0.882000
-0.018503 -0.029916 0.877000
-0.005489 -0.013986 0.874000
0.011563 0.029548 0.885000
0.019648 0.044188 0.872000
0.010026 0.013053 0.878000
-0.020857 0.020442 0.885000
-0.032550 -0.028035 0.886000
-0.025898 -0.023216 0.883000
0.017097 0.045161 0.870000
0.016280 0.028787 0.884000
0.033839 0.035417 0.877000
0.008850 -0.006395 0.869000
0.004972 0.011982 0.879000
0.033810 0.013960 0.867000
-0.013664 0.018013 0.891000
0.029712 -0.004570 0.862000
0.029036 -0.003154 0.863000
0.006106 0.019735 0.886000
-0.018514 0.011095 0.895000
0.029954 0.014349 0.869000
-0.007421 0.012865 0.890000
-0.027809 -0.017095 0.886000
-0.036279 -0.029195 0.888000
-0.038321 -0.020538 0.893000
0.005657 -0.020438 0.873000
0.039474 0.013587 0.866000
0.037953 0.028396 0.872000
-0.030431 -0.020789 0.888000
0.032853 0.017231 0.870000
-0.001530 0.037052 0.873000
-0.022173 0.012923 0.894000
0.033004 0.028461 0.874000
-0.014548 -0.022361 0.878000
-0.004769 -0.015785 0.874000
-0.010573 -0.016218 0.878000
-0.036810 -0.010710 0.901000
-0.019854 -0.005079 0.889000
0.005285 -0.017164 0.871000
0.011199 0.031369 0.885000
0.015324 0.003269 0.871000
-0.048191 0.006285 0.892000
0.013485 -0.011032 0.868000
0.015754 0.009047 0.875000
0.015068 0.012677 0.877000
-0.011244 -0.028015 0.874000
0.033569 0.019379 0.870000
-0.023433 -0.010896 0.886000
-0.044685 0.009912 0.888000
0.013655 0.014153 0.879000
0.034404 0.007866 0.864000
-0.031421 -0.034924 0.885000
0.023088 0.027932 0.880000
-0.047244 0.009181 0.888000
0.011524 0.019283 0.882000
-0.025285 -0.009083 0.887000
0.028293 -0.004570 0.862000
0.033440 0.033213 0.876000
0.010639 -0.015337 0.869000
0.000637 0.025262 0.888000
0.015271 -0.004959 0.868000
0.016644 0.029151 0.884000
-0.014316 0.021923 0.886000
0.008331 0.004073 0.890000
0.018421 0.026181 0.882000
-0.005595 0.017280 0.891000
0.031241 0.027053 0.875000
-0.001891 -0.026217 0.874000
-0.002608 -0.016126 0.873000
0.010675 0.002555 0.872000
-0.017156 -0.017381 0.882000
0.025624 0.032279 0.880000
0.000631 0.032604 0.879000
-0.020015 -0.021688 0.880000
