-0.023669 0.013063 0.855000
0.025627 -0.028415 0.833000
0.034773 -0.008673 0.847000
0.038050 0.003574 0.858000
-0.012536 -0.011713 0.840000
-0.045947 -0.005601 0.857000
0.034749 -0.028931 0.838000
0.016060 0.025671 0.853000
-0.028608 0.024993 0.866000
-0.037741 0.001785 0.847000
-0.020834 -0.014825 0.840000
0.039723 0.000747 0.856000
-0.005426 0.022090 0.864000
0.003449 0.012431 0.860000
0.022158 0.017699 0.858000
0.011944 0.020572 0.860000
-0.021845 -0.014462 0.839000
0.039445 -0.006255 0.850000
0.016173 0.019134 0.859000
-0.029117 0.017387 0.860000
0.027039 -0.007262 0.845000
-0.028218 0.033152 0.865000
-0.030277 -0.004816 0.843000
0.010857 0.008518 0.858000
-0.012292 0.002831 0.847000
-0.038620 -0.018171 0.851000
0.044134 0.021282 0.846000
-0.003542 -0.010663 0.839000
0.024867 0.000394 0.854000
0.011604 0.019887 0.861000
-0.018826 -0.007245 0.843000
0.036516 0.022004 0.847000
-0.027315 -0.022295 0.848000
-0.011166 -0.007227 0.841000
-0.038393 -0.013190 0.846000
-0.006650 -0.014462 0.839000
-0.011512 -0.005151 0.841000
-0.026794 0.023184 0.865000
-0.012379 0.037608 0.853000
-0.023345 0.039501 0.856000
0.024107 -0.002062 0.852000
-0.013243 -0.009304 0.841000
0.011667 -0.012059 0.840000
0.046847 -0.006613 0.851000
0.025557 -0.011048 0.842000
0.014364 -0.021292 0.836000
-0.036912 0.008458 0.852000
0.045232 0.018518 0.847000
-0.013670 0.001086 0.846000
-0.032628 -0.007920 0.841000
-0.027947 0.002131 0.846000
-0.027347 0.017033 0.860000
0.044760 0.008165 0.858000
0.049999 -0.013361 0.857000
0.026565 -0.011727 0.841000
-0.038951 -0.004816 0.843000
0.025218 0.020077 0.854000
-0.043275 0.010926 0.853000
0.027809 0.015934 0.858000
0.016939 0.013879 0.862000
-0.008280 0.022116 0.865000
0.010418 0.029814 0.851000
0.013659 -0.024016 0.835000
0.029813 -0.024703 0.835000
0.016277 -0.007270 0.846000
-0.003943 0.035768 0.851000
-0.024494 0.000042 0.847000
-0.008387 -0.012059 0.840000
-0.035828 -0.003775 0.843000
0.016645 -0.005187 0.847000
-0.026585 0.000739 0.847000
-0.026839 -0.004474 0.844000
0.032874 -0.014184 0.843000
-0.035241 -0.023508 0.854000
-0.032628 -0.007227 0.841000
-0.029340 0.001435 0.846000
0.014708 -0.027485 0.836000
0.000620 0.019601 0.864000
-0.014332 -0.001000 0.844000
0.005940 0.021330 0.862000
-0.040734 -0.004474 0.844000
0.047142 -0.008704 0.850000
0.000257 -0.022059 0.839000
-0.034563 -0.016324 0.846000
-0.038450 0.012359 0.855000
-0.026237 -0.022269 0.847000
0.039630 0.014453 0.854000
-0.035743 -0.008958 0.841000
0.003062 0.034367 0.851000
0.021277 0.024910 0.851000
-0.025370 0.023184 0.865000
0.030210 0.018010 0.856000
0.023299 0.011028 0.861000
-0.039645 -0.008285 0.843000
0.050527 -0.010151 0.854000
-0.014002 -0.000306 0.845000
0.022884 -0.029101 0.833000
0.027327 0.001097 0.854000
0.013314 0.022969 0.857000
0.030698 0.022082 0.850000
-0.027749 -0.014133 0.840000
-0.025106 0.040206 0.856000
-0.039413 0.009170 0.853000
-0.025756 0.031052 0.866000
-0.019844 -0.007583 0.842000
0.012070 -0.004822 0.844000
0.012098 -0.003092 0.846000
-0.045922 0.007039 0.850000
-0.019796 -0.011368 0.840000
0.035619 0.007467 0.859000
0.003023 -0.009639 0.840000
-0.042423 0.006339 0.850000
-0.014250 0.015263 0.860000
-0.010833 -0.004464 0.842000
-0.021355 0.034062 0.861000
-0.021305 0.035397 0.859000
0.037385 -0.016266 0.843000
-0.019446 0.039103 0.855000
-0.009100 -0.005157 0.842000
-0.013573 -0.012750 0.840000
0.041642 -0.004517 0.852000
0.010068 0.030164 0.851000
-0.009770 -0.011368 0.840000
-0.015775 0.023924 0.866000
0.027917 -0.013096 0.840000
0.002028 0.010990 0.858000
-0.019796 -0.010330 0.840000
0.040304 0.021978 0.846000
0.032362 0.016268 0.857000
0.039955 -0.012145 0.846000
0.004390 -0.021317 0.837000
0.021848 -0.008663 0.846000
-0.033320 -0.009650 0.841000
0.050110 -0.017046 0.865000
-0.027947 0.001435 0.846000
0.045413 -0.020768 0.857000
0.007482 -0.020948 0.836000
-0.012582 0.033229 0.867000
-0.030068 0.029304 0.867000
0.027295 0.020405 0.853000
0.011590 0.011015 0.860000
-0.021628 -0.005516 0.844000
0.034609 -0.014878 0.843000
-0.034808 0.008107 0.852000
-0.025705 -0.007920 0.841000
-0.012495 0.029810 0.861000
0.020877 -0.030889 0.835000
-0.010272 0.009872 0.853000
-0.015419 0.024280 0.866000
0.044936 -0.015664 0.848000
0.023784 -0.000309 0.853000
-0.023263 0.007766 0.853000
0.023598 0.008174 0.859000
0.041291 0.015121 0.852000
0.031636 0.024793 0.847000
0.022966 -0.022668 0.836000
0.029436 0.000394 0.854000
0.025091 -0.019618 0.838000
0.011955 -0.025765 0.836000
0.015872 -0.011408 0.843000
-0.043720 0.003183 0.848000
-0.001156 0.014943 0.862000
0.046038 -0.009393 0.849000
0.006273 0.010295 0.859000
-0.039692 -0.003085 0.844000
0.035973 0.009942 0.859000
0.003417 0.004601 0.852000
0.012155 0.030129 0.850000
-0.013369 0.004934 0.849000
-0.009592 0.034881 0.855000
0.017565 -0.014842 0.841000
0.038773 -0.017307 0.843000
-0.022191 0.029270 0.866000
-0.023153 0.019201 0.862000
0.015709 0.025320 0.853000
0.047785 -0.012887 0.849000
-0.036690 0.011655 0.855000
0.021377 0.002506 0.855000
0.019130 -0.004501 0.849000
-0.030355 0.038137 0.865000
-0.020478 0.041870 0.854000
0.010577 -0.001024 0.864000
-0.018759 -0.011368 0.840000
0.011625 -0.019595 0.837000
-0.043125 0.015562 0.857000
0.015378 -0.026765 0.835000
0.018882 -0.018928 0.838000
0.042337 0.006406 0.859000
0.031139 -0.010714 0.843000
-0.000792 0.032341 0.853000
0.026437 -0.005542 0.848000
0.008079 0.016382 0.863000
0.020189 -0.024016 0.835000
-0.045894 0.013783 0.856000
-0.036126 0.005639 0.850000
0.026150 0.024181 0.850000
0.031225 -0.031270 0.836000
-0.030001 -0.017695 0.845000
-0.013638 -0.001000 0.844000
-0.027766 0.020265 0.862000
0.008879 -0.017894 0.838000
0.019917 -0.019273 0.838000
-0.032050 -0.003085 0.844000
-0.004923 -0.012045 0.839000
-0.032125 0.003524 0.846000
0.026126 -0.019618 0.838000
-0.017562 0.001789 0.849000
-0.000801 0.015298 0.862000
0.036950 -0.018996 0.841000
-0.034440 -0.004816 0.843000
0.035387 -0.012131 0.845000
0.017424 0.027012 0.851000
0.026593 -0.001011 0.853000
0.000975 0.019957 0.864000
-0.027029 -0.024447 0.850000
0.032829 0.010661 0.860000
0.005437 -0.025167 0.839000
0.014381 -0.028552 0.837000
-0.000090 0.031325 0.854000
-0.040435 -0.001349 0.845000
0.004870 0.022014 0.861000
0.024192 0.020453 0.855000
0.019755 -0.032560 0.861000
0.014796 -0.014842 0.841000
0.017586 -0.014167 0.842000
-0.013977 0.025320 0.865000
-0.028730 0.038579 0.859000
0.012719 -0.011727 0.841000
-0.027347 0.006332 0.849000
0.017033 -0.002055 0.849000
0.040940 0.015471 0.852000
-0.047952 0.010599 0.855000
0.029858 0.018715 0.856000
-0.008899 0.033512 0.856000
-0.015993 -0.012405 0.840000
0.047785 -0.013935 0.849000
0.013459 -0.005516 0.844000
0.029090 -0.029479 0.834000
-0.034152 0.019910 0.862000
-0.009536 0.005639 0.850000
-0.002210 0.028293 0.858000
0.006244 0.008840 0.855000
0.003816 0.019578 0.863000
0.022029 0.023213 0.853000
-0.013219 0.028780 0.862000
0.004526 0.018513 0.863000
-0.025077 0.041215 0.855000
-0.002581 0.021023 0.864000
-0.035956 -0.015279 0.846000
-0.017624 0.005302 0.852000
0.051994 -0.006292 0.855000
0.038214 -0.012145 0.846000
0.010151 0.022643 0.858000
0.033147 0.021382 0.850000
-0.035051 -0.007920 0.841000
0.037034 0.008528 0.859000
0.025480 0.023159 0.851000
-0.013290 -0.000653 0.844000
-0.016488 0.023211 0.866000
-0.019117 0.009907 0.856000
0.025100 0.024881 0.850000
-0.019961 -0.000655 0.847000
-0.038585 0.016287 0.858000
-0.025509 -0.001699 0.846000
-0.025459 0.039854 0.856000
-0.030001 0.001433 0.845000
0.006288 0.013509 0.861000
-0.028284 0.026806 0.867000
-0.016845 0.024636 0.866000
-0.025667 0.020289 0.863000
0.033183 0.010661 0.860000
0.024628 -0.025360 0.834000
-0.010200 0.001785 0.847000
0.011321 -0.013442 0.840000
-0.005407 0.027329 0.861000
-0.008387 -0.012750 0.840000
-0.042522 -0.000654 0.845000
0.031693 0.013815 0.858000
-0.013945 0.031300 0.863000
-0.014655 0.028458 0.863000
-0.033170 0.000738 0.846000
0.046387 0.016116 0.849000
-0.044433 0.012711 0.855000
0.037989 -0.021073 0.841000
0.017784 -0.028483 0.835000
-0.035448 0.017013 0.859000
-0.017022 0.011682 0.857000
0.018692 0.014926 0.861000
0.041837 0.011316 0.856000
0.000946 -0.014790 0.838000
-0.003273 0.028326 0.859000
-0.033055 -0.023102 0.852000
-0.001148 0.029637 0.856000
-0.030746 0.033547 0.866000
0.034036 -0.009708 0.846000
0.025360 -0.006582 0.847000
0.026181 -0.002760 0.851000
0.026457 0.014555 0.860000
-0.003648 0.021023 0.864000
-0.007481 0.033825 0.855000
0.031984 0.024793 0.847000
0.012991 0.009942 0.859000
-0.022166 0.029592 0.865000
0.002323 -0.020284 0.837000
-0.024715 0.027876 0.867000
-0.034400 -0.006196 0.842000
0.016773 -0.020948 0.836000
0.028515 0.015580 0.858000
-0.010284 0.036246 0.854000
-0.017172 0.000042 0.847000
0.024286 -0.008315 0.846000
0.032084 0.012417 0.859000
0.048655 -0.005919 0.852000
0.004050 -0.015134 0.838000
-0.030241 -0.014860 0.842000
-0.032474 0.003872 0.846000
0.011969 -0.027174 0.837000
0.042994 0.015453 0.851000
-0.014298 -0.007929 0.842000
0.023021 -0.019273 0.838000
0.008190 -0.025827 0.838000
-0.041276 0.002834 0.848000
0.002326 -0.013065 0.838000
0.014003 -0.024703 0.835000
0.026913 0.022134 0.852000
-0.004923 -0.016534 0.839000
-0.014715 0.001435 0.846000
0.010320 -0.006204 0.843000
-0.026010 0.009849 0.851000
0.046387 -0.016381 0.849000
0.000613 0.030306 0.855000
-0.037955 -0.002043 0.844000
0.000973 0.014589 0.862000
-0.041057 0.016640 0.858000
-0.012897 -0.006881 0.841000
0.007509 -0.012390 0.839000
0.018431 -0.003802 0.849000
-0.031191 0.007031 0.849000
-0.032491 0.024252 0.865000
-0.013799 0.037300 0.854000
0.036906 -0.020356 0.840000
0.018980 0.006752 0.858000
0.011132 0.028797 0.852000
-0.037260 -0.012811 0.844000
0.043196 0.012359 0.855000
-0.010974 0.036905 0.853000
-0.034890 0.009884 0.854000
-0.006658 -0.019319 0.840000
-0.030390 0.033191 0.866000
-0.011000 0.010599 0.855000
-0.028820 -0.014496 0.841000
0.026502 -0.014462 0.839000
-0.035406 0.016287 0.858000
0.044002 0.009919 0.857000
0.009938 -0.009639 0.840000
-0.000778 -0.016859 0.838000
0.003457 0.022394 0.862000
0.019288 0.021533 0.856000
0.045635 -0.010778 0.848000
0.035847 0.002156 0.856000
0.026104 0.009599 0.860000
-0.039298 -0.008979 0.843000
-0.037219 -0.019572 0.851000
0.024022 0.026249 0.849000
-0.000444 0.026912 0.859000
0.002035 0.014217 0.861000
-0.034347 0.014874 0.858000
-0.036869 -0.019222 0.851000
0.031194 0.000394 0.854000
0.036200 0.013430 0.856000
-0.005420 0.024551 0.863000
-0.008857 0.009159 0.852000
0.007343 0.012077 0.860000
-0.012524 0.028103 0.863000
-0.010380 0.027716 0.862000
0.020202 0.026280 0.850000
0.025366 0.007467 0.859000
-0.023824 0.001089 0.848000
-0.047210 -0.002401 0.848000
0.040428 0.012373 0.856000
0.039748 -0.008344 0.849000
0.026815 -0.017549 0.838000
-0.015223 0.036992 0.855000
0.000965 0.029954 0.855000
-0.001468 -0.017204 0.838000
-0.023641 0.042924 0.854000
0.038927 -0.001012 0.854000
0.024056 -0.017204 0.838000
-0.036436 -0.008266 0.841000
0.018471 -0.022641 0.835000
0.014484 -0.010367 0.843000
0.007138 -0.020948 0.836000
0.026811 0.014201 0.860000
-0.002554 0.031713 0.855000
-0.024145 -0.001004 0.847000
0.024249 0.018384 0.857000
-0.028112 0.010199 0.851000
-0.040831 0.001086 0.846000
0.018105 -0.025703 0.834000
0.032601 -0.024733 0.836000
0.024657 -0.024359 0.835000
0.002731 0.027202 0.857000
-0.005634 -0.004810 0.842000
0.003066 0.006354 0.852000
-0.032012 -0.014878 0.843000
-0.011745 0.032531 0.858000
-0.003948 0.035459 0.852000
0.012027 -0.009997 0.841000
0.016084 -0.020948 0.836000
-0.012140 0.029455 0.861000
0.001634 -0.019939 0.837000
-0.024754 0.039854 0.856000
-0.007888 0.027684 0.861000
0.013856 -0.001004 0.847000
-0.002933 0.023841 0.863000
0.030500 -0.026078 0.835000
-0.018786 0.011330 0.857000
-0.031206 -0.011368 0.840000
-0.028474 -0.007920 0.841000
-0.006769 0.010938 0.854000
0.031267 0.015896 0.856000
0.020083 -0.009696 0.845000
0.038050 0.003927 0.858000
0.037741 0.009588 0.859000
0.018231 0.004622 0.856000
-0.011090 0.017427 0.862000
-0.002909 0.030694 0.856000
0.022811 0.019772 0.856000
0.021172 0.013154 0.861000
-0.023234 0.022828 0.865000
0.012284 -0.024016 0.835000
0.039861 -0.016632 0.844000
0.038957 -0.011114 0.847000
0.012855 0.003191 0.850000
0.019288 0.020829 0.856000
0.017158 -0.019273 0.838000
0.019917 -0.019618 0.838000
0.051350 -0.009470 0.856000
-0.040387 -0.004474 0.844000
0.017544 -0.016553 0.840000
0.010284 -0.009985 0.840000
0.005947 0.018158 0.863000
-0.023946 0.030660 0.865000
-0.020358 0.001090 0.849000
0.010591 -0.026829 0.837000
-0.039739 -0.001349 0.845000
-0.008982 0.020312 0.864000
-0.012789 0.011330 0.857000
0.024401 -0.004506 0.850000
0.009997 -0.004132 0.845000
0.036327 0.011002 0.859000
0.038034 -0.023524 0.842000
-0.008636 0.021760 0.865000
-0.025310 0.007047 0.851000
-0.025399 0.013047 0.854000
0.005430 -0.013410 0.838000
0.018758 -0.005542 0.848000
-0.018165 0.017052 0.861000
-0.031890 -0.020924 0.849000
-0.020742 0.022116 0.865000
0.031767 0.011369 0.860000
-0.005070 0.019245 0.864000
-0.037875 0.005989 0.850000
-0.012154 0.017072 0.862000
0.004495 0.026497 0.857000
-0.024754 -0.003779 0.844000
0.011917 0.008165 0.858000
0.017628 0.015635 0.861000
0.004137 0.009555 0.856000
-0.011957 0.003532 0.848000
-0.042522 -0.001002 0.845000
0.016257 -0.008305 0.845000
0.002038 0.015298 0.862000
0.005768 -0.017872 0.837000
0.008434 0.017447 0.863000
0.026439 -0.021662 0.837000
-0.007004 -0.018974 0.840000
0.008879 -0.016859 0.838000
0.004171 0.020644 0.863000
0.035429 -0.011101 0.846000
0.019181 -0.021980 0.836000
-0.024609 0.007047 0.851000
-0.025637 0.019201 0.862000
-0.033518 0.002131 0.846000
0.022236 0.010674 0.861000
0.017134 0.003206 0.854000
-0.002192 0.035418 0.851000
-0.028641 0.030731 0.867000
0.010516 0.022316 0.859000
0.028881 0.026567 0.848000
0.001328 0.023103 0.862000
-0.029477 -0.012059 0.840000
-0.046457 -0.002398 0.847000
-0.015741 -0.000306 0.845000
-0.002851 -0.012735 0.839000
-0.006123 0.025942 0.862000
0.035163 0.022030 0.848000
0.026088 0.025869 0.848000
0.029125 -0.031576 0.835000
0.029230 0.024822 0.848000
-0.043575 0.009510 0.852000
0.033498 0.006760 0.859000
-0.029540 0.020265 0.862000
-0.025282 0.034102 0.862000
-0.037086 0.012726 0.856000
-0.049771 0.002141 0.850000
-0.020718 0.021023 0.864000
0.011667 -0.014825 0.840000
0.006251 0.027170 0.856000
-0.028128 -0.014496 0.841000
-0.022261 0.011303 0.855000
0.026976 0.019726 0.854000
0.013555 0.001791 0.850000
-0.041826 -0.003088 0.845000
0.009356 0.031528 0.850000
-0.018983 0.024993 0.866000
-0.031777 -0.017716 0.846000
0.038485 0.016874 0.852000
-0.041826 -0.006566 0.845000
-0.020694 0.019578 0.863000
0.029264 0.023454 0.849000
0.050998 -0.010527 0.856000
-0.014300 0.028813 0.863000
0.034814 -0.007637 0.848000
-0.012028 0.009170 0.853000
0.012041 -0.007583 0.842000
0.047232 0.010283 0.858000
-0.004715 0.019245 0.864000
-0.022191 0.028201 0.866000
-0.047727 -0.003811 0.851000
0.035889 0.012740 0.857000
0.028983 0.021758 0.851000
-0.006809 0.029387 0.859000
0.025100 -0.003806 0.850000
0.036604 -0.018650 0.841000
-0.016050 -0.005163 0.843000
-0.016784 -0.001349 0.845000
0.003016 -0.015134 0.838000
0.027917 -0.013788 0.840000
0.023812 0.020780 0.854000
0.011106 0.031528 0.850000
0.010163 0.009588 0.859000
-0.040040 -0.009685 0.844000
0.021427 0.005333 0.857000
-0.015241 0.036331 0.856000
0.001687 0.019245 0.864000
-0.015890 0.039363 0.853000
-0.000800 0.014217 0.861000
0.016004 0.001441 0.850000
0.013730 0.018824 0.861000
0.035205 0.020658 0.849000
0.039095 0.018584 0.850000
0.041582 0.009930 0.858000
0.029544 -0.003793 0.847000
-0.020430 0.005302 0.852000
-0.022589 -0.009304 0.841000
0.039748 -0.007995 0.849000
-0.017497 0.019934 0.863000
0.013443 -0.008632 0.843000
-0.027914 -0.018739 0.845000
-0.011858 -0.006189 0.841000
-0.014167 0.009544 0.855000
0.039417 0.003217 0.857000
-0.037000 0.000738 0.846000
0.048573 -0.019848 0.863000
0.000613 0.009884 0.854000
0.021377 0.021508 0.855000
-0.043268 -0.003788 0.846000
-0.035818 0.005996 0.851000
-0.019287 0.000042 0.848000
0.041544 0.017534 0.850000
0.014484 -0.009673 0.843000
-0.040372 0.007397 0.851000
0.003714 -0.024851 0.840000
0.017628 0.016698 0.861000
-0.018060 0.037035 0.856000
0.041277 0.006406 0.859000
-0.017181 0.027456 0.865000
-0.042173 0.008809 0.852000
0.029289 0.013139 0.860000
-0.019451 -0.011022 0.840000
-0.034417 0.007047 0.851000
-0.028696 0.039947 0.858000
0.043297 0.010271 0.857000
-0.038650 -0.011074 0.844000
0.022029 0.022511 0.853000
-0.010260 0.037213 0.852000
0.043191 -0.009731 0.848000
0.037170 -0.001012 0.854000
-0.036132 -0.006543 0.842000
0.024284 -0.030166 0.834000
-0.032282 -0.008612 0.841000
0.020165 -0.028793 0.834000
0.040304 -0.020502 0.846000
0.019709 0.018427 0.859000
0.046627 0.017821 0.847000
-0.038098 0.012359 0.855000
-0.049421 0.004240 0.850000
-0.006769 0.010235 0.854000
0.017920 0.007811 0.858000
-0.023853 0.002488 0.849000
0.048418 -0.002770 0.854000
-0.005761 0.026620 0.861000
-0.004303 0.034448 0.853000
0.001323 0.025498 0.859000
-0.023426 0.015599 0.859000
-0.027570 0.029304 0.867000
0.019046 0.016698 0.861000
-0.033326 0.016306 0.859000
-0.012730 0.037959 0.853000
-0.006402 0.008107 0.852000
0.035578 0.004633 0.858000
0.052070 -0.013533 0.868000
0.030902 -0.005181 0.846000
-0.035200 0.008468 0.853000
0.016065 -0.026078 0.835000
-0.005401 0.014201 0.860000
0.010056 0.002141 0.850000
-0.022105 0.001440 0.849000
-0.003292 0.022801 0.864000
-0.038053 0.010587 0.854000
-0.013718 0.004934 0.849000
0.033852 0.012417 0.859000
-0.020586 -0.004822 0.844000
-0.022851 0.021379 0.864000
0.001320 0.028260 0.857000
0.041746 -0.017389 0.847000
-0.030971 -0.005163 0.843000
0.005775 -0.014790 0.838000
0.003816 0.017802 0.863000
0.019736 -0.031955 0.845000
-0.029231 0.012681 0.853000
0.030734 -0.002060 0.851000
-0.000799 0.013139 0.860000
-0.029964 -0.026628 0.864000
-0.009219 0.036203 0.853000
-0.007112 0.035501 0.853000
-0.004233 -0.016534 0.839000
-0.000780 -0.008256 0.840000
0.023366 -0.019273 0.838000
0.008170 -0.023356 0.836000
0.015214 -0.007610 0.845000
0.017096 -0.022297 0.835000
0.041146 0.018562 0.849000
-0.015383 0.028491 0.864000
0.029893 0.004275 0.857000
-0.046381 0.008809 0.852000
0.007283 0.029533 0.853000
0.005899 0.027170 0.856000
0.010080 0.005653 0.852000
-0.006123 0.015653 0.862000
0.046201 -0.018894 0.852000
-0.000441 0.033005 0.852000
0.025781 -0.018239 0.838000
0.009718 0.004946 0.851000
-0.024953 -0.012735 0.839000
0.037477 0.015841 0.853000
-0.021684 0.016325 0.860000
-0.036826 -0.018850 0.850000
0.004740 -0.011685 0.838000
-0.046707 0.014874 0.858000
0.025770 -0.004501 0.849000
-0.018476 0.013831 0.859000
0.034363 -0.027174 0.837000
0.027374 -0.031195 0.834000
-0.030660 -0.003779 0.844000
-0.019105 -0.013442 0.840000
0.028129 0.004980 0.857000
0.028747 -0.029822 0.834000
-0.047034 0.018179 0.864000
0.013220 0.003545 0.851000
-0.018068 -0.013788 0.840000
0.027866 0.024502 0.849000
0.000962 0.006003 0.852000
-0.041871 0.009872 0.853000
0.023214 -0.009696 0.845000
0.025091 -0.033070 0.838000
-0.037910 -0.004816 0.843000
0.035826 -0.027584 0.839000
-0.035426 0.005639 0.850000
-0.017604 0.003895 0.851000
-0.026825 0.031409 0.866000
0.028438 -0.031576 0.835000
0.022091 -0.013474 0.842000
0.011984 -0.017894 0.838000
0.034855 0.021707 0.849000
0.001685 0.017092 0.863000
0.007005 0.019910 0.862000
-0.035397 -0.009997 0.841000
-0.032320 -0.013127 0.842000
-0.046972 -0.004156 0.850000
0.002387 0.024112 0.860000
-0.035093 -0.012088 0.842000
0.014101 0.017072 0.862000
0.020431 -0.010392 0.845000
0.009902 -0.026140 0.837000
-0.020409 0.023567 0.866000
-0.034215 -0.016324 0.846000
0.011930 0.009235 0.859000
0.016565 0.017407 0.861000
-0.016260 0.007775 0.854000
-0.021884 0.041167 0.854000
-0.000089 -0.019618 0.838000
-0.012974 0.001783 0.846000
-0.038951 -0.008285 0.843000
0.048191 0.016485 0.850000
-0.009770 -0.013442 0.840000
0.013329 0.008165 0.858000
-0.025043 0.024280 0.866000
0.020582 -0.021317 0.837000
0.026344 -0.007262 0.845000
0.031607 -0.022695 0.837000
-0.044714 0.002831 0.847000
-0.017459 -0.003779 0.844000
-0.021897 -0.017265 0.841000
0.029955 -0.019296 0.839000
0.008890 -0.011699 0.839000
-0.016747 0.016698 0.861000
0.014322 0.024998 0.854000
0.008890 -0.014117 0.839000
0.050466 -0.016334 0.865000
0.026457 0.009599 0.860000
0.005237 0.019578 0.863000
0.035205 0.021357 0.849000
-0.031044 -0.002393 0.845000
-0.008137 0.005989 0.850000
0.039352 0.019936 0.848000
0.034872 0.004986 0.858000
-0.009570 0.036203 0.853000
0.032527 -0.013837 0.843000
-0.006478 0.016717 0.862000
0.044238 -0.016711 0.848000
0.032715 0.003217 0.857000
0.013316 -0.025047 0.835000
-0.022965 0.012711 0.855000
-0.040040 -0.002043 0.844000
0.013571 0.028413 0.851000
-0.024953 -0.013426 0.839000
-0.013977 0.035289 0.865000
0.001314 0.008819 0.853000
0.036473 -0.011449 0.846000
0.014003 -0.022297 0.835000
-0.036071 0.014857 0.857000
-0.019891 0.014184 0.859000
-0.022314 0.013093 0.857000
0.051702 -0.008413 0.856000
-0.008031 -0.014462 0.839000
0.019457 -0.006590 0.848000
-0.030107 -0.020899 0.848000
0.018713 0.013879 0.862000
0.042691 0.006406 0.859000
0.051290 -0.003477 0.855000
0.036865 -0.009719 0.847000
-0.013589 -0.007920 0.841000
0.019158 -0.022985 0.835000
0.003365 -0.023785 0.839000
0.032409 0.022406 0.849000
0.039861 -0.016980 0.844000
-0.006455 0.012770 0.859000
-0.033680 0.016659 0.859000
0.011617 0.017072 0.862000
0.019617 0.021508 0.855000
-0.037263 0.007406 0.852000
0.027096 -0.023012 0.836000
0.022081 0.003209 0.855000
-0.012070 0.034217 0.856000
-0.041576 0.002482 0.847000
0.030598 0.014857 0.857000
-0.006493 0.023868 0.864000
0.041485 0.001099 0.856000
0.002047 0.004676 0.866000
0.011262 0.018137 0.862000
0.027850 -0.018928 0.838000
-0.025479 -0.002741 0.845000
-0.022643 -0.006204 0.843000
0.015433 -0.018239 0.838000
0.026469 -0.004501 0.849000
-0.040324 0.005989 0.850000
0.042894 0.000747 0.856000
0.006215 0.031565 0.851000
-0.046408 0.016306 0.859000
0.005592 0.015671 0.863000
-0.028745 0.008079 0.849000
-0.023697 0.039149 0.856000
0.018409 -0.005193 0.848000
0.007172 -0.009639 0.840000
0.008943 -0.005516 0.844000
-0.014333 0.026744 0.865000
-0.030733 0.004568 0.846000
0.037609 0.013078 0.856000
-0.037482 0.015210 0.857000
-0.037263 0.007757 0.852000
-0.021602 -0.006204 0.843000
-0.005070 0.022090 0.864000
0.011249 0.012446 0.861000
0.033807 0.022056 0.849000
0.044604 -0.001365 0.855000
0.032257 -0.007957 0.845000
-0.026237 0.000042 0.847000
0.026488 0.012091 0.861000
0.005547 0.027170 0.856000
-0.025161 -0.001351 0.846000
-0.014645 -0.015900 0.842000
0.029920 -0.020308 0.838000
0.029643 0.008891 0.860000
-0.038802 0.012007 0.855000
0.023227 -0.028758 0.833000
-0.030072 0.005620 0.847000
0.015396 -0.021636 0.836000
-0.025931 0.017033 0.860000
0.049811 -0.018135 0.866000
-0.021756 0.002139 0.849000
-0.041826 -0.005175 0.845000
0.027225 -0.013442 0.840000
-0.010949 0.008098 0.851000
-0.024262 -0.012390 0.839000
-0.021884 0.007775 0.854000
0.043838 0.018867 0.847000
-0.023881 0.002841 0.850000
0.031413 0.009953 0.860000
0.009134 0.013879 0.862000
0.015502 0.017052 0.861000
0.042844 0.011655 0.855000
0.002387 0.012785 0.860000
0.035512 0.022030 0.848000
-0.026334 -0.011699 0.839000
-0.025280 0.004940 0.850000
0.033488 -0.017265 0.841000
0.018344 -0.010044 0.845000
-0.009078 -0.011713 0.840000
-0.024378 -0.005510 0.843000
0.025660 0.004628 0.857000
0.007509 -0.014117 0.839000
-0.004584 -0.008602 0.840000
0.012184 0.004951 0.852000
0.016211 0.016698 0.861000
-0.008377 -0.015153 0.839000
-0.019613 -0.001353 0.847000
0.012689 -0.028620 0.839000
-0.035051 -0.008266 0.841000
-0.013173 0.013831 0.859000
0.019365 -0.011769 0.844000
0.030455 -0.000660 0.853000
-0.032359 -0.004816 0.843000
-0.021884 0.041870 0.854000
0.006650 0.013879 0.862000
-0.021482 0.004951 0.852000
-0.023614 0.008468 0.853000
-0.014264 -0.012750 0.840000
0.013360 0.011015 0.860000
-0.016845 0.024993 0.866000
-0.016279 0.037696 0.855000
0.005885 0.029216 0.854000
-0.025667 0.033786 0.863000
0.016586 -0.010727 0.844000
0.039862 0.005346 0.859000
-0.012495 0.029455 0.861000
-0.004649 0.035459 0.852000
0.041582 0.003574 0.858000
-0.043965 -0.000655 0.846000
-0.019775 0.040112 0.854000
-0.033399 -0.004816 0.843000
0.042792 -0.014600 0.847000
0.024056 -0.017549 0.838000
0.022236 0.013154 0.861000
-0.031392 0.002128 0.845000
0.019479 -0.004151 0.849000
-0.034187 -0.024211 0.854000
0.038865 -0.013522 0.845000
0.024362 0.010674 0.861000
-0.024715 0.025735 0.867000
-0.013495 0.010977 0.857000
-0.009770 -0.011022 0.840000
0.018561 0.003913 0.855000
0.021000 0.001800 0.854000
-0.033666 -0.009650 0.841000
0.027440 -0.023356 0.836000
-0.040387 -0.009337 0.844000
-0.026113 -0.018347 0.843000
0.004390 -0.020973 0.837000
0.041593 -0.005912 0.851000
-0.017201 0.023211 0.866000
0.029574 0.014521 0.858000
0.002040 0.020289 0.863000
0.040522 0.003221 0.858000
0.042792 -0.013554 0.847000
0.005878 0.029884 0.853000
0.026437 0.026218 0.848000
0.004050 -0.015824 0.838000
-0.004339 0.027297 0.860000
0.045796 -0.018171 0.851000
-0.047990 0.014589 0.862000
0.012490 0.030792 0.849000
0.023296 -0.006240 0.848000
0.017440 -0.028827 0.835000
0.036904 0.002156 0.856000
0.019479 0.027997 0.849000
0.029434 -0.025703 0.834000
0.047954 -0.005919 0.852000
-0.009208 0.008458 0.852000
-0.010128 -0.005151 0.841000
0.014389 0.021231 0.858000
-0.012849 0.016698 0.861000
0.025270 -0.009337 0.844000
0.042140 -0.000662 0.855000
-0.031386 0.022446 0.864000
0.022223 -0.007279 0.847000
0.009213 -0.018906 0.837000
-0.013432 0.038310 0.853000
-0.000447 0.021023 0.864000
0.007670 0.025086 0.857000
0.006565 0.031915 0.851000
-0.000778 -0.019273 0.838000
-0.020903 0.012388 0.857000
-0.007179 0.015635 0.861000
-0.023099 -0.000655 0.847000
0.036808 0.018846 0.862000
-0.045701 0.017013 0.859000
0.030938 0.024793 0.847000
-0.006848 0.024224 0.864000
0.018105 -0.027763 0.834000
0.028183 0.026567 0.848000
-0.023017 -0.005169 0.844000
-0.022089 0.019201 0.862000
-0.032822 0.002479 0.846000
0.039213 -0.013522 0.845000
-0.037305 -0.001697 0.845000
-0.023572 -0.013081 0.839000
-0.014645 -0.006889 0.842000
-0.021633 0.036415 0.858000
-0.047210 0.001787 0.848000
0.009592 -0.011022 0.840000
0.023653 0.011737 0.861000
-0.007915 0.024580 0.864000
0.034363 -0.028207 0.837000
0.019806 -0.005542 0.848000
-0.019219 -0.003436 0.845000
-0.006825 0.015635 0.861000
-0.002611 -0.023699 0.874000
-0.032783 -0.002045 0.845000
-0.009305 0.028747 0.861000
-0.015722 -0.002737 0.844000
0.003812 0.021330 0.862000
0.025091 -0.017549 0.838000
-0.046570 0.018137 0.862000
-0.014333 0.027100 0.865000
0.031656 0.014857 0.857000
0.029540 0.015915 0.857000
-0.007104 0.036862 0.852000
0.030554 -0.005878 0.846000
0.011955 -0.020604 0.836000
-0.025570 0.000740 0.848000
-0.043125 0.015210 0.857000
-0.009770 -0.014825 0.840000
-0.032266 0.016306 0.859000
-0.026825 0.024280 0.866000
0.024343 -0.032647 0.836000
-0.038575 0.005639 0.850000
0.032475 0.008184 0.860000
-0.010260 0.008107 0.852000
0.036904 0.013430 0.856000
-0.004704 0.016363 0.862000
-0.027150 0.023896 0.865000
-0.014628 -0.011035 0.841000
0.028096 0.002508 0.856000
0.032257 -0.029550 0.836000
-0.003538 -0.017549 0.838000
0.014673 0.024647 0.854000
0.023433 -0.000660 0.853000
-0.016724 -0.016593 0.842000
0.034245 0.009599 0.860000
-0.039298 -0.005510 0.843000
-0.030934 -0.013820 0.842000
-0.023045 -0.003436 0.845000
0.018103 -0.002407 0.850000
-0.035489 0.018448 0.860000
0.024663 -0.007628 0.847000
-0.016076 0.018868 0.863000
0.012608 0.022617 0.857000
0.000260 0.034367 0.851000
0.012972 -0.023672 0.835000
-0.018347 0.040416 0.853000
-0.021583 0.011316 0.856000
0.035439 -0.025137 0.838000
-0.035468 0.007047 0.851000
-0.016689 0.012755 0.858000
0.007368 0.016382 0.863000
0.031337 -0.019296 0.839000
0.023570 -0.028072 0.833000
-0.030285 0.011277 0.853000
-0.024378 -0.005857 0.843000
0.027167 -0.003802 0.849000
0.016230 0.013524 0.862000
-0.007686 -0.014462 0.839000
-0.000443 0.010964 0.856000
-0.040040 -0.010380 0.844000
-0.045976 0.007748 0.851000
0.037433 0.017575 0.852000
-0.023208 0.004595 0.851000
0.028162 0.005693 0.858000
0.011262 0.016717 0.862000
0.021427 0.004980 0.857000
-0.038925 0.005290 0.850000
0.052759 -0.004538 0.856000
-0.018983 0.024280 0.866000
-0.005721 0.006728 0.855000
-0.013227 -0.013442 0.840000
-0.032087 -0.016652 0.845000
0.040075 0.000747 0.856000
-0.020386 0.028880 0.865000
0.006281 0.023050 0.860000
-0.006059 0.034448 0.853000
-0.004715 0.018534 0.864000
-0.025637 0.034102 0.862000
-0.028211 0.013750 0.854000
-0.012364 0.038616 0.852000
0.031946 -0.006226 0.846000
-0.006327 -0.005503 0.842000
-0.035134 -0.012796 0.843000
0.024458 0.023186 0.852000
-0.031139 0.031445 0.867000
-0.028964 0.025349 0.866000
0.012667 0.018824 0.861000
-0.015757 0.022828 0.865000
0.024022 -0.005898 0.849000
-0.009078 -0.015516 0.840000
0.008890 -0.013081 0.839000
0.007957 0.032228 0.850000
0.001665 0.031990 0.853000
-0.044536 0.014857 0.857000
0.022331 -0.018928 0.838000
0.053236 -0.005961 0.858000
0.025091 -0.019273 0.838000
0.023626 0.008891 0.860000
-0.010474 -0.005151 0.841000
-0.022140 0.021735 0.864000
0.020508 -0.028793 0.834000
-0.030068 0.026449 0.867000
-0.009648 0.029421 0.860000
0.047785 -0.010790 0.849000
0.027850 -0.017894 0.838000
-0.017181 0.028168 0.865000
0.016752 -0.028140 0.835000
-0.012912 -0.004810 0.842000
0.027472 -0.021662 0.837000
0.023488 0.002857 0.855000
-0.020903 0.012035 0.857000
0.016752 -0.022985 0.835000
-0.025102 -0.003779 0.844000
0.015232 -0.004137 0.846000
-0.025811 0.015192 0.856000
0.043191 -0.009382 0.848000
0.045339 -0.009043 0.849000
0.008170 -0.020604 0.836000
0.024716 -0.021662 0.837000
0.016546 0.018448 0.860000
0.035819 0.023050 0.847000
-0.003648 0.022446 0.864000
-0.016685 -0.014133 0.840000
0.021227 0.028695 0.849000
0.011941 -0.023672 0.835000
0.008180 -0.025451 0.837000
-0.001150 0.027587 0.858000
-0.022548 0.028557 0.866000
0.000974 0.016737 0.863000
0.028949 0.022782 0.850000
0.004735 -0.020973 0.837000
0.016315 -0.001703 0.848000
-0.035397 -0.008266 0.841000
-0.043617 -0.002744 0.846000
0.010186 0.012091 0.861000
-0.046216 0.018846 0.862000
-0.009874 0.004235 0.849000
0.014003 0.006384 0.856000
0.044054 0.005339 0.858000
0.009049 0.007775 0.854000
-0.010807 -0.015516 0.840000
0.004746 -0.011354 0.839000
0.030562 0.016953 0.856000
0.008199 -0.012735 0.839000
0.010565 0.015671 0.863000
0.014052 0.020195 0.859000
0.030951 0.003570 0.857000
-0.041422 -0.010466 0.851000
-0.029340 0.000738 0.846000
-0.009424 -0.007910 0.840000
0.001981 -0.012030 0.838000
-0.020362 0.021379 0.864000
-0.043626 0.010223 0.853000
0.000948 -0.008256 0.840000
0.007509 -0.013771 0.839000
-0.030425 0.027520 0.867000
0.043694 0.015453 0.851000
0.032475 0.007476 0.860000
-0.044820 -0.005549 0.849000
0.029955 -0.018951 0.839000
-0.034307 0.013799 0.857000
0.024192 0.002506 0.855000
0.028094 -0.024359 0.835000
0.020852 -0.029136 0.834000
-0.029471 0.040748 0.860000
0.023999 -0.022324 0.836000
-0.030711 0.024608 0.865000
-0.005701 0.007757 0.852000
-0.018207 0.019223 0.863000
-0.007472 0.006018 0.854000
0.002026 0.027202 0.857000
0.018449 -0.027763 0.834000
0.013347 -0.028207 0.837000
0.040256 -0.015261 0.845000
-0.017003 0.036683 0.856000
-0.022881 -0.011699 0.839000
-0.001153 0.013139 0.860000
0.033537 0.009599 0.860000
-0.002933 0.023130 0.863000
-0.021500 -0.012735 0.839000
0.023461 0.001448 0.854000
-0.019628 0.020289 0.863000
-0.021230 -0.007236 0.842000
0.022974 -0.004850 0.849000
0.031531 -0.028483 0.835000
-0.019696 0.024280 0.866000
0.006997 0.012446 0.861000
-0.024638 0.009159 0.852000
-0.044381 0.012344 0.854000
0.042443 -0.016691 0.847000
0.028747 -0.029479 0.834000
0.007509 -0.013081 0.839000
-0.029471 0.017387 0.860000
-0.026133 0.014822 0.855000
0.035439 -0.023412 0.838000
-0.001813 -0.017204 0.838000
0.046119 0.001101 0.857000
-0.022643 -0.018347 0.843000
0.028574 -0.017915 0.839000
-0.019891 0.014538 0.859000
0.000962 0.032654 0.852000
-0.032050 -0.003779 0.844000
0.011321 -0.013096 0.840000
-0.002215 0.013493 0.860000
0.032566 -0.012811 0.844000
0.020508 -0.026733 0.834000
0.012505 0.002141 0.850000
-0.018983 0.002141 0.850000
0.035973 0.005699 0.859000
-0.034147 0.009170 0.853000
0.020131 -0.007628 0.847000
-0.008041 -0.009639 0.840000
0.021693 -0.016899 0.840000
-0.018519 0.036188 0.861000
0.009144 0.015671 0.863000
0.038654 0.020983 0.848000
0.016880 0.008528 0.859000
-0.025012 -0.007920 0.841000
0.041084 -0.000662 0.855000
0.046011 0.010951 0.855000
0.003453 0.013509 0.861000
0.004137 0.027170 0.856000
-0.015401 0.022472 0.865000
-0.022235 0.009181 0.854000
0.035184 0.020148 0.857000
0.019153 -0.003456 0.850000
-0.014836 0.007415 0.853000
0.012284 0.021609 0.859000
0.031231 0.001098 0.855000
-0.021181 0.040815 0.854000
0.012682 0.014943 0.862000
-0.033320 -0.010343 0.841000
0.014104 -0.014150 0.841000
0.013659 -0.022641 0.835000
0.037828 0.016192 0.853000
0.017239 -0.013127 0.842000
-0.013952 -0.005157 0.842000
0.016230 0.016008 0.862000
0.034425 0.023050 0.847000
-0.022131 0.003540 0.850000
0.015034 -0.022297 0.835000
-0.031301 -0.024154 0.852000
-0.015539 0.006713 0.853000
0.014937 0.000741 0.849000
-0.024105 0.038181 0.858000
0.021848 -0.009011 0.846000
0.023001 -0.004506 0.850000
-0.029859 -0.013112 0.841000
-0.035551 -0.022076 0.853000
0.017941 0.008528 0.859000
-0.008280 0.021760 0.865000
0.035219 -0.017612 0.841000
0.036172 -0.027239 0.839000
-0.004308 0.010587 0.854000
0.024314 -0.031920 0.835000
-0.009424 -0.009639 0.840000
-0.000445 0.013863 0.861000
-0.015484 0.004590 0.850000
0.042091 0.013399 0.854000
-0.000794 0.031010 0.855000
0.040286 -0.003118 0.853000
0.014707 0.006032 0.856000
0.026944 0.020405 0.853000
0.001291 -0.017549 0.838000
-0.016689 0.012402 0.858000
-0.000434 -0.014117 0.839000
0.012719 -0.012420 0.841000
-0.022191 0.027488 0.866000
0.026471 -0.018239 0.838000
0.008738 0.023349 0.858000
0.012593 0.024000 0.856000
0.006588 0.028513 0.854000
-0.018413 -0.011368 0.840000
-0.026523 -0.019434 0.845000
0.042543 -0.009043 0.849000
-0.011827 0.026358 0.864000
0.002038 0.014943 0.862000
-0.018089 -0.015189 0.841000
-0.034255 -0.017040 0.847000
0.025071 0.025551 0.849000
0.042443 -0.011811 0.847000
0.032371 0.023775 0.848000
0.026687 -0.025360 0.834000
-0.016709 0.014538 0.859000
0.032829 0.009245 0.860000
-0.028496 0.011965 0.852000
-0.024436 -0.003784 0.845000
0.013376 0.012091 0.861000
-0.028474 -0.014496 0.841000
0.020852 -0.025360 0.834000
-0.022522 0.029948 0.865000
0.029884 -0.022695 0.837000
0.050823 -0.012332 0.859000
0.005586 0.014943 0.862000
0.020877 -0.030545 0.835000
-0.004994 0.036118 0.851000
0.020528 0.029045 0.849000
-0.027088 0.033786 0.863000
0.022758 0.001800 0.854000
-0.006832 0.016363 0.862000
0.032333 -0.005536 0.847000
-0.010128 -0.017265 0.841000
-0.003551 -0.021419 0.841000
0.024136 0.022160 0.853000
-0.028864 0.035207 0.863000
0.034749 -0.023067 0.838000
0.017878 0.022238 0.856000
0.039491 -0.004862 0.851000
-0.031411 0.012007 0.855000
0.002023 0.028580 0.856000
0.020165 -0.027076 0.834000
0.010923 -0.023012 0.836000
-0.026931 0.015934 0.858000
0.014422 0.009953 0.860000
-0.017806 -0.004474 0.844000
0.006142 -0.025919 0.841000
-0.001141 0.034367 0.851000
0.042443 -0.011462 0.847000
0.024780 -0.002410 0.851000
-0.045465 -0.004844 0.848000
0.052298 -0.009160 0.860000
0.033182 -0.016593 0.842000
0.013391 0.015298 0.862000
-0.001865 0.016008 0.862000
-0.037000 0.000042 0.846000
-0.005621 -0.007219 0.840000
0.028472 -0.023012 0.836000
0.021502 0.009953 0.860000
-0.029340 0.003872 0.846000
-0.012112 0.032922 0.859000
0.037989 -0.021765 0.841000
-0.010573 0.004934 0.849000
0.034398 0.000394 0.855000
-0.014267 0.015635 0.861000
-0.008930 0.013124 0.859000
0.000617 0.024820 0.860000
-0.028440 -0.010330 0.840000
0.044054 0.004280 0.858000
0.005913 0.025115 0.858000
-0.031705 0.020999 0.863000
-0.018207 0.019934 0.863000
-0.018720 0.039761 0.854000
0.026471 -0.033070 0.838000
-0.008051 -0.006535 0.841000
-0.013243 -0.008612 0.841000
0.020721 0.005333 0.857000
-0.002506 -0.014807 0.839000
0.017588 0.008881 0.859000
-0.007472 0.034488 0.854000
0.047547 -0.006263 0.851000
-0.020829 0.007775 0.854000
-0.041920 0.011290 0.854000
0.042794 -0.002418 0.854000
0.019502 -0.030202 0.835000
0.033733 0.002156 0.856000
0.029575 -0.021343 0.838000
-0.005959 -0.016879 0.839000
0.017506 0.004265 0.855000
-0.001157 0.023130 0.863000
0.052407 -0.006299 0.856000
-0.004698 0.026975 0.861000
-0.003197 -0.012045 0.839000
0.020504 -0.006590 0.848000
-0.003197 -0.014462 0.839000
-0.006094 0.012402 0.858000
0.019085 -0.006930 0.847000
-0.012321 0.005283 0.849000
-0.002566 0.027619 0.859000
0.005170 0.006003 0.852000
-0.013432 0.008468 0.853000
0.044551 -0.001715 0.854000
0.017816 0.024618 0.853000
-0.033132 0.010587 0.854000
-0.039298 -0.008632 0.843000
-0.012169 0.027748 0.863000
-0.035509 -0.021699 0.852000
0.014221 -0.001005 0.848000
-0.037702 0.010938 0.854000
0.024362 0.013509 0.861000
0.044760 0.003221 0.858000
0.046902 -0.004517 0.852000
0.012916 0.006018 0.854000
0.000256 -0.017204 0.838000
0.011210 0.022996 0.858000
-0.016020 0.014909 0.860000
-0.023617 0.024280 0.866000
0.017523 -0.017570 0.839000
0.004819 0.006705 0.852000
0.016743 0.002146 0.852000
-0.019105 -0.015516 0.840000
-0.033518 0.000738 0.846000
0.038836 -0.004517 0.852000
-0.009327 0.018513 0.863000
-0.042274 0.002831 0.847000
0.004166 0.014234 0.862000
-0.031280 -0.013820 0.842000
-0.026163 0.015192 0.856000
0.019822 -0.027076 0.834000
-0.009840 -0.019457 0.846000
-0.012183 0.026713 0.864000
0.024079 -0.002410 0.851000
0.012299 -0.026797 0.836000
-0.026775 -0.016939 0.842000
0.028574 -0.014807 0.839000
0.038094 0.008528 0.859000
0.029716 -0.011395 0.842000
-0.024898 0.017407 0.861000
0.015025 0.024647 0.854000
-0.038484 0.002485 0.848000
-0.031392 -0.016652 0.845000
-0.034215 0.000390 0.846000
-0.034440 -0.012796 0.843000
-0.003269 0.029000 0.858000
-0.002225 0.019245 0.864000
-0.008951 0.028747 0.861000
0.014101 0.015653 0.862000
-0.019628 0.019223 0.863000
0.012719 -0.012766 0.841000
-0.028046 0.007729 0.849000
-0.041507 0.019156 0.860000
0.011132 0.004951 0.852000
-0.003610 0.031713 0.855000
-0.015757 0.027100 0.865000
0.011267 -0.020604 0.836000
0.033978 -0.026453 0.836000
-0.028442 0.037252 0.861000
-0.006052 0.036862 0.852000
-0.022881 -0.011354 0.839000
-0.047908 0.000391 0.848000
0.013018 -0.018584 0.838000
0.030098 -0.009673 0.843000
-0.028329 -0.021223 0.847000
-0.023426 0.036458 0.859000
0.051230 -0.006285 0.854000
0.032218 -0.028827 0.835000
-0.015009 -0.002734 0.843000
-0.001861 0.013493 0.860000
0.017899 0.020853 0.857000
-0.025786 0.028947 0.867000
-0.021734 0.018846 0.862000
-0.010212 0.003183 0.848000
0.022196 -0.009708 0.846000
0.013021 0.011382 0.861000
0.046065 0.009907 0.856000
0.020804 -0.008663 0.846000
-0.023918 0.032403 0.864000
0.006457 -0.018906 0.837000
0.018604 -0.015189 0.841000
0.006619 0.025115 0.858000
-0.016685 -0.013442 0.840000
0.025031 -0.023012 0.836000
-0.026397 -0.016227 0.841000
-0.034707 -0.025916 0.876000
-0.011116 0.020312 0.864000
-0.011663 0.008458 0.852000
0.030156 -0.025047 0.835000
0.009985 -0.027748 0.844000
-0.004715 0.021379 0.864000
-0.007888 0.028392 0.861000
-0.037702 -0.021750 0.854000
-0.036912 -0.020647 0.852000
-0.011858 -0.008958 0.841000
0.023937 -0.009011 0.846000
0.002387 0.012077 0.860000
-0.046677 0.007748 0.851000
0.038094 0.008881 0.859000
0.013006 0.011015 0.860000
0.041000 -0.017716 0.846000
0.007706 0.012446 0.861000
-0.015205 0.008478 0.854000
-0.032667 -0.013127 0.842000
-0.048134 0.008107 0.852000
-0.028055 0.017033 0.860000
0.040256 -0.014913 0.845000
0.037565 -0.000310 0.855000
0.021220 -0.023672 0.835000
-0.018175 -0.003088 0.845000
0.013329 0.008518 0.858000
-0.023656 -0.017979 0.842000
0.018167 0.024969 0.853000
-0.001477 -0.022858 0.843000
-0.028641 0.028590 0.867000
0.037741 0.008881 0.859000
0.028816 -0.023012 0.836000
-0.024666 -0.017265 0.841000
-0.033558 0.003877 0.847000
-0.001470 -0.009282 0.839000
-0.037910 -0.003428 0.843000
-0.045116 0.003881 0.848000
0.030517 -0.006914 0.845000
-0.033093 -0.024182 0.853000
0.039862 0.008528 0.859000
-0.013142 0.010977 0.857000
-0.025931 0.036854 0.860000
0.016566 -0.011755 0.843000
0.016123 -0.018584 0.838000
0.008901 -0.011022 0.840000
0.033379 0.023747 0.847000
0.035783 -0.027206 0.838000
-0.034787 -0.004816 0.843000
-0.001144 0.008819 0.853000
0.000256 -0.014790 0.838000
-0.019821 0.010964 0.856000
-0.035468 0.006347 0.851000
0.010296 -0.008612 0.841000
-0.008982 0.019601 0.864000
-0.042874 0.008458 0.852000
-0.029506 0.036897 0.861000
0.027165 0.009953 0.860000
0.012719 -0.012073 0.841000
-0.010846 -0.002734 0.843000
-0.019401 0.007064 0.853000
-0.029094 -0.022671 0.849000
0.031682 -0.032073 0.839000
-0.028779 0.009138 0.850000
-0.012566 -0.003770 0.842000
-0.032627 0.007039 0.850000
0.020109 0.012091 0.861000
-0.015009 -0.016960 0.843000
0.013708 -0.017894 0.838000
-0.017355 0.037035 0.856000
0.005176 0.030235 0.853000
-0.011759 0.012770 0.859000
0.028404 -0.026390 0.834000
0.026126 -0.015134 0.838000
0.020977 -0.032073 0.839000
-0.045009 -0.001699 0.846000
0.024601 0.004980 0.857000
0.031340 0.014168 0.858000
0.016117 0.022238 0.856000
-0.027315 -0.021946 0.848000
0.012704 -0.015171 0.840000
-0.027701 0.037208 0.860000
-0.024687 0.023924 0.866000
0.046526 -0.022205 0.858000
-0.050945 0.000749 0.858000
0.026242 -0.001011 0.853000
-0.049764 0.009267 0.862000
0.014137 -0.010714 0.843000
-0.040783 -0.009696 0.845000
0.043643 -0.007655 0.850000
0.003433 0.009907 0.856000
-0.006666 -0.006189 0.841000
-0.000089 -0.010318 0.839000
-0.027316 0.016306 0.859000
-0.019937 0.032645 0.861000
0.017586 -0.013127 0.842000
-0.027631 -0.021572 0.847000
-0.030169 -0.010676 0.840000
0.022974 0.026249 0.849000
0.021002 -0.016553 0.840000
0.006802 -0.022695 0.837000
0.012825 0.000042 0.848000
0.010235 -0.024044 0.836000
0.014989 0.026693 0.852000
0.006465 -0.013410 0.838000
0.022944 0.012446 0.861000
0.002033 0.024820 0.860000
0.001322 0.010990 0.858000
-0.036261 -0.013870 0.845000
0.010553 0.014234 0.862000
-0.014151 0.037652 0.854000
0.029187 0.016268 0.857000
0.010406 0.031178 0.850000
-0.011418 0.030129 0.860000
0.035931 0.003927 0.858000
0.020877 -0.005549 0.849000
0.014587 0.001440 0.849000
-0.028542 -0.005510 0.843000
0.029777 -0.028449 0.834000
-0.016412 0.018491 0.862000
-0.030179 0.017033 0.860000
-0.033558 0.004225 0.847000
-0.011985 0.006689 0.850000
-0.046622 0.007039 0.850000
0.047177 0.010624 0.857000
-0.041217 0.011290 0.854000
0.022784 0.003209 0.855000
-0.033318 0.023979 0.868000
0.023673 -0.004850 0.849000
-0.050168 0.009700 0.869000
-0.012760 0.035936 0.855000
0.028919 -0.017915 0.839000
-0.019228 0.017407 0.861000
0.025130 0.023509 0.851000
-0.028711 0.005975 0.848000
-0.007533 0.027329 0.861000
-0.034726 -0.019549 0.850000
-0.037786 0.002834 0.848000
0.004406 -0.008947 0.840000
0.017440 -0.022297 0.835000
0.027258 -0.011035 0.841000
-0.000780 -0.007910 0.840000
-0.007004 -0.017936 0.840000
0.002719 0.031288 0.853000
-0.007525 0.013493 0.860000
-0.019520 -0.006551 0.843000
0.009112 0.010661 0.860000
-0.048257 0.001438 0.848000
-0.028128 -0.007227 0.841000
-0.029653 -0.002393 0.845000
0.000975 0.019601 0.864000
-0.021429 0.030625 0.864000
-0.041527 0.000738 0.846000
0.022406 0.022186 0.854000
-0.028820 -0.007227 0.841000
-0.026485 0.015174 0.855000
-0.037910 -0.011061 0.843000
0.029153 0.017306 0.856000
-0.012509 0.017782 0.862000
0.034691 -0.012826 0.845000
0.023913 -0.028072 0.833000
0.015042 0.005321 0.855000
0.014087 -0.015171 0.840000
0.024547 -0.010714 0.843000
-0.018175 -0.003784 0.845000
0.011944 0.020218 0.860000
0.006604 0.008850 0.856000
0.049707 -0.009777 0.852000
-0.023945 -0.010330 0.840000
0.036473 -0.011797 0.846000
-0.013463 0.035936 0.855000
-0.027701 0.017033 0.860000
0.019273 -0.016553 0.840000
0.028676 -0.010008 0.842000
0.024051 -0.033543 0.850000
0.048948 -0.010115 0.851000
-0.010673 0.033199 0.857000
-0.040927 0.003183 0.848000
0.006565 0.005296 0.851000
-0.013188 0.015263 0.860000
-0.047656 0.012373 0.856000
-0.005350 0.007757 0.852000
-0.025667 0.020999 0.863000
0.035454 0.014822 0.855000
-0.033287 0.015227 0.858000
0.021002 -0.016899 0.840000
-0.026423 0.012330 0.853000
0.036031 -0.003114 0.852000
-0.016825 0.027100 0.865000
-0.021507 0.006362 0.853000
-0.032282 -0.011035 0.841000
0.022537 0.007820 0.859000
0.017137 -0.030274 0.837000
-0.007350 -0.017591 0.840000
0.018648 0.008528 0.859000
0.034814 0.022728 0.848000
-0.034498 -0.023480 0.853000
0.038224 -0.001364 0.854000
0.024573 0.019067 0.856000
0.006581 0.007415 0.853000
0.020745 0.018759 0.858000
0.016704 0.028379 0.850000
0.010247 -0.026485 0.837000
-0.010511 -0.019064 0.844000
-0.029898 -0.024855 0.852000
0.046472 0.008860 0.857000
-0.011943 0.002831 0.847000
0.018475 0.026311 0.851000
0.040333 -0.001715 0.854000
-0.028251 0.024636 0.866000
-0.040040 -0.004474 0.844000
0.015728 0.024998 0.854000
0.011998 -0.028275 0.839000
0.027102 0.015580 0.858000
0.025159 0.022835 0.852000
-0.024715 0.027163 0.867000
-0.025756 0.029983 0.866000
-0.030169 -0.008947 0.840000
0.010949 -0.017549 0.838000
-0.018961 0.028880 0.865000
0.013391 0.015653 0.862000
-0.017477 0.018137 0.862000
0.024401 -0.018239 0.838000
-0.033126 0.022065 0.863000
0.050645 -0.001367 0.856000
0.019400 0.016344 0.861000
-0.047784 0.008458 0.852000
-0.048344 0.013524 0.862000
-0.025429 0.014822 0.855000
0.014036 -0.028207 0.837000
0.002671 -0.015479 0.838000
0.044096 -0.004517 0.852000
-0.009078 -0.013788 0.840000
-0.033249 -0.018456 0.848000
-0.012897 -0.011035 0.841000
-0.023725 0.038489 0.857000
-0.016113 0.027100 0.865000
-0.014610 -0.013788 0.840000
-0.043617 0.000042 0.846000
0.006244 0.027843 0.855000
0.033773 0.013799 0.857000
0.019479 -0.025703 0.834000
0.000947 -0.010318 0.839000
0.039514 -0.020801 0.844000
-0.023645 0.027876 0.867000
0.021882 -0.026046 0.834000
-0.014332 -0.001695 0.844000
0.007723 0.017092 0.863000
-0.030897 -0.008266 0.841000
-0.022935 -0.008612 0.841000
-0.021255 -0.005857 0.843000
0.033420 0.014151 0.857000
0.024136 0.000393 0.853000
-0.045009 -0.001351 0.846000
-0.008165 0.009521 0.853000
0.011262 0.017072 0.862000
-0.037132 0.003536 0.849000
0.019893 -0.020284 0.837000
0.019181 -0.030582 0.836000
0.037740 -0.004511 0.851000
-0.024898 0.017761 0.861000
0.032450 -0.016919 0.841000
-0.026998 -0.023719 0.849000
-0.028923 -0.004127 0.844000
-0.005350 0.007406 0.852000
0.048191 -0.011853 0.850000
-0.025674 -0.009639 0.840000
-0.006817 0.028005 0.860000
-0.036211 -0.020998 0.852000
0.013872 0.000042 0.848000
-0.035551 0.008468 0.853000
-0.013880 0.013831 0.859000
-0.026742 0.010913 0.852000
-0.038098 -0.021776 0.855000
0.008858 -0.021292 0.836000
0.029848 -0.031614 0.836000
0.031225 -0.023700 0.836000
0.011145 0.027075 0.853000
-0.018068 -0.011368 0.840000
0.033030 -0.006930 0.847000
0.020828 -0.007279 0.847000
-0.028395 0.007380 0.849000
0.029544 0.025142 0.847000
0.032489 -0.015553 0.842000
0.015088 -0.029620 0.838000
0.011053 -0.002744 0.846000
-0.021107 0.003895 0.851000
-0.007551 0.017447 0.863000
-0.048314 0.003536 0.849000
-0.017537 0.022472 0.865000
0.021771 -0.012796 0.843000
0.041886 0.009919 0.857000
0.035912 -0.017958 0.841000
0.036647 -0.017286 0.842000
0.004390 -0.018217 0.837000
0.002365 0.006705 0.852000
0.033812 0.004986 0.858000
0.041630 0.007467 0.859000
-0.045116 0.004230 0.848000
-0.025949 0.003187 0.849000
-0.004359 0.021735 0.864000
-0.008826 0.004235 0.849000
0.008922 -0.007929 0.842000
0.027039 -0.007610 0.845000
0.021874 -0.007279 0.847000
0.009070 0.025057 0.856000
-0.006785 0.006384 0.856000
-0.027914 -0.002045 0.845000
0.037170 0.015156 0.854000
-0.036999 -0.022102 0.854000
-0.030427 0.014857 0.857000
-0.024667 0.010926 0.853000
-0.000802 0.022065 0.863000
0.011483 0.004951 0.852000
-0.030456 -0.020550 0.848000
-0.043276 0.019510 0.860000
0.007697 0.011723 0.860000
-0.045136 0.012359 0.855000
-0.015081 0.001785 0.847000
0.003706 -0.012720 0.838000
0.040447 0.018911 0.849000
0.010139 0.008155 0.857000
0.020631 -0.017915 0.839000
0.043993 0.016485 0.850000
0.028988 -0.011727 0.841000
0.030562 0.015896 0.856000
-0.019798 0.038751 0.855000
0.009938 -0.010330 0.840000
0.020877 -0.023672 0.835000
0.030156 -0.024359 0.835000
0.026718 0.004275 0.857000
-0.029374 0.004922 0.847000
