0.011223 -0.006675 0.859000
0.001716 0.017409 0.879000
0.026642 0.027844 0.866000
-0.017841 -0.011547 0.880000
-0.000092 0.011182 0.873000
-0.025004 -0.000689 0.890000
-0.033910 -0.001794 0.893000
0.014422 -0.013762 0.860000
0.035075 0.032365 0.863000
-0.032550 -0.020742 0.886000
-0.012611 -0.026424 0.869000
0.019090 0.009278 0.863000
-0.001870 -0.013470 0.864000
0.037345 0.006339 0.850000
-0.033455 0.010196 0.881000
0.032753 0.021231 0.858000
0.022110 0.031196 0.870000
-0.000093 0.014498 0.878000
-0.026565 -0.023163 0.881000
0.033459 0.021584 0.858000
0.023900 0.033344 0.870000
0.013842 0.013618 0.868000
0.005304 -0.034850 0.874000
-0.003698 0.029969 0.876000
0.010933 0.047338 0.864000
-0.005855 0.002564 0.875000
-0.004430 -0.041875 0.878000
0.010210 0.005726 0.863000
0.028847 0.036125 0.868000
0.011302 0.009655 0.865000
-0.024864 0.010607 0.885000
0.008492 0.013634 0.869000
-0.019137 0.025554 0.873000
-0.008836 0.014249 0.885000
-0.032942 0.014843 0.877000
-0.019697 0.016742 0.882000
-0.008043 0.006548 0.878000
-0.005099 0.035094 0.869000
-0.007229 0.037154 0.867000
-0.018080 -0.039526 0.874000
-0.018545 -0.014428 0.879000
-0.027600 0.001878 0.891000
0.036200 0.039927 0.873000
0.035951 0.036441 0.867000
-0.002629 0.026483 0.880000
0.039524 0.036417 0.875000
-0.030484 0.014153 0.879000
-0.020668 0.020257 0.877000
-0.032771 -0.006931 0.892000
0.020053 0.041411 0.874000
0.033694 0.015526 0.855000
-0.017281 -0.035765 0.870000
-0.010847 -0.019674 0.871000
-0.031092 0.006608 0.886000
0.024954 0.007450 0.857000
0.017156 0.030225 0.873000
-0.012611 -0.027497 0.869000
-0.020934 -0.023312 0.873000
-0.009055 -0.037598 0.871000
0.019112 0.018534 0.864000
-0.008025 0.027084 0.876000
-0.001158 -0.019160 0.864000
-0.029265 0.018770 0.875000
-0.025634 0.021267 0.874000
0.030562 0.013078 0.856000
0.020345 -0.002424 0.856000
0.007831 0.035696 0.875000
0.004191 0.041436 0.867000
-0.003719 0.024338 0.881000
0.015306 0.020095 0.870000
0.033685 0.042801 0.873000
0.005670 0.016249 0.875000
0.001687 -0.022005 0.864000
0.031596 0.033508 0.865000
0.009466 -0.003143 0.860000
-0.012324 -0.008950 0.874000
0.006030 0.035336 0.875000
0.010958 0.046022 0.866000
0.018422 0.021404 0.865000
-0.033064 -0.012777 0.890000
-0.036273 0.011620 0.879000
0.035764 0.015156 0.854000
-0.001160 0.041697 0.865000
0.006635 -0.007391 0.860000
-0.000453 -0.038491 0.875000
0.026334 0.013430 0.856000
0.000620 -0.015604 0.864000
-0.011991 -0.001759 0.876000
0.010639 0.042963 0.869000
0.015592 0.011449 0.866000
0.006346 0.040817 0.869000
-0.018692 0.000408 0.886000
-0.004802 0.025035 0.880000
0.002042 -0.022716 0.864000
-0.005795 -0.013502 0.866000
-0.028871 -0.018169 0.885000
-0.039512 -0.005850 0.895000
-0.046509 0.004757 0.881000
-0.002635 0.016742 0.882000
0.032084 0.021609 0.859000
0.001334 -0.029541 0.866000
0.030032 0.022368 0.861000
0.017057 0.020049 0.868000
0.005579 -0.005982 0.861000
0.027387 0.031445 0.867000
-0.020739 0.017429 0.880000
0.008541 0.018749 0.874000
-0.031669 -0.001057 0.892000
0.042492 0.009192 0.855000
0.000264 -0.015248 0.864000
0.011930 -0.001725 0.859000
-0.023275 -0.012271 0.880000
-0.022806 0.002974 0.890000
-0.007346 0.009109 0.881000
0.016004 0.046182 0.869000
0.005298 0.015134 0.873000
-0.022730 0.023039 0.873000
-0.025390 -0.027421 0.878000
0.025600 0.003561 0.855000
0.000268 0.006901 0.877000
0.035759 0.039477 0.871000
-0.028571 -0.012734 0.887000
-0.008328 0.033344 0.870000
-0.035341 -0.012438 0.892000
-0.004068 0.027146 0.878000
-0.028238 -0.010190 0.888000
0.004605 0.031121 0.878000
-0.015958 -0.016181 0.876000
-0.013826 -0.002848 0.878000
0.032664 0.034220 0.865000
0.022891 0.007820 0.859000
-0.016049 0.018899 0.881000
-0.001533 -0.038851 0.875000
-0.044470 -0.003623 0.891000
0.007706 -0.011297 0.861000
-0.016085 0.017125 0.883000
-0.007656 0.028854 0.875000
0.045856 0.029709 0.879000
-0.016603 -0.024721 0.872000
-0.019787 0.000044 0.886000
-0.007961 -0.016410 0.869000
0.038760 0.037095 0.874000
-0.036968 -0.028432 0.887000
-0.026774 -0.033487 0.876000
0.007813 0.015853 0.873000
0.026043 0.015934 0.858000
-0.020493 0.013521 0.885000
0.000266 -0.034730 0.871000
-0.018224 -0.010109 0.881000
0.015484 0.000750 0.860000
-0.034047 -0.021861 0.887000
0.011577 -0.005261 0.859000
-0.033317 -0.019670 0.887000
-0.019079 0.002964 0.887000
-0.010798 -0.034928 0.867000
-0.011193 -0.021442 0.870000
-0.009918 0.018236 0.884000
0.027260 0.023130 0.863000
-0.025086 -0.014082 0.880000
-0.009096 0.028134 0.875000
-0.028871 -0.017805 0.885000
-0.027558 -0.031757 0.878000
0.040940 0.006705 0.852000
-0.025245 0.022320 0.873000
-0.032878 -0.023268 0.885000
0.006781 0.029348 0.879000
-0.036075 -0.000690 0.892000
-0.030935 0.000044 0.892000
0.020842 0.014234 0.862000
-0.018266 -0.005771 0.883000
0.020725 0.032344 0.872000
-0.016981 0.025913 0.873000
-0.037911 -0.022718 0.892000
0.004253 0.025397 0.880000
0.011604 0.002877 0.861000
0.003109 -0.021649 0.864000
-0.036686 0.004069 0.889000
0.013006 -0.014116 0.860000
0.027391 0.013430 0.856000
0.021527 0.016698 0.861000
-0.024500 0.010971 0.885000
0.001685 -0.008127 0.863000
-0.029433 -0.004723 0.891000
0.015113 -0.002079 0.859000
0.003816 -0.019138 0.863000
0.005231 -0.004215 0.862000
-0.028333 -0.001423 0.891000
0.008219 0.031121 0.878000
-0.014139 0.025613 0.875000
-0.032001 0.001511 0.891000
0.026656 -0.006292 0.855000
-0.015149 -0.038674 0.871000
0.024203 0.028980 0.868000
0.000267 0.012633 0.874000
0.020133 0.017782 0.862000
-0.016736 0.020665 0.879000
-0.007296 -0.040292 0.875000
0.013127 0.045414 0.868000
0.002045 -0.027015 0.865000
0.008532 0.016931 0.873000
-0.002940 -0.030219 0.865000
0.005579 -0.009526 0.861000
-0.030881 -0.031829 0.880000
0.039884 0.035696 0.875000
-0.006673 -0.042718 0.888000
-0.001521 -0.033182 0.868000
-0.010465 -0.022490 0.869000
-0.007726 0.012400 0.883000
-0.004455 0.016761 0.883000
0.010234 0.007875 0.865000
-0.008071 0.008383 0.881000
-0.004818 0.020759 0.883000
-0.043921 0.007287 0.880000
-0.033894 -0.031211 0.883000
-0.018460 0.023452 0.875000
0.029718 -0.002062 0.852000
0.014742 -0.005961 0.858000
-0.021751 0.019896 0.877000
-0.026499 -0.000689 0.891000
-0.006158 0.037154 0.867000
0.001685 -0.010258 0.863000
0.007479 0.034656 0.876000
-0.001174 0.030329 0.876000
-0.012338 -0.004999 0.875000
0.028100 0.033943 0.867000
-0.023043 0.012064 0.885000
-0.027538 0.005532 0.889000
0.009477 -0.000666 0.861000
0.024220 0.009907 0.856000
0.015376 0.029181 0.874000
0.007505 0.026815 0.879000
-0.008098 0.016780 0.884000
-0.002225 -0.022005 0.864000
-0.002970 0.007597 0.874000
0.023708 0.022775 0.863000
0.011671 0.046379 0.866000
0.038745 0.007389 0.850000
-0.032403 -0.028635 0.882000
-0.010822 -0.024278 0.869000
-0.015115 -0.035724 0.869000
0.033576 0.027329 0.861000
-0.014025 -0.032824 0.868000
0.033029 0.017306 0.856000
0.029460 0.032084 0.865000
0.008116 0.043221 0.867000
-0.002251 0.009036 0.874000
0.029368 -0.001711 0.852000
0.003816 0.046218 0.863000
0.007496 0.024616 0.878000
-0.030935 -0.001792 0.892000
0.034679 0.031264 0.862000
-0.029365 -0.033203 0.878000
-0.007924 -0.031287 0.865000
0.025275 0.031838 0.868000
-0.028270 0.005532 0.889000
-0.002994 0.024701 0.881000
-0.001514 -0.015604 0.864000
0.004887 -0.020583 0.864000
0.003891 0.023224 0.880000
0.026642 0.028201 0.866000
-0.015167 0.028037 0.872000
0.013969 0.032132 0.876000
-0.028971 -0.035330 0.877000
-0.000453 0.031050 0.876000
0.039565 0.032196 0.868000
-0.022138 -0.014773 0.878000
0.031276 0.034973 0.866000
-0.029004 -0.033925 0.878000
-0.037052 -0.030325 0.889000
0.031822 -0.001361 0.852000
0.019686 -0.000311 0.858000
-0.006935 0.028854 0.875000
-0.013163 0.019283 0.882000
0.034325 0.030554 0.862000
-0.015455 -0.033896 0.868000
-0.046513 -0.002149 0.888000
-0.013449 -0.002122 0.877000
0.004521 -0.005989 0.862000
-0.039144 -0.007691 0.895000
0.002040 -0.013455 0.863000
0.009499 0.003239 0.863000
-0.041077 -0.000322 0.889000
-0.005868 0.027115 0.877000
0.016192 0.000750 0.860000
0.028733 0.006369 0.854000
0.009112 -0.012346 0.860000
0.001696 -0.032862 0.869000
-0.027841 -0.011639 0.887000
-0.036968 -0.027702 0.887000
-0.016318 0.023839 0.876000
-0.000092 0.038983 0.868000
0.014297 0.039613 0.874000
0.029823 0.009544 0.855000
-0.032661 -0.014592 0.889000
0.025600 -0.006292 0.855000
0.029893 0.014857 0.857000
0.036157 0.017637 0.855000
-0.025708 0.006630 0.889000
-0.022860 -0.015495 0.878000
0.023158 0.030087 0.869000
-0.012436 0.019283 0.882000
0.013698 -0.011271 0.859000
0.005683 0.020257 0.877000
0.030420 -0.000309 0.852000
-0.003656 -0.019204 0.866000
-0.006523 -0.019249 0.868000
-0.037302 -0.006218 0.895000
-0.008098 0.018599 0.884000
-0.027445 -0.011625 0.886000
-0.019474 -0.037641 0.872000
0.029678 0.023077 0.861000
-0.035548 -0.022251 0.888000
0.040947 0.028947 0.867000
0.033930 0.025557 0.861000
-0.001880 0.036525 0.869000
0.004176 -0.020583 0.864000
-0.038400 0.011607 0.878000
0.032121 0.023404 0.860000
-0.005445 -0.012090 0.867000
0.016880 -0.012685 0.859000
-0.009086 0.029181 0.874000
0.026687 0.006032 0.856000
-0.018397 -0.038359 0.872000
-0.007933 -0.025264 0.866000
-0.010537 0.027053 0.875000
0.002801 0.028624 0.879000
-0.033355 0.004430 0.888000
-0.011950 -0.016126 0.873000
-0.015063 0.009536 0.887000
-0.036156 -0.008419 0.894000
0.003116 -0.024907 0.866000
-0.038515 -0.026301 0.889000
-0.033392 0.003337 0.889000
-0.037260 -0.003635 0.894000
-0.014187 -0.005739 0.878000
-0.013810 -0.005732 0.877000
0.001710 -0.038896 0.876000
0.034009 0.031655 0.863000
0.015875 0.005010 0.862000
-0.004003 -0.029117 0.864000
-0.019541 0.022732 0.875000
-0.016225 -0.028277 0.871000
-0.031314 0.010571 0.882000
-0.004440 0.010909 0.880000
-0.003681 0.033780 0.872000
-0.009862 0.023921 0.879000
-0.019268 -0.014066 0.879000
-0.044103 -0.003990 0.891000
0.009466 -0.004205 0.860000
0.018275 0.038938 0.875000
0.008541 0.017670 0.874000
0.016399 0.024062 0.871000
-0.021851 0.016361 0.881000
-0.016012 -0.010810 0.879000
0.021123 0.004639 0.859000
0.015664 0.044086 0.870000
-0.011309 0.023559 0.879000
-0.016717 -0.013689 0.878000
-0.027228 -0.028175 0.879000
-0.012465 0.017144 0.884000
0.026242 -0.001362 0.853000
-0.004003 -0.030184 0.864000
0.028847 0.036840 0.868000
0.013037 0.004655 0.862000
-0.016030 -0.009011 0.880000
-0.006515 0.037868 0.867000
-0.020192 -0.036924 0.872000
0.026624 0.001800 0.854000
0.036732 0.013017 0.852000
-0.000810 0.007580 0.872000
-0.012939 -0.032430 0.867000
-0.014383 -0.036040 0.868000
0.038760 0.036735 0.874000
0.017254 0.001458 0.860000
0.035389 0.026651 0.862000
-0.023945 -0.016218 0.878000
0.006704 0.012919 0.869000
-0.027653 0.013822 0.881000
0.011779 0.023065 0.874000
0.000995 0.025788 0.881000
-0.001535 -0.039977 0.876000
-0.005082 -0.032036 0.866000
-0.020551 -0.024362 0.872000
-0.036156 -0.003635 0.894000
-0.036593 0.013775 0.878000
-0.033505 0.000411 0.892000
0.022210 0.008891 0.860000
0.001718 0.019964 0.880000
-0.034374 -0.023659 0.886000
-0.001158 -0.016671 0.864000
0.003501 -0.035888 0.873000
0.015130 -0.013762 0.860000
0.001696 -0.032505 0.869000
0.010870 -0.003847 0.859000
0.007351 -0.004564 0.861000
-0.028313 -0.030346 0.879000
-0.020585 0.007728 0.889000
-0.000803 -0.017738 0.864000
0.023516 0.002508 0.856000
0.024860 0.026419 0.866000
-0.007726 0.012037 0.883000
-0.000447 -0.028406 0.864000
0.011644 -0.018093 0.864000
0.009466 -0.008807 0.860000
-0.016942 -0.028636 0.871000
-0.019831 0.008085 0.888000
-0.005070 -0.028761 0.864000
0.029391 0.026682 0.863000
0.008911 0.019851 0.875000
-0.018756 -0.037641 0.872000
0.018422 0.013927 0.865000
0.019288 -0.007709 0.856000
-0.045051 -0.001053 0.888000
-0.024638 0.000777 0.890000
-0.024610 0.006264 0.889000
-0.009013 -0.034214 0.867000
-0.015236 -0.014739 0.876000
-0.000818 0.024338 0.881000
0.025277 0.009202 0.856000
-0.010910 -0.001038 0.876000
0.010895 -0.015550 0.861000
0.036266 0.034973 0.866000
0.017555 0.034616 0.875000
-0.018735 0.007719 0.888000
-0.014615 0.018920 0.882000
-0.022163 -0.014066 0.879000
0.013937 0.027022 0.874000
0.023543 -0.008776 0.857000
0.006398 0.018431 0.876000
-0.027920 -0.040069 0.878000
-0.012380 0.023532 0.878000
0.031413 0.023758 0.860000
-0.042971 -0.005869 0.898000
-0.005788 -0.030931 0.865000
0.001685 -0.018783 0.863000
0.010305 0.015099 0.871000
-0.026774 0.019152 0.876000
0.008219 0.027146 0.878000
-0.004780 0.002928 0.876000
0.010269 0.012189 0.868000
0.010210 0.004660 0.863000
-0.006896 -0.008193 0.870000
-0.002599 -0.035407 0.870000
-0.000091 -0.016671 0.864000
-0.014416 0.030121 0.870000
-0.012060 0.021075 0.881000
-0.031669 0.001145 0.892000
0.014035 -0.009492 0.858000
-0.010119 -0.020367 0.870000
-0.020215 0.024476 0.873000
-0.009392 -0.022132 0.869000
-0.030692 0.007693 0.885000
0.035785 0.032365 0.863000
0.043946 0.031086 0.877000
-0.017320 -0.025798 0.872000
-0.000092 0.033497 0.874000
-0.023556 -0.019087 0.877000
-0.025361 -0.029555 0.877000
0.036595 0.019795 0.857000
0.024164 -0.003473 0.854000
0.022864 0.005339 0.858000
0.034559 0.021962 0.859000
-0.000093 0.025426 0.881000
-0.001893 -0.038851 0.875000
0.010198 0.002881 0.862000
-0.033758 0.004435 0.889000
0.025032 0.038804 0.872000
-0.045473 0.006941 0.882000
0.006044 0.020979 0.877000
0.012873 0.026333 0.875000
0.033810 0.037154 0.867000
-0.010935 0.003296 0.878000
-0.016140 0.004420 0.886000
0.039841 0.005996 0.851000
-0.000093 0.028262 0.879000
-0.014025 -0.035325 0.868000
-0.020881 -0.001415 0.886000
-0.004379 -0.034253 0.868000
0.035512 0.034576 0.865000
0.000991 -0.040791 0.878000
0.030104 -0.002415 0.853000
0.011341 0.044342 0.868000
-0.008098 0.013506 0.884000
-0.021537 0.014217 0.883000
0.000632 0.025063 0.881000
0.016546 0.001104 0.860000
-0.025751 -0.041153 0.878000
0.034994 0.025557 0.861000
0.013714 0.001458 0.860000
0.016305 0.012518 0.866000
0.005231 -0.012375 0.862000
-0.038905 -0.009565 0.898000
0.006002 0.014024 0.871000
0.029368 0.001094 0.852000
-0.009200 0.013521 0.885000
-0.025285 -0.007623 0.887000
0.036099 0.024877 0.862000
0.034953 0.023404 0.860000
-0.009403 -0.010699 0.870000
0.036808 0.026297 0.862000
-0.039115 0.003326 0.886000
-0.015885 -0.023644 0.872000
0.012284 -0.009150 0.859000
0.025602 0.030017 0.867000
-0.027841 0.008075 0.887000
-0.010860 -0.014313 0.872000
0.035454 0.016934 0.855000
0.002080 0.019964 0.880000
-0.003669 0.036525 0.869000
-0.000447 -0.011324 0.863000
0.016133 0.036458 0.876000
0.039785 0.026388 0.865000
-0.032808 -0.001059 0.893000
-0.010142 -0.006776 0.872000
0.001331 -0.017026 0.864000
0.018952 0.042082 0.873000
0.033497 0.002841 0.850000
0.027679 0.002854 0.854000
0.032437 0.022670 0.859000
-0.032729 -0.031866 0.881000
-0.026410 0.007354 0.888000
-0.017539 -0.003954 0.883000
-0.009749 -0.036439 0.869000
-0.030157 -0.039073 0.880000
0.007437 0.014741 0.871000
-0.029998 -0.016366 0.886000
0.014691 0.036819 0.876000
-0.013936 0.016435 0.885000
0.033536 -0.000658 0.851000
-0.007237 -0.016034 0.868000
-0.022415 0.007728 0.889000
0.007119 0.034656 0.876000
-0.046925 0.005852 0.882000
0.031934 0.012711 0.855000
-0.005070 -0.029828 0.864000
0.012667 0.003232 0.861000
-0.009034 -0.012833 0.869000
0.018572 0.030191 0.872000
-0.036197 -0.025847 0.886000
-0.020174 0.001869 0.887000
0.007697 -0.008453 0.860000
-0.015885 -0.022926 0.872000
-0.031893 0.007354 0.888000
-0.030986 -0.025396 0.883000
-0.004725 -0.032392 0.866000
-0.020934 -0.022593 0.873000
0.014052 -0.005968 0.859000
0.004553 0.040770 0.868000
0.026581 0.024224 0.864000
-0.035013 -0.009880 0.893000
-0.034316 -0.005107 0.894000
-0.025693 0.019513 0.876000
0.038090 0.010199 0.851000
0.001716 0.018856 0.879000
0.002068 -0.037411 0.875000
-0.018735 0.005526 0.888000
-0.011868 -0.034928 0.867000
-0.005855 0.005085 0.875000
-0.024163 0.009890 0.886000
0.025248 0.002154 0.855000
0.009820 -0.014116 0.860000
0.004253 0.027570 0.880000
0.013516 0.016873 0.870000
0.013112 0.011819 0.867000
-0.021586 -0.006513 0.885000
-0.023744 0.012414 0.884000
0.014691 0.031050 0.876000
0.007732 -0.019516 0.864000
0.039187 0.001445 0.852000
0.027355 0.029983 0.866000
0.017515 0.030944 0.873000
0.021502 0.014909 0.860000
-0.001906 0.017086 0.881000
-0.032915 -0.022201 0.886000
-0.009392 -0.021059 0.869000
0.009144 0.003239 0.863000
-0.005088 -0.020297 0.867000
0.032457 0.040817 0.869000
-0.007735 0.014961 0.884000
0.014405 -0.011625 0.859000
0.021957 0.023868 0.864000
0.034872 0.021231 0.858000
-0.011895 0.033663 0.869000
0.007706 -0.003147 0.861000
-0.022049 0.004435 0.889000
-0.007371 0.015689 0.884000
-0.006500 -0.030931 0.865000
-0.015793 0.012456 0.887000
-0.026321 0.010607 0.885000
0.010376 0.026754 0.877000
-0.013810 -0.006815 0.877000
-0.032072 -0.002161 0.893000
-0.006999 0.013127 0.883000
-0.003357 0.015273 0.881000
0.030172 0.033152 0.865000
0.018930 0.043470 0.872000
-0.040572 -0.005475 0.894000
-0.001514 -0.029117 0.864000
-0.001181 0.025788 0.881000
-0.028249 -0.038579 0.877000
0.036099 0.028425 0.862000
-0.028474 -0.017421 0.884000
-0.006158 -0.013874 0.867000
-0.023328 0.014927 0.882000
-0.018328 0.001867 0.886000
0.020062 0.003578 0.859000
0.011617 0.005010 0.862000
0.027327 0.003909 0.854000
0.016546 -0.013408 0.860000
-0.029733 -0.010567 0.889000
-0.047867 -0.000321 0.886000
0.022879 0.035933 0.872000
-0.004419 0.008696 0.876000
-0.035468 -0.025118 0.886000
-0.018355 -0.033616 0.870000
-0.014332 0.011361 0.887000
-0.007630 -0.038359 0.872000
0.004532 0.045205 0.864000
0.033654 0.032365 0.863000
0.000620 -0.026272 0.864000
-0.022415 0.002605 0.889000
0.036031 -0.000309 0.852000
-0.036954 0.011607 0.878000
0.014759 -0.001372 0.859000
-0.011909 -0.022516 0.870000
0.033887 0.000042 0.851000
0.018635 0.039658 0.875000
-0.006515 0.038225 0.867000
-0.002957 -0.035407 0.870000
-0.012954 -0.029609 0.868000
0.021132 0.041052 0.874000
-0.026470 0.004440 0.890000
-0.010885 -0.005353 0.874000
0.044097 0.032641 0.880000
-0.028603 -0.010190 0.888000
-0.005888 0.009460 0.880000
-0.005507 -0.041828 0.877000
-0.020951 0.003337 0.889000
-0.017659 -0.031504 0.871000
-0.001514 -0.022716 0.864000
-0.023147 0.006996 0.889000
-0.025114 0.014548 0.881000
0.004553 0.041484 0.868000
0.000985 0.009733 0.872000
-0.013841 0.021750 0.879000
0.016815 0.031699 0.874000
0.031897 0.010587 0.854000
-0.017862 0.018536 0.881000
0.009155 0.001109 0.864000
-0.002225 -0.012759 0.864000
-0.012060 0.003307 0.881000
-0.005842 0.030944 0.873000
0.008434 -0.001378 0.863000
-0.025592 0.010243 0.885000
0.018648 0.000750 0.859000
-0.036156 -0.004003 0.894000
0.021492 0.038893 0.874000
-0.016736 -0.011172 0.879000
0.016154 -0.011611 0.858000
-0.027141 -0.006900 0.888000
-0.009024 -0.035682 0.868000
-0.035792 -0.028368 0.885000
-0.012225 -0.029932 0.867000
0.017874 0.042442 0.873000
0.009477 -0.001729 0.861000
-0.006251 0.024310 0.880000
-0.017340 -0.039122 0.873000
-0.001170 0.006151 0.873000
-0.004031 -0.035407 0.870000
0.007411 0.010760 0.868000
0.015646 0.018641 0.869000
0.023571 0.006399 0.858000
0.022811 -0.007356 0.856000
0.008107 0.044596 0.866000
0.025959 0.029304 0.867000
0.019640 -0.003833 0.856000
0.007496 0.025701 0.878000
0.007454 0.037771 0.873000
0.020511 0.021710 0.863000
0.004516 -0.011297 0.861000
0.039027 0.027780 0.864000
-0.027778 0.009878 0.885000
0.014674 0.028854 0.875000
-0.006538 -0.008551 0.870000
-0.001169 0.007221 0.872000
0.025921 -0.004879 0.854000
-0.037260 -0.005107 0.894000
0.003812 -0.011310 0.862000
-0.012654 -0.021132 0.872000
0.012741 0.046379 0.866000
0.019355 0.001103 0.859000
0.009522 0.008943 0.865000
-0.002602 0.034458 0.871000
0.028315 0.001094 0.852000
0.000620 -0.023783 0.864000
-0.016225 -0.026844 0.871000
-0.002602 -0.036164 0.871000
-0.021439 -0.014428 0.879000
0.018025 0.007857 0.863000
0.009303 0.029314 0.878000
0.013698 -0.002432 0.859000
-0.020493 -0.004327 0.885000
-0.030935 -0.002526 0.892000
0.007437 0.039477 0.871000
0.031158 0.006713 0.853000
-0.026927 -0.023526 0.881000
0.004521 -0.016277 0.862000
-0.019422 0.000408 0.886000
-0.034607 -0.010603 0.892000
0.025630 -0.007004 0.856000
-0.014235 0.019987 0.881000
-0.030935 -0.004362 0.892000
0.029357 0.024523 0.862000
-0.022730 0.024836 0.873000
-0.002964 0.033780 0.872000
-0.027321 -0.015566 0.882000
-0.012983 0.030479 0.870000
0.005586 -0.016277 0.862000
0.031878 0.029524 0.863000
0.005310 0.034976 0.875000
-0.032220 0.015564 0.877000
-0.004775 -0.039932 0.875000
-0.021415 -0.014773 0.878000
-0.004389 0.035134 0.870000
-0.005788 -0.025947 0.865000
0.022468 0.030479 0.870000
-0.024972 -0.031685 0.876000
0.015130 0.002520 0.860000
-0.029034 -0.007282 0.890000
0.004605 0.040878 0.878000
0.034404 0.034181 0.864000
-0.007933 -0.025620 0.866000
0.013593 0.038217 0.875000
0.012888 0.037179 0.876000
0.026967 0.028168 0.865000
0.029788 0.007072 0.854000
-0.004017 0.037511 0.867000
-0.012225 -0.030646 0.867000
0.015484 0.001104 0.860000
0.004171 -0.019493 0.863000
0.008463 0.008597 0.866000
-0.015958 -0.016902 0.876000
0.001345 0.012978 0.873000
0.015113 -0.003847 0.859000
0.037206 0.031655 0.863000
0.023131 0.027551 0.868000
-0.002940 -0.018470 0.865000
-0.018524 0.029314 0.878000
-0.029202 -0.019240 0.884000
0.036818 0.015859 0.854000
0.022210 0.011015 0.860000
-0.027966 0.001144 0.891000
0.022186 0.038489 0.873000
-0.005082 -0.015284 0.866000
-0.014155 -0.013297 0.876000
-0.020215 -0.030858 0.873000
-0.011591 0.028788 0.873000
0.017731 0.013944 0.866000
0.019640 -0.006299 0.856000
-0.022755 0.008450 0.888000
-0.007312 0.006541 0.877000
0.025720 0.037684 0.871000
0.005579 -0.007399 0.861000
0.010626 0.012189 0.868000
-0.029004 -0.032118 0.878000
-0.035468 0.014121 0.877000
-0.031669 0.000778 0.892000
0.002437 0.030760 0.878000
-0.027527 -0.033165 0.877000
-0.048541 -0.000321 0.885000
-0.015115 -0.031074 0.869000
-0.026202 -0.020987 0.881000
-0.032295 0.003703 0.889000
-0.021317 -0.038807 0.874000
0.025602 0.029304 0.867000
0.005968 0.043527 0.866000
-0.007943 -0.023152 0.867000
0.014232 0.019021 0.870000
0.038316 0.025646 0.864000
-0.015793 0.009901 0.887000
-0.015149 -0.027561 0.871000
-0.010441 -0.027791 0.867000
0.038269 0.015878 0.855000
0.021856 0.015263 0.860000
-0.003001 0.020395 0.883000
0.002750 -0.017007 0.863000
-0.000452 0.011554 0.874000
0.028359 0.027424 0.864000
-0.002936 -0.026628 0.864000
0.012398 0.011819 0.867000
-0.038400 0.010884 0.878000
0.034519 0.020877 0.858000
-0.042269 -0.002523 0.891000
-0.013418 -0.015443 0.875000
-0.017253 0.012456 0.887000
0.002417 0.009364 0.871000
0.017669 0.008212 0.863000
0.032524 0.007406 0.852000
-0.014859 0.024892 0.875000
-0.039291 -0.025598 0.890000
0.007411 0.011832 0.868000
0.037336 0.033904 0.866000
0.027008 0.012359 0.855000
0.036159 0.039522 0.872000
-0.027856 -0.037453 0.876000
0.042238 0.035136 0.879000
-0.001161 0.040676 0.866000
0.031596 0.034576 0.865000
-0.048014 0.004400 0.882000
-0.018439 -0.019742 0.874000
0.033225 -0.001361 0.852000
-0.029761 0.014153 0.879000
0.021552 0.019556 0.862000
-0.014399 -0.030716 0.869000
0.010026 0.030037 0.878000
-0.021627 -0.034052 0.872000
0.006781 0.025730 0.879000
-0.032618 0.013775 0.878000
-0.016206 -0.031110 0.870000
0.038136 0.034339 0.868000
0.017751 0.016101 0.867000
-0.005170 0.012009 0.881000
0.027971 0.023485 0.863000
0.013037 0.005364 0.862000
-0.008646 -0.031323 0.866000
0.012284 -0.007736 0.859000
0.016192 0.002166 0.860000
-0.001908 0.021098 0.882000
-0.009065 -0.004982 0.872000
-0.001514 -0.021649 0.864000
0.026656 0.010599 0.855000
0.003869 0.035696 0.875000
-0.004715 -0.025917 0.864000
-0.009413 -0.016447 0.871000
0.035680 -0.001010 0.852000
-0.029301 -0.014559 0.887000
0.033773 0.019795 0.857000
-0.021950 -0.006513 0.885000
-0.002584 -0.019894 0.865000
-0.033910 -0.002529 0.893000
-0.006515 -0.014588 0.867000
0.022391 0.026449 0.867000
-0.012625 -0.038271 0.870000
-0.035428 -0.029461 0.885000
-0.011909 0.034060 0.870000
0.032211 0.008819 0.853000
-0.016698 -0.016200 0.877000
-0.005514 0.026785 0.878000
-0.033017 0.013068 0.879000
0.004229 -0.037051 0.875000
0.001689 0.042765 0.865000
0.008820 0.008597 0.866000
-0.034747 0.014482 0.877000
0.029562 0.037197 0.868000
-0.009772 -0.018598 0.871000
-0.013073 -0.003923 0.876000
0.009555 0.043628 0.868000
-0.025200 0.012050 0.884000
-0.005526 0.024673 0.880000
-0.031822 0.015907 0.876000
0.022106 -0.001367 0.856000
-0.014025 -0.034253 0.868000
-0.038407 -0.007323 0.895000
-0.002241 -0.034690 0.870000
-0.027228 -0.027452 0.879000
-0.005539 0.012749 0.882000
-0.033543 -0.001426 0.893000
0.012499 0.024864 0.874000
-0.043954 -0.000687 0.888000
-0.019856 0.025195 0.873000
-0.018369 0.006623 0.888000
-0.032036 -0.007299 0.892000
-0.030951 -0.027183 0.882000
0.005982 0.008617 0.868000
0.004887 0.044849 0.864000
-0.023503 -0.031649 0.875000
0.030241 0.036797 0.867000
-0.027496 0.018071 0.876000
0.009832 0.000397 0.861000
-0.032367 -0.031866 0.881000
0.006642 -0.014487 0.861000
-0.033872 -0.010603 0.892000
-0.005129 0.005079 0.874000
-0.042424 0.008364 0.879000
-0.010441 -0.033500 0.867000
0.007786 0.040147 0.870000
-0.020197 0.004430 0.888000
0.013698 -0.003493 0.859000
0.040245 0.035336 0.875000
0.010222 0.046983 0.864000
-0.008319 0.033663 0.869000
-0.002272 0.018194 0.882000
-0.004807 0.012735 0.881000
-0.029693 0.016647 0.877000
-0.010633 0.006585 0.883000
-0.024976 0.006996 0.889000
0.038927 0.014805 0.854000
0.025602 0.028590 0.867000
0.026164 0.021684 0.862000
0.002429 0.033176 0.875000
-0.002964 -0.036924 0.872000
-0.019474 -0.022568 0.872000
-0.039100 -0.004739 0.894000
0.023681 0.021330 0.862000
-0.035222 0.002605 0.889000
-0.005426 -0.029828 0.864000
-0.004394 -0.036523 0.871000
-0.023835 -0.037368 0.874000
-0.008746 0.002928 0.876000
0.038745 0.005639 0.850000
-0.021586 0.012792 0.885000
0.027355 0.029626 0.866000
-0.004419 0.028887 0.876000
0.025921 0.001448 0.854000
-0.023825 0.009901 0.887000
-0.028936 0.006980 0.887000
0.028748 0.029948 0.865000
-0.002994 0.015998 0.881000
-0.001521 0.038626 0.868000
-0.031302 -0.006564 0.892000
0.035329 0.010913 0.852000
-0.020910 -0.035129 0.872000
-0.020574 -0.022953 0.873000
0.041757 0.029371 0.869000
0.026104 0.019156 0.860000
-0.038364 -0.004371 0.894000
0.004955 0.033935 0.876000
-0.023972 -0.015151 0.879000
-0.012998 0.029439 0.871000
0.005975 0.042150 0.867000
0.008219 0.027507 0.878000
0.000980 -0.032110 0.868000
-0.021677 -0.028735 0.874000
-0.041855 -0.002154 0.890000
0.038802 0.019488 0.859000
0.013112 0.045718 0.867000
-0.028969 0.006257 0.888000
-0.033129 -0.034806 0.882000
-0.012611 -0.026782 0.869000
-0.018692 0.001867 0.886000
0.042570 0.029439 0.871000
-0.009003 -0.029897 0.866000
-0.004013 -0.018848 0.866000
-0.017039 -0.016902 0.876000
0.029962 0.018781 0.859000
-0.018059 -0.039122 0.873000
-0.033101 0.001144 0.891000
-0.026045 0.007354 0.888000
0.012139 0.022706 0.874000
-0.028740 0.012735 0.881000
-0.017997 -0.032542 0.870000
0.007402 0.008607 0.867000
-0.013556 0.016780 0.884000
0.001353 -0.040069 0.878000
0.018004 0.007138 0.862000
-0.014698 0.012091 0.887000
-0.020174 0.010996 0.887000
-0.035380 -0.010247 0.893000
0.019289 0.030549 0.872000
0.030848 0.030269 0.864000
-0.016374 -0.011172 0.879000
0.022800 0.029729 0.869000
-0.022704 -0.004332 0.886000
-0.018864 0.021701 0.877000
0.030422 0.024877 0.862000
-0.005882 0.025368 0.879000
-0.036483 -0.011717 0.893000
0.022433 -0.006996 0.855000
-0.017479 -0.010822 0.880000
0.007706 -0.012715 0.861000
0.010234 0.008231 0.865000
0.035348 0.024140 0.861000
0.011445 0.027445 0.876000
0.035946 0.002841 0.850000
0.020963 0.025735 0.867000
-0.017862 -0.009384 0.881000
-0.023852 -0.001784 0.888000
-0.001878 -0.033539 0.868000
0.021222 0.022775 0.863000
-0.014681 0.012442 0.886000
-0.031267 -0.008391 0.891000
-0.010282 0.018963 0.884000
-0.001514 -0.025205 0.864000
-0.013763 -0.017943 0.874000
-0.016603 -0.022926 0.872000
0.017874 0.042082 0.873000
-0.023744 -0.009780 0.884000
-0.029099 -0.000690 0.892000
-0.006872 -0.015658 0.867000
0.037083 0.000042 0.852000
0.032952 0.011290 0.854000
0.010269 0.043628 0.868000
0.019686 0.000749 0.858000
-0.014582 0.021051 0.880000
0.002395 -0.015941 0.863000
-0.026897 0.014531 0.880000
-0.001158 -0.010626 0.864000
-0.025839 -0.013373 0.881000
0.023516 -0.008413 0.856000
0.033926 -0.001361 0.852000
0.008219 0.025339 0.878000
-0.004017 -0.033143 0.867000
-0.017997 -0.035765 0.870000
-0.022390 0.008450 0.888000
0.011930 -0.006675 0.859000
-0.009761 -0.019651 0.870000
-0.029169 -0.022852 0.883000
0.017854 0.029114 0.872000
0.037724 0.039298 0.875000
-0.014482 -0.019742 0.874000
0.021830 0.006760 0.859000
0.026346 0.033625 0.868000
-0.014058 0.030121 0.870000
0.009923 0.042963 0.869000
0.003149 -0.037051 0.875000
0.014640 0.041364 0.873000
0.028700 -0.003469 0.853000
0.007505 0.028624 0.879000
-0.042906 -0.001420 0.889000
-0.007007 0.017144 0.884000
0.034205 0.021962 0.859000
0.023516 0.000747 0.856000
-0.020585 0.004069 0.889000
0.000628 0.007254 0.876000
-0.024135 0.010971 0.885000
0.033249 0.042345 0.871000
0.000975 -0.017738 0.864000
0.021527 0.018470 0.861000
0.021172 0.016698 0.861000
0.026304 -0.006292 0.855000
0.035495 0.018010 0.856000
-0.006173 0.034736 0.869000
0.000621 -0.028083 0.865000
-0.009794 -0.003909 0.873000
-0.022371 -0.037325 0.873000
-0.032403 -0.029724 0.882000
-0.007700 0.007649 0.880000
0.009102 -0.005968 0.859000
-0.018059 -0.021516 0.873000
-0.010910 0.026363 0.876000
-0.013222 0.014995 0.886000
-0.031197 -0.011299 0.889000
-0.019334 -0.008306 0.882000
-0.009003 -0.032749 0.866000
-0.021610 -0.003968 0.886000
-0.003715 0.003665 0.880000
-0.021317 -0.028015 0.874000
-0.004424 0.028559 0.877000
0.022774 0.027551 0.868000
-0.011697 0.020712 0.881000
0.019267 0.028005 0.871000
0.034547 0.006689 0.850000
-0.011022 0.014614 0.885000
0.005249 0.044189 0.865000
-0.027920 0.016305 0.878000
0.013578 0.039613 0.874000
0.003167 0.026121 0.880000
0.005947 -0.018783 0.863000
0.020770 0.003224 0.859000
0.002395 -0.008482 0.863000
0.021377 -0.006644 0.855000
-0.017740 0.023452 0.875000
-0.012669 -0.018641 0.873000
0.021830 0.004992 0.859000
-0.022396 0.023065 0.874000
-0.016545 -0.033578 0.869000
0.014623 0.042034 0.872000
-0.028700 -0.003990 0.891000
-0.004369 -0.032036 0.866000
0.024249 0.006391 0.857000
-0.046978 0.002224 0.883000
0.044257 0.029969 0.876000
-0.013103 -0.000679 0.878000
-0.009076 -0.003909 0.873000
0.012991 -0.002079 0.859000
0.011341 0.043985 0.868000
-0.018376 -0.036164 0.871000
-0.009117 0.004375 0.877000
0.012888 0.029247 0.876000
-0.006983 0.009471 0.881000
-0.025663 -0.036330 0.875000
0.025750 0.018802 0.860000
0.013922 0.023398 0.873000
0.006405 0.007262 0.877000
-0.019014 -0.004686 0.884000
0.035946 0.004240 0.850000
-0.004040 0.033421 0.872000
0.028100 0.032515 0.867000
0.011779 0.022346 0.874000
-0.032989 -0.017134 0.888000
0.008769 -0.001375 0.861000
-0.004404 0.031662 0.873000
-0.034529 0.001509 0.890000
0.030919 0.034973 0.866000
0.030210 0.013783 0.856000
0.009271 0.022011 0.875000
-0.006144 -0.031643 0.865000
-0.025361 0.018813 0.877000
-0.016355 -0.013327 0.878000
0.008414 -0.010943 0.861000
0.007062 0.013277 0.869000
0.001714 0.029676 0.878000
0.033930 0.025912 0.861000
-0.023556 -0.027028 0.877000
-0.044797 0.003678 0.883000
0.030420 -0.001711 0.852000
-0.014139 -0.015803 0.875000
-0.008462 0.018236 0.884000
-0.020551 -0.033335 0.872000
-0.006530 0.034379 0.869000
0.015466 -0.002432 0.859000
-0.000092 -0.035488 0.872000
0.010387 0.031121 0.878000
0.016399 0.022628 0.871000
-0.022314 -0.006513 0.885000
-0.016545 -0.032505 0.869000
0.045647 0.027413 0.875000
-0.043175 0.000044 0.887000
0.012125 0.039567 0.873000
-0.030431 -0.013845 0.888000
-0.005862 0.006894 0.876000
-0.008766 0.025339 0.878000
0.003812 -0.008117 0.862000
0.023840 0.001098 0.855000
0.012167 0.037179 0.876000
-0.010910 0.001125 0.876000
0.007428 0.013650 0.870000
-0.012969 -0.027497 0.869000
0.013698 -0.006675 0.859000
-0.022339 -0.004697 0.886000
0.031062 0.041938 0.870000
-0.030259 0.010220 0.883000
-0.026291 0.011686 0.884000
-0.013684 -0.036797 0.869000
-0.006928 0.002921 0.874000
-0.024251 -0.029521 0.876000
-0.020307 0.020257 0.877000
0.018757 0.012133 0.864000
0.004166 -0.012020 0.862000
-0.021659 0.009546 0.888000
0.025216 0.026062 0.866000
-0.018004 0.008815 0.888000
0.016777 0.026961 0.872000
-0.000451 -0.035847 0.872000
0.003958 -0.041581 0.895000
-0.021652 0.023758 0.873000
-0.014122 -0.017224 0.874000
-0.000809 -0.035447 0.871000
-0.007656 0.001844 0.875000
0.011644 0.048405 0.864000
-0.008347 -0.005699 0.872000
0.013248 0.037179 0.876000
0.039491 0.010199 0.851000
-0.015597 -0.015100 0.876000
0.038485 0.001094 0.852000
0.009155 0.046983 0.864000
0.008881 0.038804 0.872000
0.003465 -0.021649 0.864000
-0.007735 0.014597 0.884000
-0.010645 0.018599 0.884000
-0.021317 0.008094 0.889000
0.007394 0.006102 0.866000
0.038791 0.008798 0.851000
0.018316 -0.012700 0.860000
0.031450 0.024140 0.861000
0.007822 0.016950 0.874000
0.039584 0.012681 0.853000
-0.019115 -0.030463 0.872000
-0.035182 0.003699 0.888000
-0.013222 0.012078 0.886000
0.018909 0.026930 0.871000
-0.017801 -0.015495 0.878000
0.013021 -0.015550 0.861000
-0.008434 0.022162 0.881000
0.013953 0.028854 0.875000
-0.008806 0.021098 0.882000
-0.014025 -0.032467 0.868000
-0.012998 0.029797 0.871000
-0.009565 0.016799 0.885000
0.007840 0.034656 0.876000
0.017983 0.004295 0.861000
0.031240 0.033152 0.865000
-0.034009 -0.023295 0.886000
0.011034 0.017270 0.872000
-0.018017 0.028364 0.871000
-0.002611 0.009036 0.874000
0.040590 0.010562 0.852000
-0.041526 0.005495 0.883000
-0.023917 -0.020531 0.877000
-0.001158 -0.020227 0.864000
-0.016355 -0.012243 0.878000
-0.019400 -0.002142 0.885000
0.008405 -0.008453 0.860000
-0.025004 0.004440 0.890000
0.014540 0.047146 0.867000
-0.017720 -0.020101 0.874000
0.024475 0.024608 0.865000
-0.001540 -0.042285 0.879000
-0.035668 -0.021226 0.891000
-0.034529 0.004806 0.890000
0.016796 0.028429 0.873000
0.022564 0.018448 0.860000
-0.003353 0.025759 0.880000
-0.033971 -0.024725 0.885000
-0.000447 -0.022361 0.864000
0.018359 0.007848 0.862000
0.028880 0.039386 0.869000
-0.003326 0.032740 0.873000
0.004904 0.041793 0.867000
0.009155 0.001465 0.864000
0.003163 0.040563 0.879000
-0.001523 -0.033935 0.869000
-0.018286 -0.002503 0.884000
0.028700 0.004255 0.853000
0.039233 0.014085 0.853000
-0.021610 -0.003603 0.886000
-0.020934 -0.026546 0.873000
-0.027600 -0.002523 0.891000
0.021443 0.034138 0.872000
0.003138 -0.035129 0.872000
-0.024667 -0.017664 0.878000
-0.026836 -0.029589 0.878000
0.037345 0.005989 0.850000
-0.023863 0.021291 0.875000
-0.013326 -0.036797 0.869000
-0.013088 -0.002122 0.877000
0.021036 0.029763 0.870000
0.020464 0.008902 0.861000
-0.007246 -0.008899 0.869000
0.018844 0.024693 0.868000
-0.001161 0.039963 0.866000
-0.020668 -0.016561 0.877000
-0.033740 0.012344 0.879000
-0.019115 -0.023285 0.872000
0.030032 0.023077 0.861000
-0.011283 0.001848 0.877000
0.030229 -0.006815 0.877000
0.000267 0.011541 0.873000
0.003120 0.041080 0.867000
-0.027983 -0.027483 0.880000
-0.037316 0.013414 0.878000
-0.039291 -0.025231 0.890000
0.003816 -0.018072 0.863000
0.031822 0.006003 0.852000
0.028326 0.024551 0.863000
-0.024444 0.013490 0.883000
-0.022756 -0.030893 0.874000
0.018935 -0.007004 0.856000
0.018252 -0.008423 0.857000
0.004521 -0.011665 0.862000
-0.031749 -0.024697 0.884000
-0.046720 0.001136 0.885000
-0.000449 0.043628 0.868000
-0.039664 0.006941 0.882000
-0.039529 0.009450 0.879000
0.019778 0.008203 0.862000
-0.031337 -0.002896 0.893000
-0.004742 0.035809 0.869000
0.021727 0.028298 0.869000
0.001683 -0.010601 0.862000
-0.016888 0.010996 0.887000
-0.028333 0.001878 0.891000
0.041291 0.005653 0.852000
0.003113 -0.023810 0.865000
0.032063 0.038983 0.868000
0.026079 0.038760 0.871000
-0.001872 -0.030219 0.865000
0.022864 0.004280 0.858000
0.033147 0.004240 0.850000
-0.037586 -0.030094 0.893000
-0.020645 0.021676 0.876000
-0.044470 -0.003990 0.891000
-0.001182 0.021098 0.882000
-0.015508 -0.038674 0.871000
0.026734 0.035809 0.869000
-0.022062 -0.039572 0.875000
0.003120 0.041436 0.867000
-0.018369 0.007719 0.888000
0.002040 -0.017007 0.863000
0.013203 0.022680 0.873000
-0.026232 -0.012662 0.882000
-0.015341 -0.001408 0.882000
-0.025390 -0.041153 0.878000
0.030245 0.015915 0.857000
0.019847 0.023540 0.865000
-0.007371 0.017872 0.884000
0.030387 0.023077 0.861000
-0.002970 -0.038447 0.874000
-0.003296 -0.012418 0.865000
-0.024667 -0.021639 0.878000
0.030879 0.011655 0.855000
0.011658 0.047393 0.865000
-0.002251 -0.038447 0.874000
-0.015393 0.014978 0.885000
0.003851 0.009364 0.871000
-0.000093 0.020712 0.881000
-0.010453 0.033982 0.868000
0.027260 0.022420 0.863000
-0.010130 -0.011070 0.871000
-0.012596 -0.035325 0.868000
0.008228 0.030071 0.879000
-0.003342 0.028559 0.877000
-0.024251 -0.028800 0.876000
-0.016774 -0.007571 0.881000
0.012284 -0.013039 0.859000
-0.005788 -0.030219 0.865000
0.020179 0.022446 0.864000
-0.032004 -0.031866 0.881000
0.015820 -0.001372 0.859000
0.037422 0.035054 0.868000
-0.008347 -0.038718 0.872000
-0.025679 0.008085 0.888000
-0.028732 -0.001792 0.892000
0.026365 0.015210 0.857000
0.008580 0.031844 0.878000
0.013391 0.006074 0.862000
-0.011232 -0.006065 0.873000
0.020007 0.030908 0.872000
0.006673 -0.020962 0.865000
-0.022525 -0.013704 0.879000
-0.021317 0.022706 0.874000
-0.033543 -0.002896 0.893000
0.017962 0.002166 0.860000
0.004870 -0.008462 0.861000
0.038139 0.021280 0.860000
0.009855 0.048349 0.863000
-0.010270 0.006949 0.883000
-0.012698 -0.007880 0.875000
0.017038 0.015030 0.867000
0.018275 0.036057 0.875000
0.005334 0.030071 0.879000
-0.013464 -0.001763 0.878000
0.022110 0.030479 0.870000
0.024249 0.006744 0.857000
0.004171 0.045152 0.863000
-0.025448 0.015256 0.880000
-0.021627 -0.035847 0.872000
-0.031677 -0.028272 0.882000
-0.018524 0.020280 0.878000
-0.037996 -0.005475 0.894000
-0.013326 -0.027497 0.869000
-0.009359 -0.029897 0.866000
0.007021 -0.020227 0.864000
-0.024135 0.011335 0.885000
-0.027228 0.015238 0.879000
0.028382 0.004963 0.854000
0.022571 0.039972 0.874000
-0.001530 -0.037325 0.873000
0.020701 0.030156 0.871000
-0.011657 0.001850 0.878000
-0.013058 -0.013282 0.875000
-0.027135 -0.037093 0.876000
-0.028838 0.009867 0.884000
-0.013952 0.014266 0.886000
0.005934 -0.008817 0.861000
0.034167 0.037511 0.867000
-0.023142 -0.031288 0.875000
0.025982 0.013783 0.856000
0.015017 0.028102 0.874000
0.012327 0.005364 0.862000
-0.044696 0.007296 0.881000
-0.042062 0.008364 0.879000
-0.012712 -0.003202 0.876000
-0.017420 0.021701 0.877000
0.028515 0.016287 0.858000
0.002747 -0.012375 0.862000
-0.025274 -0.035210 0.874000
-0.022339 -0.003968 0.886000
-0.001535 0.030690 0.876000
0.016546 0.000750 0.860000
0.016796 0.042442 0.873000
-0.036156 -0.006211 0.894000
0.025720 0.018073 0.859000
0.011223 -0.005968 0.859000
0.010364 0.024560 0.876000
-0.028871 -0.016348 0.885000
0.030241 0.035727 0.867000
-0.007595 -0.011389 0.868000
0.038272 0.029879 0.863000
-0.010501 -0.014672 0.872000
-0.002987 0.011620 0.879000
-0.012596 -0.029609 0.868000
0.008414 -0.013424 0.861000
0.019824 0.021023 0.864000
0.031121 -0.001010 0.852000
-0.010154 -0.039840 0.873000
0.020770 0.004992 0.859000
-0.008666 0.036483 0.868000
-0.039070 0.004050 0.885000
-0.000447 -0.024494 0.864000
0.028415 0.009192 0.855000
0.009488 -0.017697 0.862000
-0.035024 -0.030519 0.884000
-0.010465 -0.036797 0.869000
0.015967 0.014316 0.867000
-0.022781 0.007362 0.889000
-0.022756 -0.032332 0.874000
0.046526 0.027869 0.878000
-0.019159 -0.019382 0.874000
-0.000451 0.034497 0.872000
0.006997 -0.004919 0.861000
-0.032440 -0.004366 0.893000
-0.040572 -0.004739 0.894000
-0.007371 0.017508 0.884000
0.029085 0.007072 0.854000
-0.017320 0.026961 0.872000
0.012814 0.017609 0.871000
0.002776 -0.032579 0.871000
0.020389 0.034178 0.873000
-0.018907 0.019941 0.879000
0.007111 0.038938 0.875000
0.010724 0.024921 0.876000
-0.011551 0.031554 0.870000
-0.014058 -0.027171 0.870000
0.016841 -0.006659 0.857000
0.026944 -0.002415 0.853000
0.011110 0.032567 0.878000
0.041690 0.007064 0.853000
0.004967 0.031482 0.878000
-0.002590 0.038225 0.867000
0.034643 0.040147 0.870000
0.017175 0.041411 0.874000
-0.015306 -0.006476 0.880000
-0.009929 0.012792 0.885000
-0.005835 -0.038000 0.872000
-0.029037 -0.030346 0.879000
0.000981 -0.033220 0.869000
0.015306 0.019737 0.870000
-0.001533 0.031735 0.875000
-0.013222 0.013901 0.886000
-0.002605 0.034138 0.872000
-0.005164 0.025397 0.880000
-0.006888 -0.035724 0.869000
0.037917 0.029879 0.863000
0.029119 0.008488 0.855000
-0.008386 0.027084 0.876000
-0.034856 0.002605 0.889000
0.000265 -0.007442 0.866000
0.021172 0.012800 0.861000
-0.012128 0.012078 0.886000
-0.028142 0.009150 0.885000
0.031121 0.004601 0.852000
-0.008319 -0.021059 0.869000
-0.004715 -0.024850 0.864000
0.027008 0.010599 0.855000
-0.049072 -0.000687 0.888000
0.036996 0.002841 0.850000
-0.028610 -0.038218 0.877000
0.008789 0.003595 0.863000
-0.000091 -0.017738 0.864000
0.019090 0.010698 0.863000
-0.018864 0.021340 0.877000
-0.025679 -0.005804 0.888000
0.007062 0.012919 0.869000
-0.002581 -0.021649 0.864000
-0.034974 -0.000690 0.892000
-0.021627 0.024448 0.872000
-0.001876 -0.032430 0.867000
-0.017618 0.006250 0.887000
0.025248 -0.005940 0.855000
-0.025708 -0.004347 0.889000
-0.018038 -0.025080 0.872000
0.039027 0.029202 0.864000
-0.010142 -0.008571 0.872000
-0.007371 0.015325 0.884000
0.034668 -0.002415 0.853000
-0.008736 0.002204 0.875000
-0.001169 0.007580 0.872000
-0.019831 0.009546 0.888000
-0.023808 0.024117 0.873000
0.017354 0.012147 0.865000
-0.034219 0.009482 0.882000
0.014948 0.044086 0.870000
-0.024278 0.018813 0.877000
-0.026133 0.000411 0.891000
-0.022422 -0.039572 0.875000
-0.012954 -0.035682 0.868000
0.027971 0.024196 0.863000
0.027359 0.006728 0.855000
-0.006158 0.038582 0.867000
0.006851 0.006257 0.888000
0.003457 -0.012020 0.862000
0.001356 0.027208 0.880000
-0.015939 -0.018684 0.875000
0.035722 0.013032 0.853000
-0.030762 0.006615 0.887000
0.027292 0.026358 0.864000
-0.014300 0.016071 0.885000
-0.015472 -0.030716 0.869000
-0.030088 -0.033925 0.878000
0.005663 0.035296 0.874000
-0.023825 -0.005432 0.887000
-0.021950 -0.005420 0.885000
-0.003648 -0.029828 0.864000
-0.009543 0.008402 0.883000
0.005328 0.020641 0.878000
-0.031498 0.015925 0.877000
-0.020015 -0.012995 0.880000
-0.000805 0.040676 0.866000
0.018757 0.011422 0.864000
-0.001538 0.028591 0.878000
-0.001158 -0.013470 0.864000
0.019468 0.013556 0.864000
-0.005076 -0.030219 0.865000
0.006681 0.044240 0.866000
0.000979 -0.031716 0.867000
-0.026053 -0.033127 0.876000
-0.037741 -0.025906 0.888000
-0.004017 0.037868 0.867000
0.014931 0.016853 0.869000
0.012541 0.031086 0.877000
-0.023449 0.022680 0.873000
-0.028217 -0.037093 0.876000
0.036904 0.017658 0.856000
0.031705 0.039698 0.868000
0.038666 0.017306 0.856000
-0.013372 -0.020414 0.872000
-0.007595 -0.020321 0.868000
0.021727 0.027941 0.869000
0.038531 0.000393 0.853000
-0.004455 0.021122 0.883000
0.038090 0.001793 0.851000
0.038449 0.032872 0.867000
-0.008319 -0.011045 0.869000
-0.026744 -0.037411 0.875000
-0.010489 -0.013580 0.871000
-0.020951 0.005532 0.889000
0.029858 0.013783 0.856000
0.030734 0.000392 0.851000
-0.021652 -0.025827 0.873000
-0.004818 0.019305 0.883000
-0.015472 -0.035366 0.869000
0.037740 0.001443 0.851000
0.013810 0.047448 0.866000
-0.015289 -0.009363 0.879000
-0.014316 0.009160 0.886000
0.010003 0.035377 0.876000
-0.011991 0.025642 0.876000
0.040475 0.015915 0.857000
0.012667 0.003586 0.861000
-0.022808 -0.027719 0.876000
0.035946 0.008088 0.850000
-0.000093 0.016342 0.880000
0.019732 0.005352 0.860000
0.040637 0.011277 0.853000
-0.004068 0.010162 0.878000
-0.014808 -0.024003 0.872000
0.019824 0.022801 0.864000
-0.001176 0.029642 0.877000
-0.010897 -0.002118 0.875000
-0.012800 0.019646 0.882000
-0.022782 -0.022645 0.875000
-0.009403 -0.015354 0.870000
0.020487 0.018491 0.862000
0.013810 0.046735 0.866000
-0.004003 -0.023783 0.864000
-0.017679 -0.025439 0.872000
0.044047 0.032242 0.879000
-0.006975 0.008374 0.880000
-0.015097 -0.032110 0.868000
0.035578 0.020877 0.858000
0.033029 0.017658 0.856000
0.009820 -0.009514 0.860000
0.033147 0.001791 0.850000
0.018316 0.001812 0.860000
-0.020539 0.010996 0.887000
0.019801 0.019578 0.863000
0.008463 0.008954 0.866000
-0.023825 -0.005067 0.887000
0.016738 0.021886 0.870000
0.006781 0.028262 0.879000
-0.005129 0.030260 0.874000
-0.022238 0.014927 0.882000
0.004950 0.034616 0.875000
-0.017821 -0.012619 0.879000
0.026334 0.008850 0.856000
0.005696 0.028624 0.879000
-0.003652 -0.022030 0.865000
-0.031421 0.008057 0.885000
-0.020934 -0.026187 0.873000
0.034679 0.030199 0.862000
-0.032766 0.009845 0.882000
-0.026172 -0.015893 0.880000
-0.028378 -0.025339 0.881000
0.020156 0.014250 0.863000
0.018572 0.028755 0.872000
-0.030568 -0.001792 0.892000
0.030069 -0.001711 0.852000
-0.046251 -0.002887 0.890000
-0.026414 0.019152 0.876000
0.025277 0.008145 0.856000
-0.042205 0.005852 0.882000
0.040542 0.007397 0.851000
-0.002950 -0.033182 0.868000
0.008571 0.033251 0.877000
0.027008 0.008840 0.855000
-0.001876 -0.032073 0.867000
0.000978 -0.030254 0.866000
-0.021751 -0.016561 0.877000
-0.009478 0.004736 0.877000
0.004547 -0.023152 0.867000
-0.024195 -0.034130 0.874000
0.010316 0.039881 0.872000
0.003816 -0.005996 0.863000
0.039630 0.014453 0.854000
-0.030201 -0.003994 0.892000
-0.020284 -0.017623 0.876000
0.000268 0.031411 0.876000
0.030843 -0.003824 0.854000
-0.009044 -0.009983 0.870000
-0.008796 0.007296 0.881000
-0.034431 -0.016200 0.897000
-0.013572 0.008057 0.885000
0.008060 -0.002084 0.861000
-0.002256 -0.039977 0.876000
0.012991 -0.006321 0.859000
-0.018017 0.027647 0.871000
-0.001533 -0.038491 0.875000
-0.024389 -0.012285 0.881000
-0.003698 0.009778 0.876000
0.001702 0.012246 0.872000
0.019732 0.003936 0.860000
0.038711 0.018384 0.857000
-0.009554 0.017508 0.884000
-0.005088 0.039295 0.867000
-0.011991 0.034656 0.876000
0.014389 -0.007374 0.858000
0.036595 0.019089 0.857000
0.008405 -0.004205 0.860000
-0.034413 -0.021495 0.887000
0.011354 0.043320 0.869000
-0.027569 -0.004718 0.890000
0.035102 0.016582 0.855000
0.009866 0.046983 0.864000
0.020345 -0.004890 0.856000
0.038672 0.024935 0.864000
0.012902 0.034695 0.877000
0.004876 -0.012375 0.862000
0.013407 0.007147 0.863000
-0.021125 0.016361 0.881000
0.017690 0.009288 0.864000
-0.009805 -0.001755 0.874000
-0.005445 -0.016729 0.867000
-0.023529 -0.019426 0.876000
-0.009381 -0.024965 0.868000
-0.002261 0.027869 0.878000
-0.034201 0.000777 0.891000
-0.020446 -0.008315 0.883000
-0.018587 0.018174 0.881000
0.009992 0.021651 0.875000
0.031168 0.029524 0.863000
-0.013103 0.023532 0.878000
0.001330 -0.008837 0.863000
-0.015526 -0.024721 0.872000
-0.006215 0.004725 0.875000
0.004249 0.029709 0.879000
-0.011022 0.010971 0.885000
0.033655 0.013750 0.854000
-0.012493 0.010619 0.886000
0.004887 -0.020227 0.864000
0.017567 -0.010905 0.858000
-0.021925 -0.008325 0.884000
-0.036968 0.002964 0.887000
0.009820 -0.012700 0.860000
0.000267 0.009374 0.872000
0.027871 0.040911 0.871000
-0.016660 -0.018324 0.875000
-0.002228 -0.010994 0.865000
-0.009003 -0.029184 0.866000
-0.014025 -0.031395 0.868000
0.034325 0.029135 0.862000
0.001343 -0.035129 0.872000
-0.018713 -0.034332 0.870000
0.004234 0.016628 0.876000
0.041399 0.029729 0.869000
-0.017639 -0.034690 0.870000
0.009197 0.012547 0.868000
-0.025332 -0.032406 0.876000
-0.000456 0.022550 0.882000
0.037828 0.013734 0.853000
0.017588 -0.012685 0.859000
-0.024217 -0.004342 0.888000
0.009544 0.010748 0.867000
-0.022049 0.005532 0.889000
-0.014106 -0.021156 0.873000
0.008414 -0.011652 0.861000
0.036296 0.004240 0.850000
0.006681 0.043884 0.866000
-0.018376 -0.037240 0.871000
0.000994 0.019240 0.880000
0.014742 -0.010199 0.858000
0.009878 0.008943 0.865000
-0.028675 -0.029984 0.879000
-0.024611 -0.030964 0.876000
0.028648 0.022394 0.862000
0.000620 -0.019871 0.864000
-0.006856 -0.026303 0.865000
-0.039390 0.004774 0.884000
0.010015 0.035056 0.877000
-0.007673 0.027115 0.877000
0.006650 -0.016277 0.862000
-0.017862 -0.008296 0.881000
-0.036279 -0.022251 0.888000
-0.024217 0.008815 0.888000
-0.045058 0.007296 0.881000
-0.038761 0.011246 0.878000
-0.006208 -0.039167 0.874000
-0.026866 0.001878 0.891000
-0.002629 0.025759 0.880000
-0.024217 -0.003611 0.888000
-0.020551 -0.024003 0.872000
-0.003300 -0.032392 0.866000
0.035246 0.002841 0.850000
0.044465 0.027710 0.873000
-0.006880 -0.018534 0.868000
0.003167 0.024310 0.880000
