0.017595 0.035417 0.877000
-0.001196 -0.016110 0.892000
0.013263 0.018091 0.877000
-0.032770 -0.010971 0.923000
-0.016256 -0.035653 0.913000
0.006712 -0.041561 0.919000
-0.000833 0.035856 0.897000
-0.035601 0.003782 0.908000
0.016873 0.026393 0.877000
0.023596 0.027678 0.872000
0.026673 0.008607 0.867000
-0.013863 0.021253 0.904000
-0.004535 0.031495 0.899000
-0.006428 0.016061 0.905000
0.026286 0.015013 0.866000
-0.003791 -0.032850 0.898000
0.008972 0.004757 0.881000
0.004297 -0.003249 0.889000
-0.001570 -0.032039 0.896000
0.025720 0.003628 0.871000
0.012627 0.031662 0.883000
-0.001200 -0.029057 0.895000
-0.018632 -0.005628 0.919000
0.005097 -0.038893 0.901000
-0.031386 -0.013690 0.927000
-0.007512 0.027857 0.901000
-0.007134 -0.006253 0.900000
-0.016686 -0.012019 0.916000
0.020366 0.011887 0.872000
-0.000830 -0.017965 0.893000
0.005012 0.009160 0.886000
0.019648 0.016194 0.872000
0.003199 0.046879 0.889000
-0.002685 0.014845 0.899000
0.028781 0.017508 0.866000
-0.006029 0.027857 0.901000
-0.015504 -0.027762 0.913000
0.007658 -0.034659 0.897000
-0.003808 0.022319 0.902000
0.002849 0.022857 0.894000
-0.004510 0.036840 0.894000
-0.023678 -0.009462 0.924000
-0.015112 -0.033738 0.912000
0.034263 0.040978 0.888000
-0.010270 0.045472 0.883000
0.022110 0.020095 0.870000
-0.003055 0.031125 0.899000
-0.030193 0.000798 0.914000
-0.006042 0.024202 0.903000
-0.024631 0.000800 0.917000
0.011148 0.005120 0.881000
0.002852 0.025093 0.895000
-0.009190 0.045160 0.884000
0.020506 0.040878 0.878000
-0.027691 0.010859 0.906000
0.023158 0.021145 0.869000
-0.007529 -0.038608 0.903000
-0.012775 0.019435 0.906000
-0.002658 0.042902 0.890000
0.002465 -0.011286 0.888000
-0.002302 -0.016882 0.894000
0.014379 0.002576 0.879000
-0.024095 0.007169 0.911000
-0.024359 -0.002987 0.921000
-0.028778 0.010474 0.905000
-0.020568 -0.009810 0.921000
0.024454 0.034334 0.877000
-0.007883 0.000786 0.901000
0.003918 -0.010531 0.886000
-0.028467 -0.002981 0.919000
0.016512 0.024949 0.877000
-0.029383 -0.009842 0.924000
-0.009377 -0.007380 0.902000
0.014758 0.028657 0.880000
0.024342 0.029507 0.873000
0.011249 -0.018983 0.889000
-0.035809 -0.012111 0.923000
-0.034219 0.001545 0.911000
-0.028064 0.009740 0.906000
-0.024844 0.006794 0.911000
-0.020145 -0.025675 0.919000
0.006812 0.000407 0.883000
-0.012859 -0.004084 0.912000
-0.023751 0.021112 0.898000
-0.028249 0.017084 0.900000
0.011602 -0.017499 0.888000
0.004652 0.010266 0.887000
-0.031758 0.012709 0.905000
-0.018592 -0.039584 0.917000
0.026286 0.010379 0.866000
0.024203 0.018263 0.868000
0.005780 0.033820 0.892000
-0.000464 -0.037982 0.897000
0.002118 0.026965 0.896000
0.004663 -0.017519 0.889000
0.023291 0.030979 0.874000
-0.009792 0.020181 0.906000
-0.035915 -0.004479 0.916000
0.029137 0.012161 0.866000
0.017008 0.048798 0.884000
0.031705 0.019692 0.868000
-0.008615 0.028197 0.900000
-0.026866 0.000045 0.916000
0.007956 0.044317 0.889000
0.007911 0.025876 0.884000
-0.026367 0.018915 0.899000
-0.010198 0.011643 0.909000
0.022597 -0.001037 0.875000
0.011211 0.043438 0.886000
0.006099 0.008421 0.885000
0.015754 0.014449 0.875000
0.024588 0.006481 0.869000
-0.026171 0.012709 0.905000
-0.012789 -0.029446 0.907000
0.008266 -0.008315 0.883000
0.017372 -0.011235 0.884000
-0.009356 0.027826 0.900000
0.006133 0.019092 0.890000
-0.001941 -0.036136 0.897000
-0.025819 -0.002224 0.919000
-0.025707 0.002681 0.915000
-0.012388 0.020904 0.905000
0.033532 0.041344 0.888000
0.006820 0.006593 0.884000
0.027839 0.005414 0.870000
0.015736 0.014792 0.874000
0.015085 0.024978 0.878000
-0.007883 0.003011 0.901000
-0.021257 0.001557 0.918000
-0.015079 -0.018682 0.910000
-0.020188 0.016788 0.904000
0.000273 0.042631 0.892000
0.006500 0.025319 0.890000
0.023158 0.008985 0.869000
-0.016523 0.037281 0.887000
0.005407 0.023514 0.891000
0.010458 0.012778 0.884000
0.014477 -0.014162 0.885000
-0.022867 -0.006026 0.922000
-0.003791 -0.035807 0.898000
0.008331 -0.022301 0.890000
0.011900 0.030935 0.883000
0.002836 -0.016806 0.890000
0.023845 0.008617 0.868000
-0.037800 -0.006741 0.916000
0.021812 0.048233 0.887000
-0.019444 0.017904 0.904000
-0.014664 0.040840 0.885000
0.007911 -0.009780 0.884000
0.015844 0.039885 0.880000
-0.011296 -0.034673 0.907000
0.010785 -0.006121 0.881000
0.006140 0.033782 0.891000
-0.000094 -0.013509 0.890000
0.006866 0.024587 0.890000
-0.034860 -0.006378 0.918000
0.024889 0.013603 0.867000
0.002470 0.014696 0.890000
0.013005 0.044432 0.884000
-0.020101 0.002687 0.917000
-0.006793 -0.002560 0.904000
0.014304 -0.031706 0.897000
-0.024032 -0.006413 0.923000
0.028230 0.025496 0.871000
-0.019389 -0.002224 0.919000
-0.006029 -0.035185 0.901000
-0.017421 0.005694 0.915000
-0.020546 -0.002605 0.920000
-0.013521 -0.025685 0.906000
0.013339 0.030537 0.882000
0.015862 -0.009384 0.881000
-0.031802 -0.015232 0.928000
-0.021326 -0.017392 0.921000
0.006507 0.038550 0.891000
0.007902 -0.007225 0.883000
-0.003795 -0.022526 0.899000
0.022957 0.031375 0.875000
-0.009450 0.012017 0.909000
0.006874 0.040016 0.891000
-0.004867 0.039694 0.892000
-0.026975 0.010124 0.907000
0.021418 0.010081 0.871000
-0.032503 0.008984 0.905000
0.009335 -0.001407 0.881000
-0.038343 0.000795 0.911000
-0.021258 0.018236 0.902000
-0.043125 -0.010900 0.917000
0.006843 0.013552 0.887000
0.022389 0.043556 0.881000
-0.005281 -0.029960 0.900000
-0.018115 -0.019849 0.912000
-0.006029 -0.031106 0.901000
0.009044 0.042806 0.888000
-0.029817 0.000421 0.914000
-0.009824 0.012391 0.909000
-0.025496 -0.004124 0.921000
0.014758 0.030105 0.880000
-0.007910 -0.040883 0.904000
-0.010946 0.000045 0.909000
-0.006300 0.043853 0.887000
-0.009802 -0.015634 0.907000
0.029238 0.007196 0.869000
-0.006386 -0.013646 0.899000
0.002478 0.040841 0.893000
-0.012402 0.020181 0.906000
-0.013416 0.027055 0.899000
0.004369 -0.002932 0.904000
0.002109 -0.022718 0.892000
0.018254 0.020547 0.874000
0.004316 0.038269 0.893000
0.014674 0.018050 0.875000
0.002843 -0.030795 0.892000
0.013596 -0.033257 0.899000
0.009044 0.034399 0.888000
-0.009387 -0.024485 0.903000
0.011846 0.020665 0.879000
0.024588 0.023649 0.869000
0.006092 0.002227 0.884000
0.028457 0.009678 0.867000
0.015189 0.049162 0.884000
0.027042 0.037669 0.879000
0.010095 0.010231 0.884000
0.007893 0.000770 0.882000
-0.011258 -0.024884 0.904000
0.015808 -0.004654 0.878000
-0.018214 0.001932 0.917000
-0.005589 0.041070 0.890000
-0.021965 0.003815 0.916000
0.003944 -0.003627 0.892000
-0.005299 0.023831 0.903000
-0.010537 -0.008159 0.906000
-0.017063 -0.015035 0.916000
0.020460 0.033574 0.876000
-0.006009 -0.011413 0.898000
0.005023 -0.015306 0.888000
-0.020743 0.008678 0.912000
0.008786 -0.035847 0.899000
-0.005193 0.045939 0.885000
-0.018135 0.008688 0.913000
-0.016274 -0.030802 0.914000
-0.011321 -0.007812 0.909000
-0.012470 -0.007079 0.911000
-0.025827 0.011977 0.906000
-0.013580 0.014277 0.910000
-0.013580 -0.029918 0.910000
-0.041947 -0.009003 0.916000
0.025989 0.022550 0.868000
0.021492 0.030260 0.874000
-0.031150 0.004909 0.909000
0.010798 -0.007580 0.882000
-0.030369 0.007145 0.908000
-0.003422 -0.036176 0.898000
-0.010946 0.001167 0.909000
0.012236 0.028327 0.881000
-0.023652 -0.008692 0.923000
0.013969 0.022037 0.876000
0.026642 0.018577 0.866000
0.017854 0.016552 0.872000
-0.015029 0.040475 0.885000
-0.013235 -0.001081 0.912000
0.000641 -0.023137 0.894000
-0.004480 0.043902 0.888000
0.001388 -0.040747 0.901000
0.032619 0.045619 0.893000
0.027829 0.039930 0.881000
-0.037841 -0.007126 0.917000
0.019761 0.040471 0.877000
-0.015538 0.002305 0.915000
0.004658 0.013201 0.888000
-0.018135 0.009064 0.913000
0.009176 -0.037410 0.901000
0.011275 -0.019759 0.891000
-0.012507 0.039472 0.887000
0.010798 0.008393 0.882000
0.001376 -0.023846 0.893000
0.005017 0.010996 0.887000
-0.018612 0.000045 0.918000
-0.010537 -0.037617 0.906000
0.012210 -0.040228 0.906000
-0.002310 -0.030229 0.897000
0.004287 0.009901 0.887000
-0.015602 0.027733 0.897000
0.005735 0.005143 0.885000
-0.009781 -0.033106 0.905000
0.011873 -0.006483 0.881000
-0.012859 0.009054 0.912000
0.020600 0.045420 0.882000
0.024342 0.029147 0.873000
-0.001563 0.040796 0.892000
-0.003045 0.007051 0.896000
0.005774 -0.030027 0.891000
0.003206 0.045150 0.891000
0.016151 0.023866 0.877000
-0.001575 0.029645 0.899000
-0.006400 -0.028139 0.901000
0.024203 0.015762 0.868000
-0.014219 0.021972 0.903000
0.016931 -0.008287 0.880000
0.001741 -0.024554 0.892000
0.015051 0.023118 0.876000
-0.012429 0.017236 0.908000
0.014017 -0.005383 0.879000
0.005407 0.023881 0.891000
0.003958 -0.034582 0.895000
0.007167 -0.001045 0.882000
-0.010198 0.005283 0.909000
0.013985 0.023866 0.877000
-0.012817 -0.041857 0.909000
0.028588 0.005062 0.871000
0.002840 -0.020126 0.891000
0.010117 -0.016366 0.886000
0.027355 0.016082 0.866000
0.011199 -0.014891 0.885000
-0.003433 0.026374 0.901000
0.011860 -0.000681 0.880000
-0.033836 -0.009052 0.921000
0.000274 0.019242 0.897000
-0.004927 0.013053 0.903000
0.017915 0.006886 0.875000
-0.018969 -0.033545 0.917000
0.027418 0.023264 0.868000
-0.007726 0.047289 0.883000
-0.018861 0.028745 0.894000
0.020796 0.031375 0.875000
0.016667 -0.036831 0.905000
-0.004184 0.020486 0.903000
0.013294 -0.004298 0.879000
-0.009439 0.009761 0.908000
0.015790 -0.002483 0.877000
0.005370 0.004415 0.885000
0.007573 0.013917 0.887000
0.000639 -0.011678 0.890000
0.001749 0.026227 0.896000
-0.033078 -0.008294 0.921000
-0.040149 -0.001466 0.918000
0.033092 0.040156 0.886000
0.010847 0.041250 0.886000
0.005728 -0.007597 0.884000
-0.016686 -0.008626 0.916000
-0.013249 0.006433 0.913000
-0.025454 0.012350 0.906000
0.012250 0.009845 0.882000
0.005774 0.026815 0.891000
0.012613 -0.010484 0.882000
0.001013 0.032902 0.897000
0.021132 -0.000317 0.874000
0.020007 0.010092 0.872000
-0.027035 0.007527 0.909000
0.000274 0.036553 0.896000
-0.035809 -0.012491 0.923000
0.001741 -0.027124 0.892000
0.012278 0.044068 0.884000
-0.006009 -0.008087 0.898000
0.027418 0.022550 0.868000
0.011873 -0.007209 0.881000
-0.002310 -0.037244 0.897000
0.017234 0.028559 0.877000
0.014400 -0.036378 0.903000
-0.014780 0.033453 0.892000
-0.019346 0.002310 0.917000
-0.009026 -0.033442 0.904000
0.007938 0.015012 0.887000
0.025929 0.018221 0.866000
-0.007126 0.030385 0.899000
-0.010874 -0.026715 0.903000
0.022468 0.014366 0.870000
-0.008272 0.024946 0.903000
-0.022371 0.018236 0.902000
0.019234 0.049638 0.886000
0.010482 0.033228 0.886000
0.016437 0.017290 0.873000
-0.038052 -0.003713 0.913000
-0.010922 -0.001822 0.907000
-0.006056 0.019041 0.905000
-0.011283 -0.022329 0.906000
-0.024804 0.022908 0.896000
0.014791 -0.010484 0.882000
0.008668 0.018297 0.887000
0.027684 0.045364 0.888000
0.019488 0.044644 0.881000
0.008256 0.003311 0.882000
-0.004862 0.040750 0.891000
-0.033799 -0.006013 0.920000
0.008668 0.017202 0.887000
0.013686 0.030502 0.881000
-0.027243 0.000422 0.916000
-0.016309 0.001176 0.916000
-0.022892 -0.012871 0.923000
-0.031975 -0.009062 0.922000
0.024673 0.002196 0.872000
0.009074 -0.024526 0.891000
0.014902 -0.040075 0.911000
0.023504 0.043605 0.882000
-0.020947 -0.014359 0.921000
-0.024804 0.023277 0.896000
0.017254 -0.006100 0.878000
0.018275 0.023452 0.875000
-0.005658 -0.038522 0.901000
-0.037423 -0.005610 0.916000
-0.024006 -0.004508 0.922000
0.006866 -0.025598 0.890000
0.011186 0.017872 0.884000
0.004282 -0.007249 0.886000
0.019693 -0.000317 0.874000
-0.023601 -0.002987 0.921000
0.023845 0.020049 0.868000
-0.018194 -0.035771 0.916000
-0.012470 -0.001080 0.911000
-0.005949 0.041390 0.889000
0.026288 0.036542 0.878000
0.016892 0.038710 0.878000
-0.015410 0.041250 0.886000
-0.022108 -0.018928 0.922000
-0.019389 -0.010924 0.919000
-0.012056 -0.039943 0.908000
0.018952 0.012978 0.873000
-0.025635 -0.018248 0.926000
-0.009066 0.009761 0.908000
0.011995 -0.018638 0.890000
-0.022464 -0.029522 0.921000
-0.005646 0.005965 0.899000
0.004642 -0.007606 0.885000
-0.025173 0.022908 0.896000
-0.006407 -0.023344 0.902000
-0.004541 -0.025885 0.900000
0.013263 0.017730 0.877000
0.007965 -0.025231 0.890000
0.029885 0.010034 0.867000
0.027743 0.021810 0.867000
-0.021210 0.020788 0.900000
0.010847 0.035781 0.886000
0.014755 -0.035595 0.902000
-0.021399 0.012004 0.908000
-0.001566 0.010347 0.894000
0.007167 -0.001408 0.882000
0.004311 0.020603 0.892000
0.013969 0.021676 0.876000
0.024843 0.034735 0.878000
0.016587 -0.009022 0.881000
0.022826 0.005414 0.870000
-0.021163 0.022960 0.898000
0.004652 0.009901 0.887000
0.007224 0.022729 0.889000
0.030781 0.047457 0.893000
0.011927 0.045575 0.885000
-0.006999 0.048743 0.883000
-0.038219 -0.007881 0.917000
-0.020910 0.017884 0.903000
-0.021729 -0.015893 0.922000
-0.035719 0.000795 0.911000
-0.019251 0.026935 0.895000
-0.032949 0.006391 0.907000
0.021902 0.034656 0.876000
0.030563 0.012518 0.866000
0.006866 0.033012 0.890000
0.016550 0.039116 0.879000
0.031384 0.021860 0.869000
-0.029247 0.007893 0.908000
-0.003795 -0.038437 0.899000
-0.019423 0.018999 0.903000
-0.014001 -0.008973 0.913000
-0.008826 0.045160 0.884000
0.016854 0.002567 0.876000
0.001370 -0.014226 0.889000
-0.030623 -0.014071 0.927000
0.017915 0.010487 0.875000
-0.012470 -0.002955 0.911000
0.000274 0.019611 0.897000
0.020099 0.036819 0.876000
-0.013955 -0.017933 0.910000
0.008659 0.012442 0.886000
0.004679 0.023540 0.892000
-0.000095 -0.033109 0.895000
-0.041479 -0.005974 0.914000
-0.013206 -0.034787 0.910000
0.010060 -0.004308 0.881000
0.001749 -0.035727 0.896000
-0.009387 -0.003300 0.903000
-0.005299 0.012309 0.903000
-0.005935 0.043487 0.887000
-0.029962 0.007511 0.907000
-0.012814 0.045472 0.883000
0.016114 0.013728 0.875000
-0.010922 -0.001448 0.907000
-0.005322 -0.043632 0.907000
0.001749 -0.036465 0.896000
0.022983 -0.002481 0.876000
-0.010946 0.015384 0.909000
-0.016309 0.001553 0.916000
0.020007 0.005785 0.872000
-0.020924 -0.002226 0.920000
0.006449 -0.005408 0.883000
-0.000463 0.040151 0.894000
-0.013610 -0.006711 0.912000
0.011186 -0.012327 0.884000
0.006500 0.023488 0.890000
0.008756 -0.033146 0.896000
-0.016285 0.029848 0.894000
0.020007 0.003632 0.872000
-0.014672 -0.020883 0.908000
-0.018632 -0.002981 0.919000
-0.025552 -0.007552 0.923000
0.003585 0.024697 0.894000
-0.013970 -0.016453 0.911000
0.024560 0.019692 0.868000
-0.019745 -0.036227 0.918000
-0.017817 -0.016543 0.916000
0.022468 0.022960 0.870000
0.022466 0.045887 0.884000
0.005748 -0.013464 0.887000
0.030919 0.017151 0.866000
-0.005193 0.046303 0.885000
-0.004179 0.014152 0.902000
-0.029128 -0.014850 0.928000
0.024038 0.031735 0.875000
-0.013625 -0.003713 0.913000
0.026999 0.010736 0.866000
-0.029034 -0.010234 0.925000
-0.030391 -0.006392 0.920000
0.020030 0.025913 0.873000
0.018233 0.019446 0.873000
-0.007504 -0.009216 0.900000
-0.017389 0.029480 0.894000
-0.017467 0.025547 0.898000
0.011887 0.012386 0.882000
-0.007512 -0.003293 0.901000
0.000639 0.011412 0.891000
0.000644 0.032902 0.897000
0.012584 -0.000681 0.880000
0.007911 0.009867 0.884000
0.029664 0.024420 0.871000
-0.020447 0.021875 0.899000
0.006828 0.009514 0.885000
-0.015145 0.005312 0.914000
0.013005 0.046979 0.884000
-0.024200 0.003435 0.915000
-0.005570 0.043487 0.887000
-0.005677 0.013067 0.904000
0.015447 -0.003932 0.878000
-0.007883 -0.003664 0.901000
0.015447 -0.004654 0.878000
-0.007149 -0.024829 0.902000
-0.011669 -0.039899 0.907000
0.011900 -0.011949 0.883000
-0.023277 0.026537 0.894000
-0.022717 0.018586 0.901000
0.028748 0.014995 0.865000
-0.005576 0.043171 0.888000
-0.029962 0.007884 0.907000
0.020389 0.026632 0.873000
-0.011246 -0.027830 0.903000
-0.001563 -0.013540 0.892000
0.018017 0.043869 0.880000
-0.024970 0.016379 0.902000
0.028814 0.009321 0.867000
0.000275 0.027395 0.898000
-0.003437 0.023433 0.902000
-0.005949 0.042122 0.889000
0.014065 0.037071 0.882000
0.024889 0.015744 0.867000
0.014379 0.014515 0.879000
0.005376 0.010254 0.886000
0.029212 0.046199 0.890000
-0.003062 0.027857 0.901000
-0.015915 -0.008993 0.915000
-0.035087 -0.013265 0.924000
0.009367 0.009503 0.884000
0.013354 0.042928 0.883000
-0.020902 -0.034753 0.919000
-0.005287 -0.017756 0.901000
-0.024333 -0.002605 0.920000
-0.012859 -0.002207 0.912000
-0.025247 0.005675 0.912000
0.025632 0.021478 0.868000
0.016531 0.028230 0.878000
0.008285 -0.011977 0.885000
0.020820 0.038982 0.876000
0.015844 0.042058 0.880000
-0.021025 0.012004 0.908000
-0.004900 0.008915 0.898000
0.007590 0.029681 0.889000
-0.030557 -0.010995 0.925000
-0.020058 0.005694 0.915000
-0.000468 -0.010012 0.905000
-0.020947 -0.017013 0.921000
-0.002302 0.038311 0.894000
-0.021629 0.018607 0.902000
-0.015161 -0.000331 0.915000
0.012627 -0.012676 0.883000
-0.014672 -0.022752 0.908000
-0.008635 0.002643 0.902000
-0.004889 -0.012494 0.896000
-0.008673 -0.042092 0.906000
0.022800 0.018641 0.869000
0.021802 0.002196 0.872000
0.014379 0.026453 0.879000
-0.023830 0.018215 0.901000
-0.023247 -0.031451 0.922000
-0.001205 0.030385 0.899000
0.001004 -0.008738 0.889000
-0.000463 -0.030496 0.894000
-0.010934 -0.019015 0.908000
0.024843 0.039794 0.878000
0.009003 0.022965 0.884000
-0.010850 0.026003 0.901000
0.013309 -0.005389 0.880000
-0.009377 -0.029284 0.902000
-0.011976 0.024547 0.902000
-0.003804 0.013395 0.901000
0.023867 0.043605 0.882000
0.030207 0.017864 0.866000
0.011067 -0.039023 0.904000
0.023873 0.006839 0.869000
0.021566 -0.003927 0.877000
0.006500 0.028250 0.890000
-0.031723 0.011951 0.904000
0.021492 0.029900 0.874000
-0.013664 0.034882 0.891000
-0.015880 -0.026259 0.913000
-0.010549 -0.042139 0.907000
0.008610 0.000406 0.881000
-0.011321 0.015010 0.909000
0.020053 0.028821 0.874000
-0.008272 -0.031546 0.903000
0.026134 0.043754 0.885000
0.008313 0.029283 0.888000
0.009742 0.014614 0.885000
0.017175 0.013713 0.874000
-0.039887 -0.002958 0.912000
0.011860 0.025759 0.880000
-0.000827 0.044001 0.890000
-0.006786 -0.040466 0.903000
-0.033983 -0.013279 0.925000
0.012613 0.029811 0.882000
-0.009026 -0.033070 0.904000
-0.022694 0.004188 0.915000
-0.003787 0.008905 0.897000
0.020773 0.028821 0.874000
0.025216 0.015013 0.866000
0.026765 0.005056 0.870000
-0.008291 -0.017834 0.905000
-0.009006 -0.029655 0.902000
0.001009 -0.032336 0.894000
-0.018024 0.034072 0.889000
-0.014736 -0.033738 0.912000
-0.027680 -0.002599 0.918000
-0.028622 -0.008701 0.924000
0.014363 -0.003932 0.878000
-0.033493 -0.009441 0.922000
-0.019143 0.033012 0.890000
0.005389 -0.016037 0.888000
0.005728 -0.005414 0.884000
0.021418 0.006496 0.871000
0.010300 -0.037823 0.902000
0.014412 -0.010109 0.881000
-0.017798 -0.031966 0.915000
-0.030111 -0.008312 0.923000
-0.007512 0.000415 0.901000
0.002484 0.026935 0.895000
-0.015538 -0.007863 0.915000
0.008266 0.025483 0.883000
-0.015741 0.019041 0.905000
-0.002673 0.011095 0.895000
0.018891 0.050424 0.887000
0.006897 -0.032704 0.894000
0.000641 -0.025316 0.893000
-0.018990 -0.021869 0.918000
-0.026338 0.021112 0.898000
0.006127 0.015412 0.889000
-0.020123 -0.036982 0.918000
0.018614 0.004360 0.874000
-0.023652 -0.007552 0.923000
-0.003422 -0.028784 0.898000
0.028814 0.020026 0.867000
0.010482 0.037239 0.886000
-0.011399 0.040886 0.886000
0.002484 0.036512 0.895000
0.020389 0.024476 0.873000
-0.013595 0.011668 0.911000
-0.010514 -0.005164 0.904000
-0.015112 -0.038617 0.912000
0.011563 0.038654 0.885000
0.010810 0.010946 0.883000
-0.015828 0.013154 0.910000
0.007539 -0.007952 0.883000
-0.007521 -0.013692 0.902000
-0.038010 -0.002207 0.912000
-0.021211 0.003438 0.916000
0.003206 -0.019759 0.891000
0.009742 0.012428 0.885000
-0.019325 0.003815 0.916000
0.011873 0.006208 0.881000
-0.008663 -0.040928 0.905000
-0.000463 -0.029760 0.894000
0.015103 -0.005745 0.879000
-0.021303 -0.031004 0.920000
-0.017364 0.010180 0.912000
-0.014736 -0.042746 0.912000
-0.011764 0.041615 0.886000
-0.007512 0.004124 0.901000
-0.007892 -0.026314 0.902000
0.010411 0.000406 0.880000
-0.015145 0.005688 0.914000
0.005034 -0.022667 0.890000
-0.005276 0.009665 0.899000
0.023158 0.015065 0.869000
-0.014330 -0.018307 0.910000
-0.005664 0.026403 0.902000
-0.019707 0.022615 0.899000
0.029205 0.022193 0.868000
0.022520 0.026961 0.872000
0.017555 0.010847 0.875000
0.020099 0.037901 0.876000
0.015447 -0.004293 0.878000
0.019169 0.046926 0.883000
-0.012457 -0.011940 0.910000
-0.004175 -0.040006 0.901000
-0.008117 0.043803 0.886000
0.003217 0.025433 0.894000
0.007232 0.041803 0.890000
0.004721 -0.038850 0.900000
-0.031421 0.008248 0.906000
-0.009586 0.041662 0.887000
0.009399 0.032535 0.887000
-0.016078 0.020486 0.903000
-0.010176 -0.019367 0.907000
-0.011989 0.023459 0.903000
-0.004911 -0.028478 0.900000
-0.022464 -0.030280 0.921000
0.021517 0.032455 0.875000
-0.013191 0.015010 0.909000
-0.031149 -0.006013 0.920000
-0.001941 -0.020630 0.897000
-0.011669 -0.041392 0.907000
-0.006407 -0.018889 0.902000
-0.011764 0.041250 0.886000
-0.003066 -0.041535 0.902000
0.001380 0.021433 0.896000
-0.020145 -0.020002 0.919000
0.021752 0.012576 0.870000
0.005034 0.016161 0.890000
-0.005627 0.034341 0.896000
0.004663 0.015046 0.889000
-0.019199 0.012030 0.910000
-0.011682 -0.035084 0.908000
-0.027042 -0.006406 0.922000
-0.034669 -0.011731 0.923000
-0.009180 0.048379 0.883000
0.006140 0.031582 0.891000
0.019356 0.029574 0.875000
0.022161 0.027678 0.872000
-0.024465 -0.020132 0.925000
-0.007901 -0.024485 0.903000
-0.016202 -0.022802 0.910000
-0.026916 0.012337 0.905000
0.005728 -0.002139 0.884000
0.005767 0.017993 0.890000
-0.012859 -0.001081 0.912000
0.010117 0.032499 0.886000
-0.020523 -0.037022 0.919000
0.025602 0.020740 0.867000
0.008972 -0.004670 0.881000
-0.012648 0.029210 0.897000
0.019334 0.000403 0.874000
0.006140 0.025348 0.891000
0.015790 -0.003566 0.877000
0.015085 -0.002125 0.878000
0.015535 -0.011949 0.883000
0.013309 -0.004665 0.880000
-0.012761 -0.024167 0.905000
0.008285 -0.010520 0.885000
-0.030391 -0.005256 0.920000
-0.005658 -0.022206 0.901000
0.008688 0.040292 0.889000
0.002109 -0.024554 0.892000
-0.018234 -0.009400 0.918000
0.015171 0.047289 0.883000
-0.013017 0.028472 0.897000
0.024560 0.008260 0.868000
0.003585 0.038311 0.894000
0.015736 0.020188 0.874000
-0.021389 0.030149 0.892000
-0.011184 0.029243 0.898000
-0.004161 -0.035068 0.898000
0.011873 0.005483 0.881000
0.009033 0.031440 0.887000
-0.039398 -0.014834 0.927000
-0.010164 -0.035753 0.906000
0.016206 0.042420 0.880000
-0.010131 -0.005902 0.903000
0.028068 0.020003 0.866000
-0.022892 -0.010591 0.923000
-0.007181 0.011604 0.906000
-0.009802 -0.014887 0.907000
0.017615 0.040155 0.878000
-0.018886 0.008312 0.913000
0.018317 0.036500 0.877000
0.013354 0.043291 0.883000
-0.005287 -0.038893 0.901000
0.017254 0.036180 0.878000
0.012961 0.010196 0.881000
-0.005281 -0.032182 0.900000
0.001747 0.019936 0.895000
0.012278 -0.013782 0.884000
0.005376 0.009890 0.886000
0.028100 0.020383 0.867000
0.016625 0.047289 0.883000
0.002106 -0.017925 0.891000
0.012599 0.028689 0.881000
-0.009046 -0.016363 0.906000
0.002116 0.038354 0.895000
0.016531 -0.005016 0.878000
-0.017837 -0.012787 0.917000
-0.026983 -0.003362 0.920000
-0.019389 -0.010167 0.919000
-0.018390 0.035536 0.889000
-0.026338 0.020372 0.898000
-0.009377 -0.027428 0.902000
-0.003787 0.007428 0.897000
0.009346 0.025818 0.882000
0.009335 -0.002132 0.881000
-0.026254 -0.004503 0.921000
-0.016054 -0.043642 0.923000
0.030712 0.045517 0.891000
0.019017 0.036819 0.876000
0.023515 0.020787 0.869000
-0.005293 0.026403 0.902000
0.001749 0.030284 0.896000
-0.004541 -0.026256 0.900000
0.015570 -0.013434 0.885000
0.011135 0.023948 0.880000
0.002849 0.038679 0.894000
-0.013970 -0.029201 0.911000
-0.027909 0.015990 0.901000
-0.008635 -0.028170 0.902000
-0.038427 -0.012857 0.922000
-0.017421 -0.033472 0.915000
-0.007110 0.032902 0.897000
0.002473 -0.019759 0.891000
-0.019304 0.005694 0.915000
0.019311 0.003636 0.873000
-0.008635 -0.000327 0.902000
-0.012029 0.020554 0.906000
-0.019030 0.019721 0.902000
-0.024443 0.007910 0.910000
-0.003422 -0.031741 0.898000
-0.004541 -0.025144 0.900000
0.007208 0.013186 0.887000
-0.001207 0.025233 0.900000
-0.012814 0.043655 0.883000
-0.003422 0.004849 0.898000
0.027042 0.035860 0.879000
-0.013970 -0.029576 0.911000
0.006507 0.040016 0.891000
0.001749 0.027703 0.896000
-0.005664 -0.018889 0.902000
-0.031629 0.001546 0.912000
0.018057 -0.032182 0.900000
0.003918 -0.005426 0.886000
0.016312 -0.038363 0.906000
-0.000831 0.039047 0.894000
-0.020379 0.025859 0.896000
-0.007181 0.015706 0.906000
-0.002320 -0.041118 0.901000
0.021060 0.007213 0.871000
-0.020701 0.027641 0.894000
0.015137 -0.009384 0.881000
-0.022892 -0.009452 0.923000
-0.015521 0.007569 0.914000
0.003206 -0.023793 0.891000
-0.003410 -0.011743 0.895000
0.010482 0.037969 0.886000
0.023515 0.007912 0.869000
-0.022867 -0.033728 0.922000
-0.002310 -0.028383 0.897000
-0.037248 -0.011327 0.921000
0.022852 0.003628 0.871000
0.016188 0.039839 0.879000
-0.011333 0.004165 0.910000
0.017234 0.024949 0.877000
0.011914 0.031698 0.884000
-0.000835 0.027795 0.899000
0.025577 0.048818 0.891000
-0.023694 0.009034 0.910000
-0.003791 0.003740 0.898000
0.023515 0.017568 0.869000
0.011900 0.017125 0.883000
-0.006407 0.027146 0.902000
-0.011708 -0.009693 0.910000
0.022027 0.043556 0.881000
-0.019368 -0.020358 0.918000
-0.003808 0.024547 0.902000
0.007956 0.035170 0.889000
0.003565 -0.004347 0.889000
-0.003795 -0.020676 0.899000
-0.023985 -0.035396 0.936000
-0.030208 -0.012531 0.926000
0.023705 0.032853 0.876000
0.014774 0.040292 0.881000
-0.006771 -0.014418 0.901000
0.007297 -0.035807 0.898000
0.020076 0.031735 0.875000
-0.004156 0.005951 0.897000
-0.009408 0.022021 0.905000
0.024509 0.040201 0.879000
0.005767 0.017627 0.890000
0.001008 -0.026051 0.893000
-0.020523 -0.029836 0.919000
-0.018948 0.004192 0.916000
0.022212 0.030260 0.874000
-0.010922 -0.020860 0.907000
-0.024577 0.003435 0.915000
0.002833 0.009557 0.889000
-0.012859 0.009429 0.912000
-0.030524 -0.010603 0.924000
0.031098 0.022986 0.871000
-0.033675 -0.015216 0.927000
-0.021328 0.014944 0.905000
0.010482 -0.015272 0.886000
0.008453 -0.039351 0.903000
0.014017 -0.001765 0.879000
-0.006428 0.015316 0.905000
-0.020924 -0.001848 0.920000
0.001736 0.047244 0.889000
-0.025579 -0.007941 0.924000
0.013749 -0.014526 0.885000
0.017234 0.025310 0.877000
-0.020523 -0.035131 0.919000
-0.018155 0.007193 0.914000
-0.014156 0.026315 0.899000
-0.029344 0.003795 0.911000
-0.010108 0.026374 0.901000
-0.012095 -0.001455 0.911000
-0.019987 0.026567 0.895000
0.023264 0.001121 0.873000
-0.015428 0.038376 0.887000
-0.006771 -0.028510 0.901000
0.009764 0.033996 0.887000
-0.017155 0.021924 0.901000
0.027030 0.021096 0.867000
-0.021326 -0.004882 0.921000
-0.011271 0.021276 0.905000
-0.034815 0.006018 0.907000
0.006133 0.022022 0.890000
-0.015161 -0.002591 0.915000
-0.010433 0.030318 0.897000
0.004679 0.025009 0.892000
0.014033 0.010547 0.880000
-0.012101 0.042977 0.884000
0.002856 -0.036465 0.896000
-0.003045 0.007420 0.896000
-0.020523 0.000045 0.919000
-0.015145 -0.005221 0.914000
-0.010282 0.044432 0.884000
0.004302 -0.022301 0.890000
-0.015062 -0.019410 0.909000
0.020145 -0.005016 0.878000
0.003569 0.046565 0.890000
-0.005664 -0.019632 0.902000
0.018614 0.022346 0.874000
0.005006 -0.006149 0.885000
0.004282 -0.005061 0.886000
0.019738 0.035377 0.876000
-0.013909 0.018337 0.907000
-0.006771 0.028599 0.901000
-0.005639 0.032569 0.898000
-0.010922 -0.034673 0.907000
0.000638 0.046147 0.889000
-0.005620 0.035039 0.895000
-0.002685 0.032235 0.899000
0.023010 0.040110 0.877000
-0.035460 -0.002212 0.914000
-0.009046 -0.042465 0.906000
-0.033732 0.004903 0.908000
-0.009419 -0.018973 0.906000
-0.021389 0.028680 0.892000
0.003953 0.030216 0.894000
-0.014381 0.035576 0.890000
-0.024887 0.019285 0.899000
0.023845 0.017548 0.868000
-0.012859 -0.003709 0.912000
0.018254 0.012274 0.874000
-0.018174 0.005694 0.915000
-0.010766 0.033160 0.894000
-0.023678 -0.015927 0.924000
-0.020924 -0.002984 0.920000
0.028100 0.021096 0.867000
-0.013235 0.009429 0.912000
0.015154 -0.011210 0.882000
-0.012959 0.033123 0.893000
-0.017459 -0.003729 0.917000
-0.019767 -0.013193 0.919000
-0.008577 0.034341 0.896000
0.025602 0.009678 0.867000
-0.003376 0.046720 0.886000
-0.015521 -0.011240 0.914000
-0.012056 -0.019762 0.908000
0.008331 0.044733 0.890000
0.011148 -0.004670 0.881000
-0.013625 0.001172 0.913000
-0.012042 -0.021234 0.907000
0.006478 0.013552 0.887000
0.010423 0.025788 0.881000
0.021394 0.008637 0.870000
-0.014345 -0.032576 0.911000
0.008629 0.008402 0.883000
-0.012843 0.041204 0.885000
0.003940 0.047351 0.891000
-0.016291 -0.013512 0.915000
-0.010910 -0.003684 0.906000
0.001370 -0.010567 0.889000
0.006092 0.000407 0.884000
-0.001570 -0.032777 0.896000
-0.009824 0.013888 0.909000
-0.038343 -0.001455 0.911000
-0.044692 -0.011769 0.926000
0.003944 -0.031162 0.892000
0.014510 -0.015289 0.887000
-0.012443 0.015758 0.909000
-0.005702 -0.044054 0.908000
0.012208 0.023921 0.879000
-0.028877 -0.003362 0.920000
-0.026720 -0.007941 0.924000
-0.018612 -0.011290 0.918000
0.021752 0.009711 0.870000
0.007938 -0.016750 0.887000
0.000639 -0.014975 0.890000
-0.041901 -0.006357 0.915000
-0.041283 -0.010156 0.918000
0.012991 -0.011949 0.883000
-0.013595 -0.016453 0.911000
0.002104 0.012132 0.890000
-0.008309 0.008631 0.907000
-0.001939 -0.033514 0.896000
-0.000095 0.030352 0.898000
0.019693 0.000403 0.874000
0.005383 0.012821 0.887000
-0.005558 0.045939 0.885000
-0.017345 -0.020202 0.911000
0.006140 0.033415 0.891000
0.001382 -0.037244 0.897000
-0.017409 0.028777 0.895000
0.015790 0.001126 0.877000
0.023184 0.023676 0.870000
-0.027814 0.006412 0.910000
0.001003 0.047557 0.888000
-0.026425 -0.017886 0.927000
0.006449 -0.001047 0.883000
0.029844 0.042757 0.887000
0.006843 0.012456 0.887000
0.000274 0.035447 0.896000
0.028586 0.039975 0.882000
0.016262 0.048379 0.883000
-0.017662 0.014993 0.908000
-0.002644 0.047760 0.885000
0.009709 0.022187 0.882000
0.022520 0.026602 0.872000
0.011511 0.004395 0.881000
0.004684 0.033858 0.893000
0.007956 0.040658 0.889000
0.018254 0.005079 0.874000
0.006471 0.010619 0.886000
-0.034632 -0.010200 0.922000
0.018974 0.012274 0.874000
0.011363 -0.033589 0.898000
-0.012817 -0.042980 0.909000
0.022545 0.028788 0.873000
0.008649 0.010971 0.885000
0.029885 0.010748 0.867000
-0.004922 0.011553 0.902000
-0.004884 0.035776 0.895000
-0.021581 0.020047 0.900000
0.016854 0.010139 0.876000
0.017133 -0.038158 0.910000
0.002099 -0.009093 0.888000
0.011161 0.008393 0.882000
0.025927 0.037264 0.878000
-0.015538 0.001175 0.915000
0.012222 -0.004665 0.880000
0.014412 0.034853 0.881000
-0.014688 0.015758 0.909000
-0.021729 -0.014754 0.922000
0.003577 -0.031529 0.892000
-0.004170 0.030419 0.900000
-0.002697 -0.041953 0.903000
-0.014880 0.026286 0.898000
0.011199 -0.014526 0.885000
-0.039815 -0.010167 0.919000
-0.013952 0.039792 0.886000
0.017273 -0.006830 0.879000
0.012208 0.018494 0.879000
-0.000825 0.045729 0.888000
0.026708 0.049240 0.892000
-0.005677 0.014927 0.904000
-0.025847 -0.002605 0.920000
-0.006279 0.046615 0.884000
0.021777 0.023703 0.871000
-0.013206 -0.036285 0.910000
0.010773 0.001854 0.880000
0.019648 0.017270 0.872000
-0.008098 0.045523 0.884000
0.007667 -0.035437 0.898000
0.001370 -0.012762 0.889000
0.012928 -0.038279 0.904000
0.002498 -0.039591 0.900000
0.015412 0.022037 0.876000
0.011537 0.016398 0.883000
-0.037652 -0.015281 0.931000
-0.014300 0.043389 0.885000
-0.029054 0.017493 0.902000
-0.004911 -0.037368 0.900000
0.011173 0.014217 0.883000
0.002501 -0.040377 0.901000
0.014724 0.001850 0.878000
0.010834 -0.014526 0.885000
-0.006056 0.012709 0.905000
-0.019009 0.020811 0.901000
-0.018194 -0.030492 0.916000
0.017156 0.019087 0.873000
0.014065 0.039975 0.882000
0.031998 0.040521 0.886000
-0.025570 0.022934 0.897000
-0.017421 -0.034225 0.915000
0.006858 0.019802 0.889000
0.031348 0.010403 0.868000
-0.019136 0.014230 0.907000
-0.004824 0.048434 0.884000
-0.013580 -0.037784 0.910000
0.015826 0.028986 0.879000
-0.001568 0.008885 0.895000
0.009023 0.014995 0.886000
-0.002688 0.028937 0.900000
0.003206 -0.027827 0.891000
0.017156 0.017649 0.873000
-0.008309 0.011991 0.907000
0.007974 -0.027460 0.891000
-0.028939 -0.006785 0.922000
0.011135 -0.001405 0.880000
-0.004895 -0.010662 0.897000
0.027544 0.003632 0.872000
-0.016256 -0.036405 0.913000
-0.020300 0.011643 0.909000
0.023158 0.016495 0.869000
-0.002292 0.042536 0.890000
-0.014478 0.029178 0.896000
0.028914 0.006130 0.870000
0.016493 0.002928 0.876000
-0.012082 -0.015686 0.910000
-0.022995 0.007552 0.912000
0.024701 0.001121 0.873000
0.001012 0.036184 0.896000
0.011873 -0.007571 0.881000
0.011563 0.042297 0.885000
0.017895 0.013713 0.874000
-0.007173 -0.042046 0.905000
0.023983 0.001121 0.873000
0.007184 -0.008325 0.884000
-0.026708 0.020742 0.898000
-0.007892 -0.027428 0.902000
0.025602 0.021096 0.867000
0.017254 -0.005739 0.878000
-0.026100 -0.019454 0.929000
0.026286 0.016795 0.866000
-0.013955 0.013903 0.910000
-0.004835 0.045262 0.886000
-0.009387 -0.002185 0.903000
-0.004546 0.028599 0.901000
-0.002679 -0.019523 0.897000
-0.001947 0.022640 0.900000
-0.031386 0.013454 0.905000
-0.028242 -0.008321 0.924000
0.022442 0.007912 0.869000
-0.012429 -0.019388 0.908000
-0.031116 0.006024 0.908000
0.008303 0.017567 0.887000
0.028917 0.039205 0.881000
-0.006036 -0.021117 0.902000
-0.009036 -0.012247 0.905000
0.001374 -0.025288 0.892000
0.007929 -0.014907 0.886000
-0.015062 0.014636 0.909000
-0.009419 -0.042465 0.906000
-0.025791 -0.000710 0.918000
0.024093 0.036139 0.877000
-0.005658 -0.028510 0.901000
-0.003779 -0.014690 0.895000
-0.013017 0.029210 0.897000
0.003581 0.020259 0.893000
0.008256 -0.006491 0.882000
0.010129 0.039837 0.887000
0.019061 -0.005739 0.878000
-0.033248 0.009729 0.905000
-0.000459 0.048288 0.888000
-0.009824 0.012017 0.909000
0.011860 0.001492 0.880000
0.005413 0.041163 0.892000
0.017156 0.015853 0.873000
0.014314 0.018770 0.875000
-0.012814 0.044745 0.883000
0.020366 0.013322 0.872000
-0.010198 0.010146 0.909000
0.015880 -0.010121 0.882000
0.010773 -0.001767 0.880000
-0.010910 -0.002193 0.906000
0.010106 0.031005 0.885000
-0.016650 -0.026288 0.914000
0.019334 0.027382 0.874000
-0.000831 -0.022794 0.895000
-0.026778 -0.012531 0.926000
-0.003410 -0.012112 0.895000
-0.017459 -0.006748 0.917000
-0.000463 -0.027215 0.895000
-0.004515 0.036144 0.895000
-0.013235 -0.001456 0.912000
-0.035975 0.004156 0.908000
0.003573 -0.027827 0.891000
-0.009046 -0.014498 0.906000
-0.020546 -0.021159 0.920000
0.027775 0.007545 0.868000
-0.013148 -0.023448 0.906000
-0.023652 -0.007172 0.923000
-0.019729 0.021899 0.900000
-0.028126 0.008640 0.908000
-0.008282 -0.040139 0.904000
0.021752 0.013650 0.870000
0.002484 0.027672 0.895000
-0.004110 0.045313 0.887000
-0.022919 0.010146 0.909000
0.014379 0.004385 0.879000
0.012556 0.024255 0.878000
0.021181 0.035016 0.876000
-0.006793 0.022741 0.904000
-0.032467 0.010835 0.904000
-0.014714 0.037323 0.888000
0.030939 0.042027 0.887000
0.002470 0.013597 0.890000
-0.024708 0.011977 0.906000
0.028262 0.026243 0.872000
0.007590 0.031877 0.889000
-0.035758 -0.000330 0.912000
-0.012095 0.004544 0.911000
-0.040351 -0.005221 0.914000
-0.022396 0.016398 0.903000
0.007710 -0.039351 0.903000
0.014741 0.009088 0.879000
0.011914 -0.012691 0.884000
0.003214 0.018421 0.893000
-0.004535 0.003004 0.899000
-0.018409 0.013872 0.908000
0.009356 -0.007952 0.883000
-0.012095 0.001920 0.911000
0.011376 -0.034737 0.899000
0.024621 0.043291 0.883000
0.016969 -0.010121 0.882000
0.001387 -0.040332 0.900000
-0.005909 0.047652 0.883000
-0.031183 -0.007157 0.921000
-0.038803 -0.004088 0.913000
-0.004900 0.006328 0.898000
0.022110 0.010427 0.870000
0.007599 0.041803 0.890000
0.020122 -0.004288 0.877000
-0.007537 -0.014466 0.904000
0.011498 -0.001405 0.880000
-0.003045 0.012583 0.896000
0.006928 -0.036176 0.898000
-0.022013 0.000423 0.918000
0.001382 0.032164 0.897000
-0.009046 -0.013007 0.906000
-0.018612 -0.007133 0.918000
-0.010503 -0.025228 0.903000
0.024093 0.035056 0.877000
0.010883 -0.018617 0.889000
-0.027875 0.004174 0.912000
-0.025763 -0.000332 0.917000
0.011927 0.043389 0.885000
-0.032095 0.009718 0.904000
0.023264 0.028788 0.873000
-0.000834 0.018524 0.898000
0.010648 -0.035516 0.900000
0.006140 -0.029294 0.891000
0.017675 0.045006 0.881000
0.004647 0.005514 0.886000
-0.032912 0.010486 0.906000
0.026999 0.018934 0.866000
0.013324 0.011284 0.881000
0.008294 -0.013449 0.886000
-0.014377 -0.009725 0.913000
-0.006756 -0.008466 0.899000
-0.001937 0.014042 0.895000
0.011498 0.000768 0.880000
-0.024058 -0.010223 0.924000
-0.026895 -0.000332 0.917000
-0.021303 -0.033276 0.920000
0.008668 0.015377 0.887000
-0.020145 -0.028323 0.919000
-0.027013 -0.005261 0.921000
-0.026485 0.014168 0.903000
-0.009759 0.024574 0.903000
0.023488 0.008974 0.868000
0.027404 0.038392 0.879000
-0.021705 -0.021182 0.921000
-0.015062 -0.020158 0.909000
-0.015487 -0.041620 0.912000
-0.036450 -0.009800 0.920000
-0.035227 0.004156 0.908000
-0.020947 -0.010568 0.921000
-0.000831 -0.018354 0.894000
-0.024572 0.017845 0.901000
-0.000095 0.018524 0.898000
0.011846 0.025006 0.879000
0.021418 0.015099 0.871000
0.004663 -0.016787 0.889000
0.006133 0.024220 0.890000
0.006500 0.023854 0.890000
-0.010549 -0.020487 0.907000
0.002852 0.031724 0.895000
-0.033384 -0.006763 0.919000
0.020701 0.008288 0.871000
-0.018946 0.023699 0.898000
-0.026169 -0.001088 0.918000
-0.006414 0.038697 0.903000
-0.003783 -0.016919 0.896000
0.009742 0.020442 0.885000
0.001004 -0.013128 0.889000
-0.023678 -0.015166 0.924000
0.012555 -0.038279 0.904000
-0.002292 0.042902 0.890000
-0.041193 -0.007872 0.916000
0.016168 -0.031002 0.898000
-0.035382 0.006802 0.912000
-0.003406 -0.013938 0.894000
0.020389 0.023398 0.873000
-0.016113 0.018669 0.905000
0.021752 0.005772 0.870000
-0.012484 0.004925 0.912000
-0.020123 -0.030937 0.918000
0.010896 -0.020103 0.890000
0.022800 0.006839 0.869000
-0.023066 -0.023303 0.930000
0.010482 0.035416 0.886000
0.032063 0.018263 0.868000
-0.016523 0.039107 0.887000
0.015120 0.035900 0.880000
0.013702 -0.010484 0.882000
-0.022867 -0.006785 0.922000
-0.028364 -0.015232 0.928000
-0.022025 0.017513 0.903000
0.029245 0.046617 0.891000
-0.007142 -0.001068 0.901000
-0.015145 -0.008607 0.914000
0.012599 -0.008296 0.881000
0.019488 -0.007934 0.881000
0.005774 0.024614 0.891000
-0.036924 -0.002585 0.913000
-0.033457 -0.005641 0.921000
0.017977 -0.005739 0.878000
-0.029247 0.007145 0.908000
-0.006421 -0.041255 0.904000
0.004287 -0.013099 0.887000
0.008256 -0.004313 0.882000
-0.003787 0.035117 0.897000
-0.037219 0.003045 0.911000
0.017335 -0.033701 0.901000
-0.011283 0.020181 0.906000
0.001749 0.035078 0.896000
0.026286 0.011449 0.866000
0.031669 0.041662 0.887000
0.010152 -0.019349 0.889000
-0.009377 0.026032 0.902000
-0.015880 -0.034150 0.913000
0.025245 0.012175 0.867000
-0.015046 -0.022004 0.908000
0.025959 0.020740 0.867000
0.005864 0.001535 0.905000
-0.008654 -0.022280 0.904000
-0.023962 0.012350 0.906000
0.016222 -0.033701 0.901000
0.007778 -0.041200 0.911000
-0.041039 -0.013601 0.921000
-0.030061 0.004914 0.910000
-0.015810 -0.023525 0.909000
0.015464 0.030433 0.879000
0.010470 0.018256 0.885000
0.003573 -0.028193 0.891000
-0.015215 0.028071 0.896000
0.004684 0.031653 0.893000
-0.020546 -0.012072 0.920000
-0.005962 0.039650 0.891000
-0.017082 -0.001464 0.917000
0.002833 0.008825 0.889000
0.005395 0.015046 0.889000
-0.021187 0.004564 0.915000
-0.010131 -0.005159 0.903000
-0.008272 -0.037121 0.903000
0.027355 0.017151 0.866000
0.001382 0.028841 0.897000
-0.024174 0.004183 0.914000
-0.007883 -0.000326 0.901000
-0.018571 -0.034640 0.916000
0.021615 0.042010 0.879000
-0.003791 -0.034328 0.898000
-0.026605 -0.003362 0.920000
0.009698 0.025788 0.881000
0.006133 0.019825 0.890000
-0.001198 0.011819 0.894000
0.021566 -0.003205 0.877000
0.002111 -0.032667 0.893000
0.021394 0.007204 0.870000
-0.000465 0.025575 0.899000
0.001380 0.024384 0.896000
-0.003422 -0.034698 0.898000
0.020366 0.009016 0.872000
-0.028684 -0.011007 0.926000
0.007208 -0.015289 0.887000
0.021777 0.015099 0.871000
-0.006786 -0.019282 0.903000
-0.017817 0.004192 0.916000
0.011524 -0.007943 0.882000
-0.003795 -0.026596 0.899000
-0.024253 0.001555 0.917000
-0.013940 -0.019036 0.909000
-0.014001 0.001924 0.913000
-0.003808 0.017864 0.902000
0.026642 0.016439 0.866000
-0.005287 -0.025543 0.901000
-0.005646 0.007075 0.899000
-0.013920 0.043704 0.884000
0.001013 0.029579 0.897000
0.012599 0.010922 0.881000
0.026049 0.025824 0.870000
-0.014345 -0.016828 0.911000
-0.011346 0.010169 0.911000
-0.019707 0.022245 0.899000
-0.015145 -0.008983 0.914000
0.012991 0.042565 0.883000
-0.013610 -0.004835 0.912000
0.001374 -0.028225 0.892000
0.008766 -0.034290 0.897000
-0.043125 -0.010522 0.917000
-0.013955 -0.036285 0.910000
0.015017 0.017670 0.874000
0.008247 -0.001044 0.881000
-0.013625 -0.001834 0.913000
0.009830 -0.029727 0.893000
0.014049 0.033403 0.881000
0.019555 0.047706 0.884000
0.009044 0.038420 0.888000
-0.037219 -0.000705 0.911000
-0.015538 0.000798 0.915000
-0.011566 0.027795 0.899000
0.012278 0.043704 0.884000
-0.027891 -0.009853 0.925000
0.002852 0.037249 0.895000
-0.009802 0.019083 0.907000
0.013718 -0.012313 0.883000
-0.001196 -0.012438 0.892000
0.004673 0.018013 0.891000
-0.002310 -0.030968 0.897000
0.027061 0.007545 0.868000
-0.043882 -0.007569 0.925000
0.018296 0.031411 0.876000
0.006500 0.019092 0.890000
-0.012859 0.005675 0.912000
0.026680 0.038754 0.879000
0.014049 0.029777 0.881000
-0.007927 0.020554 0.906000
-0.000095 0.024808 0.898000
-0.015846 0.034111 0.890000
-0.039437 -0.010167 0.919000
0.003217 0.028745 0.894000
-0.004933 0.019020 0.904000
-0.026719 0.005669 0.911000
-0.008291 0.021276 0.905000
-0.000465 0.032569 0.898000
-0.004541 -0.022181 0.900000
0.017296 -0.031407 0.899000
0.025929 0.015013 0.866000
0.024454 0.036139 0.877000
0.011927 0.046668 0.885000
0.010411 -0.002492 0.880000
0.000639 -0.009846 0.890000
-0.031594 0.003045 0.911000
-0.020947 -0.007915 0.921000
-0.007149 -0.036338 0.902000
-0.013191 -0.029511 0.909000
-0.023652 -0.031485 0.923000
0.024532 0.014673 0.867000
0.017854 0.016194 0.872000
-0.013679 0.033453 0.892000
-0.024658 -0.000710 0.918000
0.009105 -0.031232 0.894000
0.017234 0.027837 0.877000
-0.004096 0.047706 0.884000
0.015376 0.015511 0.874000
0.006812 0.001861 0.883000
0.020030 0.021961 0.873000
0.007232 -0.022301 0.890000
-0.003783 -0.010650 0.896000
0.022623 0.035737 0.876000
-0.019368 -0.030559 0.918000
-0.002300 0.039371 0.893000
-0.009543 0.045472 0.883000
-0.002676 0.012583 0.896000
0.018233 0.019087 0.873000
-0.008682 0.009004 0.907000
0.018614 0.012633 0.874000
0.009808 0.045150 0.891000
-0.000464 0.035486 0.897000
0.008717 -0.028959 0.892000
0.007590 0.034438 0.889000
-0.020167 -0.016615 0.920000
-0.000837 -0.041118 0.901000
0.030598 0.010391 0.867000
-0.030539 0.013409 0.902000
0.023845 0.007902 0.868000
-0.037046 -0.005610 0.916000
0.018839 -0.033739 0.902000
-0.010934 -0.001076 0.908000
-0.043172 -0.012045 0.918000
-0.014298 -0.026863 0.908000
-0.019143 0.032645 0.890000
-0.024465 -0.010995 0.925000
0.004684 0.030918 0.893000
-0.008263 0.000416 0.902000
0.027711 0.018221 0.866000
-0.026634 -0.004882 0.921000
0.028847 0.021835 0.868000
0.014379 0.007279 0.879000
-0.014361 -0.014594 0.912000
-0.012845 0.010919 0.911000
-0.002282 0.047085 0.886000
0.016892 0.035096 0.878000
-0.002320 0.024520 0.901000
0.028479 0.046199 0.890000
0.025989 0.007188 0.868000
-0.013235 0.008303 0.912000
-0.009066 0.008267 0.908000
0.022826 0.020095 0.870000
0.027871 0.025854 0.871000
-0.003437 0.022691 0.902000
0.019648 0.005427 0.872000
-0.020979 0.014960 0.906000
0.016493 0.006173 0.876000
0.033130 0.040932 0.887000
-0.009377 -0.028170 0.902000
-0.016309 -0.004102 0.916000
-0.000832 0.036184 0.896000
0.016931 0.043506 0.880000
-0.003791 0.033678 0.898000
-0.029458 0.013053 0.903000
0.024010 0.000043 0.874000
0.007599 -0.022301 0.890000
-0.026946 0.010859 0.906000
0.015862 -0.009022 0.881000
0.022110 0.014008 0.870000
0.018317 0.038305 0.877000
-0.015266 0.043336 0.899000
-0.004541 -0.027737 0.900000
-0.009419 -0.015990 0.906000
0.012361 -0.018271 0.890000
0.010482 0.039427 0.886000
0.014444 0.045835 0.883000
-0.012930 0.036716 0.891000
0.029114 0.043487 0.887000
0.013035 -0.015637 0.886000
-0.016309 -0.000709 0.916000
-0.007521 -0.025571 0.902000
0.007893 0.005126 0.882000
-0.008309 0.007511 0.907000
0.005851 0.000416 0.903000
0.001374 -0.025655 0.892000
-0.037965 -0.010178 0.920000
-0.030904 -0.010603 0.924000
-0.031386 -0.014071 0.927000
0.021471 0.049750 0.888000
0.016969 -0.009758 0.882000
-0.020265 0.032682 0.891000
-0.002313 0.032569 0.898000
-0.006029 -0.038522 0.901000
-0.006029 -0.025543 0.901000
-0.011708 -0.005573 0.910000
0.022826 0.022244 0.870000
-0.019051 0.018999 0.903000
-0.000095 -0.034951 0.895000
-0.017856 -0.003355 0.918000
-0.009016 0.001903 0.903000
0.006858 -0.020080 0.889000
-0.022909 0.028009 0.894000
0.003935 0.046565 0.890000
0.003217 0.023593 0.894000
0.024649 -0.001412 0.884000
0.022649 0.039388 0.877000
0.018380 -0.007563 0.880000
0.011199 0.036104 0.885000
-0.012634 0.030284 0.896000
-0.009046 -0.012634 0.906000
-0.033658 0.008248 0.906000
-0.029441 0.000421 0.914000
-0.013386 0.029210 0.897000
0.008678 0.033668 0.888000
-0.019220 0.010169 0.911000
0.020030 0.020524 0.873000
0.020214 0.045006 0.881000
-0.025254 -0.015199 0.926000
-0.020145 -0.037779 0.919000
-0.022512 -0.015910 0.923000
0.004307 -0.030027 0.891000
0.016531 0.031121 0.878000
0.008341 -0.027460 0.891000
-0.014769 -0.003341 0.914000
-0.017798 0.006071 0.915000
-0.035640 0.001916 0.909000
0.005370 0.005872 0.885000
0.005364 -0.006142 0.884000
-0.019010 -0.003359 0.919000
0.000644 0.035117 0.897000
-0.011720 0.010919 0.911000
0.014033 0.009460 0.880000
-0.017100 -0.041894 0.918000
0.008303 0.016837 0.887000
0.031169 0.008667 0.873000
0.006828 -0.010520 0.885000
-0.028126 0.008267 0.908000
0.021902 0.036819 0.876000
0.019400 0.039027 0.877000
0.015429 -0.032111 0.898000
0.016854 0.004370 0.876000
-0.008635 0.039768 0.902000
0.023158 0.008269 0.869000
0.001004 -0.010201 0.889000
-0.029478 -0.012926 0.927000
0.024815 0.035056 0.877000
-0.000465 0.020372 0.898000
-0.024058 -0.020110 0.924000
-0.012457 0.013903 0.910000
0.003553 -0.007614 0.886000
0.025126 0.046826 0.888000
0.023732 0.039388 0.877000
-0.028683 0.014152 0.902000
-0.010584 0.011656 0.910000
-0.012620 0.030987 0.895000
0.009044 0.043537 0.888000
-0.020947 -0.007536 0.921000
0.003561 -0.013845 0.888000
-0.034594 0.001170 0.911000
-0.005299 0.024202 0.903000
-0.018990 -0.014690 0.918000
0.014379 0.004023 0.879000
-0.000463 -0.031600 0.894000
-0.012817 -0.042606 0.909000
-0.008836 0.044118 0.885000
0.006843 -0.015654 0.887000
0.018678 0.038305 0.877000
0.007667 -0.035068 0.898000
-0.004911 -0.029589 0.900000
0.017776 0.050367 0.886000
0.014017 -0.003213 0.879000
-0.004184 0.017513 0.903000
0.000273 -0.032704 0.894000
0.001015 -0.039547 0.899000
-0.022108 -0.007544 0.922000
-0.009377 -0.006267 0.902000
0.015051 0.014465 0.876000
-0.013999 0.036268 0.889000
0.006507 0.041117 0.891000
0.000641 -0.019803 0.893000
-0.043549 -0.006815 0.926000
-0.008654 -0.023396 0.904000
0.010423 -0.005396 0.881000
0.004316 0.030550 0.893000
-0.006386 -0.008096 0.899000
-0.008692 0.013125 0.908000
-0.020546 -0.018887 0.920000
0.015085 -0.005377 0.878000
-0.035266 0.002664 0.909000
0.017854 0.017629 0.872000
-0.006450 -0.044427 0.908000
0.001747 0.019199 0.895000
0.009940 -0.038608 0.903000
0.000275 0.025177 0.898000
0.023184 0.005414 0.870000
-0.027570 -0.012926 0.927000
-0.017467 0.025177 0.898000
-0.033258 -0.013675 0.926000
-0.012592 0.033490 0.893000
-0.009315 0.032128 0.896000
0.016587 0.045369 0.881000
0.010458 -0.011963 0.884000
0.002109 -0.030061 0.892000
-0.019729 0.021159 0.900000
-0.023678 -0.011363 0.924000
0.005034 -0.021202 0.890000
0.001736 0.046879 0.889000
-0.013551 0.017236 0.908000
0.025959 0.010391 0.867000
-0.010910 -0.032397 0.906000
-0.010838 0.027456 0.900000
-0.003795 -0.026226 0.899000
-0.001937 0.012937 0.895000
-0.021653 0.017141 0.903000
-0.007770 0.041709 0.888000
-0.023272 -0.007932 0.923000
-0.037750 -0.014406 0.924000
0.002111 -0.031565 0.893000
0.017956 0.034334 0.877000
-0.009387 -0.001814 0.903000
-0.010934 -0.014156 0.908000
-0.007181 0.010486 0.906000
-0.025081 0.011604 0.906000
-0.006665 0.043487 0.887000
0.011199 0.038290 0.885000
-0.007521 0.027146 0.902000
-0.034404 0.006757 0.906000
0.006959 -0.039308 0.902000
0.002104 0.045466 0.890000
-0.004165 -0.028076 0.899000
-0.026797 0.021553 0.901000
