-0.006761 0.019703 0.853000
0.003044 -0.012493 0.846000
0.003381 0.044800 0.843000
-0.006030 0.038480 0.849000
-0.030074 -0.010187 0.857000
0.020582 0.004864 0.837000
-0.002527 0.011532 0.846000
-0.023073 0.013831 0.859000
0.013905 -0.045438 0.850000
-0.010308 0.021886 0.856000
-0.003223 0.026853 0.846000
-0.023234 -0.014198 0.865000
0.013643 0.022353 0.834000
-0.008156 0.005653 0.852000
0.013363 -0.002373 0.838000
0.012956 0.021323 0.834000
0.006098 0.029597 0.835000
-0.019983 0.003950 0.863000
-0.028023 -0.009857 0.859000
-0.005363 -0.012963 0.854000
0.005079 0.027256 0.837000
0.006932 -0.046651 0.853000
0.016752 0.005540 0.835000
-0.015684 0.019179 0.861000
0.020508 0.013085 0.834000
-0.016806 0.001821 0.864000
0.010032 -0.040096 0.848000
-0.018186 0.011750 0.862000
0.030806 -0.030853 0.853000
0.000951 0.041281 0.842000
-0.022666 0.021559 0.857000
0.006891 -0.025437 0.848000
-0.019492 0.034962 0.857000
0.003736 0.048036 0.845000
0.013708 -0.002028 0.838000
0.008996 -0.041541 0.849000
-0.019184 0.026205 0.859000
0.002009 -0.031444 0.850000
-0.011759 0.007820 0.859000
-0.023100 0.009953 0.860000
0.010923 0.023095 0.836000
-0.023019 0.021559 0.857000
-0.030179 -0.024027 0.860000
-0.016564 -0.030035 0.870000
0.009213 0.041036 0.837000
0.019296 -0.013112 0.841000
-0.030214 -0.029370 0.861000
-0.000435 0.030156 0.841000
0.016853 -0.024160 0.840000
0.016200 -0.031495 0.842000
-0.012924 -0.020274 0.866000
0.014312 0.024383 0.833000
0.002345 0.049080 0.845000
-0.014200 0.032493 0.857000
-0.027573 0.006736 0.856000
-0.015455 -0.019249 0.868000
-0.007437 0.050769 0.850000
-0.000782 0.032271 0.842000
-0.022063 0.009611 0.861000
0.014154 -0.036085 0.844000
-0.032228 -0.022558 0.858000
-0.021255 0.030024 0.857000
-0.007455 0.014419 0.852000
-0.019251 0.014589 0.862000
-0.011325 0.043576 0.853000
-0.010368 -0.009880 0.861000
0.017890 -0.013096 0.840000
-0.025043 -0.029184 0.866000
0.019712 -0.033654 0.844000
0.015543 -0.035391 0.844000
0.020334 -0.014150 0.841000
0.015304 0.030823 0.831000
-0.013977 -0.012774 0.865000
-0.007516 -0.014100 0.859000
-0.030462 -0.014083 0.858000
0.008975 -0.032030 0.847000
-0.013945 -0.001378 0.863000
0.024605 -0.025694 0.845000
-0.008517 0.026724 0.853000
0.024634 -0.027466 0.846000
-0.000441 -0.027661 0.852000
-0.014621 0.013154 0.861000
0.001294 0.028737 0.840000
-0.023454 0.007122 0.860000
-0.015775 -0.007086 0.866000
-0.003284 -0.046434 0.862000
-0.015097 -0.022821 0.868000
-0.012466 0.015245 0.859000
-0.027119 -0.029473 0.864000
0.012270 0.026815 0.834000
-0.015794 -0.013517 0.867000
-0.018605 -0.002805 0.865000
0.032135 -0.021674 0.851000
-0.028763 -0.017302 0.860000
-0.008982 -0.033740 0.864000
0.001644 0.037469 0.842000
-0.020315 0.011396 0.862000
0.010705 -0.030948 0.846000
-0.007179 -0.021220 0.861000
-0.003235 0.018911 0.849000
0.005164 -0.035334 0.851000
-0.007915 -0.034807 0.864000
-0.029253 -0.038007 0.864000
0.011680 -0.011381 0.841000
-0.006753 0.015822 0.852000
-0.016884 -0.018534 0.868000
-0.008961 -0.019471 0.862000
0.010591 0.006242 0.837000
-0.018786 0.036373 0.857000
-0.003920 0.046700 0.846000
-0.009219 0.030937 0.853000
-0.009956 0.017658 0.856000
-0.013684 -0.034651 0.869000
-0.003589 0.019283 0.850000
0.012343 -0.005138 0.839000
-0.016806 0.005021 0.864000
-0.008271 -0.037296 0.864000
-0.026285 -0.006683 0.860000
0.005885 -0.047058 0.854000
-0.020409 -0.009937 0.866000
-0.013479 0.038444 0.856000
0.014743 -0.002373 0.838000
-0.016767 0.011041 0.862000
-0.032619 -0.030363 0.859000
-0.010380 -0.013439 0.862000
0.020508 0.014458 0.834000
0.014087 -0.014133 0.840000
-0.016709 0.028680 0.859000
-0.032341 -0.037167 0.861000
-0.007096 0.009149 0.851000
-0.024133 0.009588 0.859000
-0.002181 0.025839 0.847000
-0.033088 -0.037210 0.862000
0.012598 0.038097 0.833000
0.019296 -0.028342 0.841000
-0.034507 0.003590 0.862000
-0.016488 -0.007799 0.866000
-0.010661 0.020124 0.856000
0.002683 0.042667 0.842000
-0.008972 -0.028018 0.863000
0.006127 0.011092 0.839000
0.000614 -0.036951 0.856000
-0.008836 0.043073 0.850000
-0.007814 0.023213 0.853000
0.008190 0.002111 0.838000
-0.008930 -0.010564 0.859000
0.001294 0.030811 0.840000
-0.007824 -0.003473 0.854000
0.015740 0.001762 0.836000
-0.017416 0.027619 0.859000
-0.024430 0.013446 0.857000
-0.002560 -0.032761 0.857000
0.021195 0.014115 0.834000
-0.008982 -0.032318 0.864000
-0.025901 0.000750 0.859000
-0.000090 -0.032608 0.853000
0.007607 -0.038441 0.850000
0.003405 -0.027563 0.849000
0.014171 -0.037171 0.845000
-0.028479 -0.038762 0.873000
0.000258 0.025747 0.844000
-0.031081 0.036254 0.846000
0.010222 0.026848 0.835000
0.014137 -0.029797 0.843000
0.005116 -0.011061 0.843000
-0.007833 -0.009107 0.855000
0.001654 -0.012160 0.847000
-0.010987 0.036949 0.854000
0.018405 0.017505 0.832000
0.011912 0.034326 0.833000
0.003019 0.031465 0.839000
0.002351 -0.015297 0.847000
0.019021 0.028361 0.829000
-0.010248 0.047327 0.851000
0.029368 -0.030115 0.852000
0.009235 -0.005829 0.839000
-0.031375 -0.000661 0.854000
-0.019318 -0.004229 0.865000
-0.031522 -0.020440 0.858000
-0.009316 -0.015923 0.862000
0.016257 -0.037519 0.845000
0.006826 -0.002724 0.840000
-0.024029 -0.030681 0.868000
-0.022938 0.037300 0.854000
0.003381 0.017737 0.843000
0.018792 0.011712 0.834000
-0.006753 0.015471 0.852000
-0.001826 0.043811 0.844000
-0.008878 0.002503 0.854000
0.013220 -0.046542 0.851000
-0.017893 -0.002449 0.865000
0.007146 0.036213 0.837000
-0.028211 0.013399 0.854000
-0.032896 -0.019358 0.857000
-0.023234 -0.016334 0.865000
-0.005338 0.026280 0.850000
0.019595 -0.003412 0.839000
0.021409 0.031773 0.829000
0.004746 0.038717 0.839000
-0.026805 0.018320 0.854000
0.001990 0.011131 0.842000
0.000968 -0.040874 0.857000
-0.014923 0.031825 0.858000
0.003381 0.045494 0.843000
-0.007428 0.042673 0.849000
-0.035145 -0.012833 0.869000
0.005437 0.041825 0.839000
0.004094 0.049893 0.847000
0.009569 -0.002028 0.838000
0.002744 0.054261 0.861000
0.007835 0.039658 0.837000
0.004763 0.022221 0.842000
-0.010723 -0.007754 0.861000
0.011334 -0.011035 0.841000
0.021449 -0.029833 0.844000
-0.005350 0.003549 0.852000
0.018972 -0.029415 0.842000
-0.027475 -0.027339 0.864000
0.018405 0.018533 0.832000
0.017014 0.020905 0.831000
0.004075 0.019472 0.843000
0.012055 -0.019735 0.843000
-0.018433 0.038489 0.857000
-0.009968 -0.003132 0.857000
-0.030672 0.002854 0.854000
0.004395 0.032462 0.838000
0.010949 0.042465 0.838000
-0.011786 0.001460 0.861000
0.020410 0.026345 0.830000
0.016652 0.036252 0.830000
-0.008497 0.038920 0.851000
-0.007472 -0.006285 0.854000
0.016994 0.026345 0.830000
0.007835 0.035524 0.837000
0.011294 0.000386 0.838000
0.000614 -0.035189 0.856000
-0.025101 -0.021750 0.868000
-0.032474 0.037299 0.846000
-0.020598 0.023730 0.859000
-0.004622 0.048499 0.847000
0.027039 -0.019782 0.845000
-0.000783 0.044453 0.843000
0.002023 -0.040121 0.856000
0.000259 0.023023 0.846000
0.017377 0.019560 0.832000
-0.019492 0.035668 0.857000
0.015088 -0.002373 0.838000
-0.030039 -0.002072 0.856000
-0.000089 0.046882 0.843000
-0.010623 0.039714 0.853000
0.005521 -0.037830 0.852000
-0.025607 -0.005982 0.861000
0.014020 0.008643 0.836000
-0.020646 0.012446 0.861000
-0.013605 -0.006003 0.864000
-0.026255 -0.000311 0.859000
-0.013280 -0.018848 0.866000
-0.011378 0.020500 0.857000
-0.023315 -0.028180 0.868000
0.027039 -0.019434 0.845000
-0.013158 0.025821 0.858000
-0.017873 0.004310 0.864000
0.007473 0.030284 0.835000
-0.005768 -0.037210 0.862000
-0.018060 0.042320 0.856000
-0.015028 -0.002802 0.864000
0.022812 -0.025287 0.843000
-0.014976 0.013863 0.861000
-0.025637 -0.011310 0.862000
0.008975 -0.030984 0.847000
-0.015611 0.036020 0.857000
0.003736 -0.012826 0.845000
-0.003618 -0.021474 0.857000
-0.021884 0.040464 0.854000
0.006465 0.040740 0.838000
0.013774 -0.024217 0.842000
0.023478 -0.020405 0.842000
-0.018186 0.014589 0.862000
-0.002926 -0.043900 0.861000
-0.023100 0.007830 0.860000
-0.016747 0.020596 0.861000
-0.031338 0.004957 0.853000
0.011053 -0.034430 0.846000
-0.019115 -0.035488 0.872000
0.017997 0.030749 0.829000
0.012329 -0.000648 0.838000
-0.033445 -0.001362 0.853000
0.003393 -0.014583 0.846000
0.016853 -0.012750 0.840000
0.018382 0.019536 0.831000
-0.001826 0.043464 0.844000
0.001302 0.019866 0.845000
-0.021961 0.026144 0.857000
0.001297 0.035736 0.842000
0.015106 -0.006520 0.839000
-0.005413 -0.038984 0.862000
-0.016564 -0.026813 0.870000
-0.006478 -0.032952 0.862000
-0.008507 0.011614 0.852000
0.010394 -0.043637 0.849000
0.014003 0.014819 0.835000
-0.011868 -0.031716 0.867000
-0.014941 0.027619 0.859000
-0.012295 -0.037282 0.872000
0.011483 -0.047649 0.852000
0.006465 0.010733 0.838000
0.010975 -0.006527 0.840000
-0.006387 0.012986 0.850000
-0.014923 0.030765 0.858000
-0.012894 -0.013470 0.864000
-0.022965 0.032417 0.855000
0.015470 -0.010676 0.840000
0.017869 -0.016534 0.839000
-0.027150 -0.030575 0.865000
-0.014587 0.025498 0.859000
0.014278 0.034928 0.831000
-0.000798 -0.043091 0.859000
-0.023725 0.016973 0.857000
-0.005701 0.020030 0.852000
-0.021454 -0.008502 0.865000
-0.026485 0.014822 0.855000
0.011240 0.034024 0.834000
-0.000091 -0.044806 0.858000
-0.035104 -0.014604 0.868000
-0.001503 -0.035271 0.858000
0.021002 -0.016208 0.840000
0.000604 0.039548 0.842000
-0.033055 0.003549 0.852000
0.005878 -0.042790 0.853000
0.014796 -0.026265 0.841000
0.015433 -0.004442 0.838000
0.012598 0.030897 0.833000
0.010504 0.052660 0.858000
0.016330 0.025693 0.831000
0.006480 0.016291 0.840000
0.018471 0.007946 0.835000
-0.020169 -0.034730 0.871000
-0.001131 0.035127 0.844000
-0.023290 0.042924 0.854000
0.000952 0.013920 0.843000
0.023513 0.028087 0.831000
-0.030995 -0.037963 0.863000
-0.016281 -0.037008 0.874000
-0.022746 0.007830 0.860000
-0.005674 0.040179 0.848000
0.016487 -0.017915 0.839000
-0.031228 0.018234 0.850000
0.014962 0.031849 0.831000
0.016833 -0.018606 0.839000
-0.016020 0.025174 0.860000
0.000605 0.035779 0.843000
0.004060 0.011105 0.840000
-0.004627 0.012956 0.848000
-0.006116 -0.032205 0.861000
0.005417 0.029976 0.836000
-0.031205 -0.021524 0.859000
0.006105 0.031353 0.836000
0.024576 -0.021496 0.844000
0.000970 -0.047333 0.859000
0.010897 0.034024 0.834000
-0.030923 -0.029725 0.861000
-0.031615 0.013702 0.851000
0.010949 -0.002718 0.838000
0.000608 -0.010765 0.847000
-0.031801 -0.009470 0.856000
0.006208 -0.034593 0.850000
-0.033055 0.004250 0.852000
0.001993 0.016002 0.843000
-0.029471 -0.018363 0.860000
-0.022666 0.022969 0.857000
0.027517 -0.028961 0.849000
-0.028277 0.001804 0.856000
0.001644 0.012171 0.842000
0.018236 -0.013788 0.840000
-0.031965 0.010550 0.851000
-0.028813 0.024910 0.851000
-0.018735 -0.030787 0.871000
-0.032627 0.011937 0.850000
-0.003610 -0.030925 0.855000
-0.002875 0.048790 0.846000
-0.001839 -0.010803 0.850000
0.007607 -0.039141 0.850000
0.021119 0.023641 0.831000
-0.000797 -0.040922 0.858000
0.004797 -0.032417 0.848000
0.011708 -0.019041 0.843000
0.007232 -0.020526 0.847000
0.015470 -0.010330 0.840000
-0.024715 -0.029218 0.867000
0.012041 -0.017286 0.842000
-0.009581 0.007775 0.854000
-0.029231 0.014436 0.853000
0.007172 -0.000650 0.840000
-0.028023 -0.008089 0.859000
0.011984 -0.000304 0.838000
-0.023019 0.019795 0.857000
-0.009197 0.050479 0.851000
-0.025194 0.003578 0.859000
0.004060 0.033923 0.840000
0.010406 -0.045438 0.850000
0.025012 -0.028544 0.847000
0.008514 0.039267 0.836000
0.014137 -0.031532 0.843000
-0.020886 -0.033655 0.871000
-0.005748 -0.019756 0.859000
-0.009592 0.009192 0.855000
-0.022089 0.005010 0.862000
0.018604 -0.009650 0.841000
-0.014300 -0.000668 0.863000
0.008307 -0.038791 0.850000
-0.000786 0.016755 0.846000
0.017482 0.000041 0.837000
-0.003966 -0.030961 0.856000
0.015359 0.012742 0.834000
-0.017618 -0.019986 0.869000
-0.027860 0.012696 0.854000
-0.024386 -0.035325 0.868000
0.011708 -0.018000 0.843000
-0.026962 -0.002432 0.859000
0.008277 -0.024012 0.847000
0.001993 0.044453 0.843000
-0.006737 0.012986 0.850000
-0.025312 -0.016652 0.863000
0.005782 0.007293 0.839000
-0.032742 -0.000309 0.853000
0.024314 -0.031333 0.847000
-0.009693 -0.025917 0.864000
0.011040 -0.029868 0.845000
-0.014757 -0.030359 0.869000
-0.021734 0.006429 0.862000
0.002019 -0.035107 0.854000
-0.031081 0.037647 0.846000
-0.021429 -0.003158 0.864000
-0.002518 0.029534 0.843000
0.003772 -0.037172 0.853000
-0.015045 -0.007434 0.865000
0.017158 -0.003753 0.838000
-0.032078 -0.004527 0.854000
0.014553 -0.040048 0.847000
-0.003254 -0.015423 0.854000
0.012900 -0.048056 0.853000
0.012764 -0.032959 0.844000
0.014980 0.024696 0.832000
0.006534 -0.030984 0.847000
0.012127 -0.043237 0.848000
0.009914 0.000386 0.838000
0.003728 0.021900 0.843000
-0.006123 -0.034371 0.862000
0.001988 0.037771 0.841000
-0.033756 0.006354 0.852000
0.007863 -0.005490 0.840000
-0.000437 0.035474 0.844000
0.016046 0.009309 0.834000
0.013407 -0.048974 0.863000
0.016161 -0.015516 0.840000
0.014450 -0.023150 0.841000
0.007163 0.002804 0.839000
0.022144 -0.029138 0.844000
-0.034627 0.013215 0.865000
0.010382 -0.039398 0.848000
-0.022261 0.031713 0.855000
-0.027540 0.009895 0.855000
0.005851 -0.026166 0.849000
-0.027220 0.008498 0.856000
-0.006387 0.010187 0.850000
0.010819 0.051068 0.855000
-0.018627 -0.008512 0.866000
0.001305 -0.010416 0.847000
-0.014383 -0.024608 0.868000
0.022541 0.020955 0.833000
-0.008517 0.007064 0.853000
0.012432 -0.031955 0.845000
-0.019560 0.021280 0.860000
-0.008517 0.004957 0.853000
0.011611 0.006579 0.836000
0.011334 -0.011381 0.841000
0.006581 0.051651 0.853000
-0.020838 -0.026424 0.869000
-0.015721 0.008212 0.863000
0.015967 -0.047774 0.867000
-0.026022 -0.017717 0.863000
0.017826 0.001075 0.837000
-0.013993 -0.019204 0.866000
0.011321 -0.007565 0.840000
-0.027061 0.031565 0.851000
-0.032201 0.023775 0.848000
0.003461 0.054743 0.863000
-0.012239 -0.036754 0.868000
0.005079 0.031046 0.837000
-0.011786 0.000751 0.861000
0.011969 0.004520 0.837000
-0.010405 -0.024850 0.864000
-0.013668 -0.031753 0.868000
0.016487 -0.020332 0.839000
0.010819 0.051420 0.855000
0.000614 0.052889 0.856000
-0.031096 -0.008413 0.856000
0.017690 -0.038654 0.847000
-0.002536 0.051059 0.849000
-0.014283 0.005364 0.862000
0.023227 0.021983 0.833000
-0.022799 -0.000667 0.862000
-0.033835 0.020780 0.854000
-0.020927 0.026175 0.858000
-0.004970 0.042921 0.847000
-0.016526 -0.017463 0.868000
0.011955 0.016213 0.836000
-0.007455 0.029498 0.852000
-0.016583 -0.035806 0.871000
-0.002872 0.045602 0.845000
-0.029197 0.015471 0.852000
-0.008537 0.053531 0.855000
-0.024544 -0.003856 0.861000
-0.018017 -0.033655 0.871000
-0.003989 -0.039293 0.861000
0.003409 -0.033193 0.850000
-0.026143 -0.037426 0.867000
-0.001475 0.031231 0.842000
-0.026998 0.039178 0.849000
-0.009693 -0.025561 0.864000
-0.029574 -0.031570 0.863000
-0.031314 -0.035081 0.862000
0.010693 -0.026738 0.845000
-0.018292 -0.010306 0.867000
-0.007162 -0.014453 0.859000
-0.019161 0.030059 0.858000
-0.013977 -0.010994 0.865000
-0.029050 -0.008786 0.858000
-0.007805 0.013367 0.852000
-0.009186 0.045872 0.850000
0.016161 -0.022777 0.840000
-0.019452 -0.033655 0.871000
0.012141 -0.045035 0.849000
-0.001149 -0.033819 0.857000
-0.000439 -0.010778 0.848000
-0.028730 -0.010918 0.859000
-0.031154 0.028662 0.848000
0.004757 0.023925 0.841000
0.004401 0.037681 0.839000
-0.026112 -0.026333 0.866000
-0.021835 -0.012789 0.866000
-0.012596 -0.032824 0.868000
0.000956 -0.012508 0.847000
-0.002521 0.045895 0.844000
-0.024985 -0.018449 0.864000
-0.012028 0.043576 0.853000
0.014120 -0.024564 0.842000
-0.011077 -0.005982 0.861000
0.003389 -0.011087 0.845000
-0.001854 -0.033467 0.857000
0.007845 0.005560 0.838000
0.010756 -0.045088 0.850000
-0.018207 0.008922 0.863000
0.016853 -0.023814 0.840000
-0.007096 0.010550 0.851000
0.016161 -0.020356 0.840000
0.008555 -0.005144 0.840000
-0.009536 0.046571 0.850000
-0.019049 -0.022490 0.869000
0.018626 -0.030455 0.842000
0.002009 -0.031794 0.850000
-0.016225 -0.034372 0.871000
0.012284 0.022380 0.835000
0.008869 0.007620 0.837000
0.001297 0.034697 0.842000
-0.027605 0.003570 0.857000
0.027199 -0.031794 0.850000
-0.028186 -0.032673 0.864000
-0.021603 -0.034372 0.871000
-0.018271 -0.006017 0.866000
-0.012437 0.022264 0.857000
-0.008137 0.043773 0.850000
-0.008137 0.042373 0.850000
0.005482 -0.016324 0.846000
-0.013112 0.040159 0.855000
-0.014621 0.015989 0.861000
0.009191 0.026160 0.835000
0.018019 0.023271 0.830000
0.004427 -0.012811 0.844000
0.014655 0.022326 0.833000
-0.034307 -0.006659 0.857000
-0.022912 0.040416 0.853000
-0.028630 -0.000310 0.856000
-0.032467 -0.012274 0.855000
0.008596 -0.015590 0.844000
-0.016057 0.009977 0.862000
-0.008146 0.035068 0.851000
-0.032742 -0.002767 0.853000
0.014087 -0.010330 0.840000
-0.021884 0.041870 0.854000
-0.017221 -0.009949 0.867000
0.000954 0.020909 0.845000
0.000258 0.037861 0.843000
-0.019474 -0.035847 0.872000
-0.002527 0.013622 0.846000
0.009213 0.004175 0.837000
0.007580 -0.031682 0.847000
0.027423 -0.033114 0.857000
0.009213 0.010032 0.837000
0.008219 -0.011035 0.841000
-0.031118 0.031068 0.847000
-0.005357 0.052704 0.853000
0.021435 0.028395 0.830000
0.015759 0.000041 0.837000
0.016652 0.028053 0.830000
0.016684 -0.041541 0.849000
0.002340 0.016002 0.843000
0.025360 -0.027498 0.847000
0.010553 0.037113 0.834000
-0.003572 0.039040 0.846000
-0.013637 -0.017779 0.866000
0.006496 -0.008276 0.842000
-0.014536 0.043025 0.856000
-0.017873 0.002532 0.864000
-0.029403 -0.010199 0.858000
0.012055 -0.023205 0.843000
0.012956 0.024069 0.834000
0.000951 0.040242 0.842000
0.020385 0.027678 0.829000
-0.018808 0.031825 0.858000
0.004422 0.019125 0.843000
-0.000090 -0.019290 0.854000
-0.020076 -0.011376 0.867000
0.000257 0.031540 0.841000
-0.005064 -0.044357 0.863000
0.006164 -0.014548 0.844000
0.019798 0.038783 0.833000
-0.011704 0.029954 0.855000
0.008879 0.001421 0.838000
-0.031118 0.032463 0.847000
-0.004965 0.046700 0.846000
0.011903 -0.048987 0.857000
0.018927 -0.022777 0.840000
0.017419 0.011712 0.834000
0.006503 -0.014184 0.843000
0.008199 0.019725 0.839000
0.013936 0.037322 0.831000
-0.008232 -0.015532 0.860000
-0.008127 0.045818 0.849000
-0.030636 0.004957 0.853000
-0.003265 0.053657 0.857000
-0.012524 -0.006351 0.863000
-0.022470 -0.002799 0.863000
-0.000437 0.034779 0.844000
-0.023073 0.013124 0.859000
-0.002879 0.011197 0.847000
0.015196 -0.035391 0.844000
0.032913 -0.024182 0.853000
-0.033037 -0.038271 0.870000
-0.020122 -0.024278 0.869000
0.007129 0.029941 0.835000
-0.006817 -0.018009 0.860000
-0.027379 0.033977 0.850000
-0.033915 -0.015812 0.856000
-0.034902 -0.029439 0.863000
-0.027379 0.034327 0.850000
0.005079 0.026567 0.837000
-0.007112 -0.001713 0.853000
-0.017221 -0.012090 0.867000
0.016142 -0.006865 0.839000
0.005872 -0.038531 0.852000
-0.007112 0.016192 0.853000
-0.003227 0.050242 0.847000
0.000258 0.033311 0.842000
0.015966 -0.040794 0.848000
-0.028055 -0.012700 0.860000
-0.025637 -0.013084 0.862000
-0.006059 -0.008384 0.853000
-0.025901 -0.002079 0.859000
0.017377 0.039421 0.832000
-0.021220 -0.030035 0.870000
0.013643 0.020637 0.834000
-0.017769 0.026559 0.859000
-0.031578 0.016835 0.850000
0.013969 0.025069 0.833000
0.017523 -0.022404 0.839000
0.009649 -0.022217 0.845000
0.010604 0.000041 0.838000
-0.031485 -0.016536 0.857000
0.031361 -0.019526 0.849000
-0.004622 0.043269 0.847000
0.007616 -0.042339 0.851000
0.009191 0.030628 0.835000
-0.012834 0.050659 0.860000
0.013127 -0.034737 0.845000
-0.022115 -0.002799 0.863000
-0.003223 0.036603 0.846000
-0.002527 0.015362 0.846000
-0.027701 -0.011638 0.860000
-0.003631 -0.037831 0.860000
0.016973 0.033137 0.829000
0.013332 0.012084 0.836000
0.018236 -0.013096 0.840000
-0.023863 -0.005279 0.862000
0.012749 -0.025981 0.843000
0.013189 -0.044685 0.849000
0.008545 0.017307 0.839000
0.000262 -0.038757 0.857000
-0.014906 0.038489 0.857000
0.008657 -0.042989 0.850000
-0.015348 0.009267 0.862000
-0.021049 0.003950 0.863000
-0.034902 -0.027663 0.863000
-0.019719 -0.010662 0.867000
0.014884 -0.039305 0.846000
0.003413 -0.023775 0.851000
0.000952 0.011838 0.843000
0.004563 -0.050088 0.870000
-0.005357 -0.012597 0.853000
-0.022268 -0.031074 0.869000
0.008504 0.031315 0.835000
-0.005420 -0.043291 0.863000
-0.018584 0.003599 0.864000
0.025270 -0.019759 0.844000
0.000605 0.036820 0.843000
0.013627 0.026783 0.833000
-0.031522 -0.021146 0.858000
-0.020976 0.014909 0.860000
-0.017375 0.039900 0.857000
0.013953 0.038394 0.832000
0.003710 0.026631 0.839000
-0.027476 0.019351 0.853000
0.006899 -0.033853 0.849000
-0.015045 -0.004229 0.865000
-0.033954 0.033199 0.857000
-0.020903 0.028966 0.857000
-0.008527 -0.001012 0.854000
-0.028864 -0.031925 0.863000
-0.010320 0.009919 0.857000
-0.006030 0.035335 0.849000
-0.026102 0.020429 0.854000
-0.029471 -0.020841 0.860000
0.014295 0.027094 0.832000
0.012749 -0.023205 0.843000
0.010655 -0.013820 0.842000
-0.030564 0.015804 0.851000
-0.014993 0.012460 0.862000
-0.025546 -0.037957 0.871000
-0.014757 -0.030001 0.869000
-0.024989 0.037564 0.852000
-0.017456 0.019887 0.861000
0.004406 0.010068 0.840000
0.012012 -0.009985 0.840000
-0.021603 -0.034730 0.871000
0.006200 -0.023719 0.849000
0.020435 0.036638 0.831000
-0.032153 -0.014050 0.856000
-0.028508 -0.027307 0.863000
-0.005741 -0.024677 0.858000
-0.022938 0.035894 0.854000
-0.028813 0.021758 0.851000
-0.032391 -0.002415 0.853000
-0.025399 -0.028115 0.866000
0.007223 -0.017368 0.846000
-0.024358 -0.023509 0.867000
-0.004970 0.048847 0.847000
0.021435 0.027712 0.830000
0.012299 0.015525 0.836000
-0.029197 0.018978 0.852000
-0.015721 0.005371 0.863000
0.006826 0.000041 0.840000
-0.029129 0.028729 0.850000
0.000966 -0.038712 0.856000
0.020044 0.031090 0.829000
0.013507 -0.040745 0.847000
-0.033680 -0.030716 0.859000
-0.011759 0.008528 0.859000
-0.029825 -0.021195 0.860000
-0.003576 0.026536 0.847000
-0.000783 0.043759 0.843000
-0.032896 -0.020063 0.857000
0.015703 0.013428 0.834000
-0.014350 -0.012789 0.866000
0.012055 -0.023899 0.843000
0.008170 0.025159 0.836000
-0.010405 -0.024139 0.864000
-0.033797 -0.036500 0.862000
0.012255 0.037412 0.833000
0.014120 -0.024217 0.842000
0.015304 0.037664 0.831000
0.023214 -0.029172 0.845000
-0.030851 -0.019403 0.859000
0.012127 -0.042888 0.848000
-0.032239 0.017863 0.849000
-0.016169 -0.017463 0.868000
-0.034467 -0.035040 0.861000
-0.006721 0.043321 0.848000
-0.001140 -0.013252 0.850000
-0.006769 -0.008042 0.854000
-0.029403 -0.010905 0.858000
0.019319 -0.030455 0.842000
-0.000783 0.027452 0.843000
0.014620 0.030139 0.831000
-0.032003 0.003549 0.852000
-0.012849 0.006067 0.861000
-0.016150 -0.010662 0.867000
-0.023617 -0.020274 0.866000
0.009961 -0.012781 0.842000
-0.004982 0.015068 0.849000
-0.006109 -0.031814 0.860000
0.032874 -0.021699 0.852000
-0.033366 0.037169 0.851000
0.020286 -0.000304 0.839000
-0.002521 0.028179 0.844000
-0.011013 0.020829 0.856000
-0.016564 -0.027171 0.870000
-0.001852 -0.023915 0.856000
-0.007778 0.045468 0.849000
-0.030600 0.013017 0.852000
0.021068 0.030067 0.829000
-0.031595 -0.029690 0.860000
-0.006478 -0.035081 0.862000
0.003373 0.011810 0.841000
-0.031777 0.032424 0.846000
0.001659 -0.030744 0.850000
-0.024715 -0.031359 0.867000
-0.034347 -0.022558 0.858000
0.007180 0.043655 0.841000
-0.012582 -0.029218 0.867000
0.016773 0.003826 0.836000
0.011388 -0.030216 0.845000
0.014620 0.032533 0.831000
-0.013250 -0.007425 0.864000
0.020141 0.015469 0.833000
-0.017997 -0.023590 0.870000
-0.016450 0.004310 0.864000
0.016027 0.014441 0.833000
0.011348 -0.013127 0.842000
-0.031578 0.016485 0.850000
-0.018648 -0.013517 0.867000
0.008901 -0.008602 0.840000
-0.031890 0.019261 0.849000
0.014221 -0.042539 0.848000
-0.028496 0.022134 0.852000
0.002709 0.051119 0.850000
0.008170 0.036858 0.836000
-0.016923 -0.025380 0.870000
-0.002530 0.025490 0.847000
-0.010320 0.014857 0.857000
0.003401 0.050301 0.848000
-0.003938 0.022082 0.850000
-0.032315 0.006697 0.851000
0.011597 0.040594 0.835000
0.032524 -0.023102 0.852000
0.014570 -0.042190 0.848000
-0.007112 0.021809 0.853000
0.012055 -0.022511 0.843000
-0.018691 -0.023205 0.869000
0.003361 0.031773 0.838000
-0.010636 0.034137 0.854000
-0.004633 0.051059 0.849000
0.015124 -0.009985 0.840000
-0.029016 -0.004543 0.857000
0.009535 0.031659 0.835000
-0.015739 0.001465 0.864000
0.017698 0.021247 0.831000
-0.027540 0.012007 0.855000
0.009914 0.013148 0.838000
-0.003281 0.054616 0.861000
0.019204 0.003486 0.837000
0.006802 0.035869 0.837000
0.028915 -0.023370 0.849000
-0.022444 0.003590 0.862000
-0.024960 0.041372 0.851000
0.002354 -0.016013 0.848000
0.001302 0.018127 0.845000
0.000608 -0.012523 0.848000
-0.028745 0.032539 0.849000
0.003413 -0.025877 0.851000
-0.011051 0.008528 0.859000
-0.027188 0.012711 0.855000
-0.004278 0.011560 0.848000
0.016389 0.010682 0.834000
-0.024162 0.003582 0.860000
0.010566 0.032003 0.835000
0.007938 -0.032068 0.848000
0.003034 0.024329 0.843000
0.011625 0.010376 0.837000
0.003706 0.027979 0.838000
-0.005344 0.024210 0.851000
-0.014774 -0.032542 0.870000
0.005844 -0.027531 0.848000
-0.009581 0.029216 0.854000
0.003062 -0.033232 0.851000
0.014796 -0.024881 0.841000
0.016973 0.031773 0.829000
-0.032239 0.018911 0.849000
0.023884 0.027778 0.832000
0.018127 0.007258 0.835000
-0.027508 0.016211 0.854000
-0.013158 0.023349 0.858000
0.013650 -0.048225 0.856000
0.023241 -0.031644 0.846000
0.007854 0.022832 0.839000
-0.006094 -0.014789 0.858000
-0.002872 0.041428 0.845000
0.000951 0.039202 0.842000
0.017762 0.010682 0.834000
-0.007833 -0.007700 0.855000
-0.033287 -0.027855 0.858000
-0.028630 0.000747 0.856000
-0.001152 -0.040969 0.859000
0.029614 -0.023719 0.849000
-0.034113 -0.035749 0.861000
-0.031740 0.036907 0.845000
-0.034033 -0.030716 0.859000
0.010936 0.015199 0.837000
0.016732 0.010682 0.834000
-0.029929 -0.034411 0.863000
0.007845 0.010044 0.838000
0.013708 -0.000993 0.838000
0.001990 0.043707 0.842000
-0.024358 -0.028148 0.867000
0.012613 0.023040 0.834000
-0.000089 0.036863 0.844000
0.025012 -0.028196 0.847000
0.022438 -0.022138 0.842000
0.008616 -0.022939 0.846000
0.020435 0.020905 0.831000
0.019044 0.023271 0.830000
0.017544 -0.023122 0.840000
-0.002521 0.045200 0.844000
-0.017659 -0.032579 0.871000
-0.000437 0.011852 0.844000
-0.030420 0.036994 0.847000
-0.028897 -0.033384 0.864000
0.014087 -0.012405 0.840000
0.011119 -0.047243 0.851000
-0.016317 0.043075 0.857000
0.009323 -0.032727 0.847000
0.012027 -0.012766 0.841000
0.001661 0.051530 0.851000
-0.025458 -0.036754 0.868000
-0.016020 0.021634 0.860000
0.016853 -0.024505 0.840000
0.007189 -0.012434 0.842000
-0.030815 -0.015143 0.858000
-0.009604 0.011316 0.856000
-0.012849 0.006421 0.861000
-0.022912 0.038310 0.853000
0.016027 0.017184 0.833000
-0.013326 -0.034293 0.869000
0.000614 -0.038008 0.856000
-0.001831 0.011881 0.846000
-0.016469 -0.002449 0.865000
0.005858 -0.034243 0.850000
0.018427 0.039811 0.833000
-0.006402 0.024589 0.852000
-0.019868 0.030412 0.858000
-0.023891 -0.008837 0.863000
-0.010648 0.026435 0.855000
-0.023645 -0.024936 0.867000
0.007957 -0.041240 0.850000
0.021616 0.008998 0.837000
-0.028496 0.019679 0.852000
-0.007869 -0.013039 0.859000
-0.013961 -0.007781 0.864000
0.015721 0.007258 0.835000
0.014620 0.035954 0.831000
0.012643 0.015869 0.836000
0.010923 0.023439 0.836000
-0.008951 -0.014487 0.861000
0.016853 -0.010330 0.840000
0.005430 0.025219 0.838000
0.007957 -0.037391 0.850000
-0.022719 0.012063 0.859000
0.013300 0.023383 0.834000
-0.019537 0.027973 0.859000
0.013112 -0.033654 0.844000
0.013347 0.004520 0.837000
0.008932 -0.013837 0.843000
-0.022666 0.021911 0.857000
-0.018961 0.000755 0.865000
-0.009570 0.033044 0.853000
0.002715 -0.033973 0.852000
-0.001130 0.044800 0.843000
-0.024077 0.019089 0.857000
-0.009186 0.048670 0.850000
0.005463 -0.011755 0.843000
-0.024544 -0.002438 0.861000
0.005501 -0.025816 0.849000
-0.024725 0.023620 0.855000
-0.001140 -0.009754 0.850000
0.002342 0.048674 0.844000
0.015124 -0.010330 0.840000
-0.012028 0.050598 0.853000
0.019549 0.002797 0.837000
-0.012804 0.019112 0.858000
0.003750 -0.029276 0.848000
-0.032550 0.020285 0.848000
-0.016393 0.015989 0.861000
-0.031375 -0.001364 0.854000
0.014238 -0.044336 0.849000
-0.029117 -0.019779 0.860000
0.010259 0.016252 0.838000
0.005091 0.011092 0.839000
-0.020951 0.023730 0.859000
-0.015684 0.017052 0.861000
0.010591 0.020711 0.837000
-0.030284 -0.034766 0.863000
0.010566 0.028566 0.835000
-0.028218 -0.034847 0.865000
0.000603 0.030466 0.840000
-0.013652 -0.026363 0.867000
0.005469 -0.014201 0.844000
0.032524 -0.024154 0.852000
0.028532 -0.022994 0.848000
-0.014655 0.004305 0.863000
0.019774 0.019560 0.832000
-0.023669 0.030658 0.855000
-0.027061 0.031915 0.851000
-0.014923 0.029000 0.858000
-0.004273 0.034903 0.847000
-0.027734 -0.015550 0.861000
-0.000785 0.049427 0.845000
-0.005694 0.023159 0.851000
-0.010308 0.022238 0.856000
-0.003948 0.052292 0.852000
-0.005344 0.024910 0.851000
-0.021330 0.015971 0.860000
-0.026316 -0.012715 0.861000
0.000960 -0.016051 0.850000
-0.011000 0.029250 0.855000
-0.012112 0.011356 0.859000
-0.017749 0.031472 0.858000
0.022465 -0.024246 0.843000
-0.027573 0.008145 0.856000
0.018927 -0.023122 0.840000
0.010844 0.052246 0.857000
0.014271 -0.046192 0.851000
-0.023699 -0.033935 0.869000
0.006449 0.026880 0.836000
0.010056 -0.045438 0.850000
-0.016393 0.019533 0.861000
-0.029898 0.014419 0.852000
-0.010673 0.017326 0.857000
-0.009230 0.006369 0.854000
0.017096 0.005196 0.835000
0.004448 -0.030323 0.848000
0.003429 -0.043594 0.855000
-0.027696 0.038829 0.849000
0.000257 0.029774 0.840000
-0.006769 0.053117 0.854000
-0.031081 0.034165 0.846000
0.013284 0.026783 0.833000
-0.007112 0.022160 0.853000
0.014070 -0.008246 0.839000
0.011941 0.023067 0.835000
-0.029374 0.037343 0.847000
0.017523 -0.019987 0.839000
0.016507 -0.021394 0.840000
-0.000438 0.019215 0.847000
-0.016709 0.026205 0.859000
-0.002521 0.027832 0.844000
0.009558 0.011065 0.837000
0.011984 0.000041 0.838000
-0.012056 0.034881 0.855000
-0.003258 -0.030925 0.855000
0.009672 -0.032727 0.847000
0.006802 0.036213 0.837000
-0.031815 0.030022 0.847000
-0.020006 0.001821 0.864000
-0.017082 0.022342 0.860000
-0.022366 0.014184 0.859000
-0.030564 0.017905 0.851000
0.001988 0.033963 0.841000
0.001644 0.041628 0.842000
-0.006402 0.021433 0.852000
-0.023586 0.041421 0.852000
-0.008537 -0.005236 0.855000
-0.030498 -0.021878 0.859000
-0.014993 0.009267 0.862000
0.016873 -0.026957 0.841000
0.011240 0.034367 0.834000
0.011483 -0.047999 0.852000
-0.006402 0.019679 0.852000
-0.006372 0.048207 0.848000
-0.004622 0.034206 0.847000
-0.015062 -0.010650 0.866000
0.013065 -0.016227 0.841000
-0.034902 -0.034056 0.863000
-0.014906 0.033904 0.857000
-0.020976 0.015617 0.860000
0.023506 -0.022511 0.843000
0.001305 -0.010765 0.847000
0.002009 -0.029345 0.850000
0.001297 0.038509 0.842000
-0.016689 0.032531 0.858000
-0.000090 -0.022453 0.854000
-0.032657 -0.032876 0.860000
0.009672 -0.031333 0.847000
-0.014025 -0.025322 0.868000
-0.028630 0.001099 0.856000
-0.026285 -0.007745 0.860000
-0.009921 0.034448 0.853000
-0.008527 0.013750 0.854000
-0.029129 0.028379 0.850000
0.006142 0.017695 0.841000
-0.025072 -0.024579 0.867000
-0.013219 -0.000667 0.862000
0.019409 0.021589 0.831000
-0.000783 0.044800 0.843000
-0.018874 0.020242 0.861000
0.007283 -0.047354 0.853000
0.011569 0.037412 0.833000
0.000262 -0.044453 0.858000
-0.025077 0.023620 0.855000
-0.010648 0.025379 0.855000
-0.013219 0.001462 0.862000
0.006891 -0.032068 0.848000
-0.014234 0.024437 0.859000
-0.024459 0.009930 0.858000
-0.022878 -0.012774 0.865000
-0.002875 0.037647 0.846000
-0.003925 0.026885 0.847000
-0.011471 -0.017382 0.864000
-0.004283 0.017164 0.849000
-0.000089 0.023023 0.846000
-0.005388 -0.016908 0.858000
-0.022012 0.019134 0.859000
0.019619 -0.016553 0.840000
-0.009251 0.016249 0.856000
0.014295 0.030175 0.832000
-0.027316 -0.004200 0.859000
0.007249 -0.033853 0.849000
-0.009968 0.004628 0.857000
0.016305 -0.047006 0.866000
0.031158 -0.028044 0.853000
-0.004988 0.008788 0.850000
-0.005413 -0.036855 0.862000
-0.019605 0.012105 0.862000
-0.014042 -0.031074 0.869000
0.015966 -0.040445 0.848000
-0.006920 -0.047027 0.873000
0.012070 -0.026706 0.844000
-0.018207 0.008567 0.863000
-0.012553 -0.015978 0.865000
-0.028982 -0.001015 0.856000
0.017035 0.016820 0.832000
0.010308 -0.013127 0.842000
0.004070 0.044054 0.842000
0.029998 -0.024447 0.850000
-0.003971 -0.018299 0.857000
-0.013219 0.001816 0.862000
-0.002179 0.011532 0.846000
0.009213 0.004864 0.837000
-0.024386 -0.031753 0.868000
-0.012834 0.012431 0.860000
0.010743 -0.044336 0.849000
-0.014587 0.026205 0.859000
0.011348 -0.014514 0.842000
-0.005325 0.038085 0.848000
0.018084 0.012726 0.833000
0.021373 -0.024188 0.841000
0.019727 0.024295 0.830000
0.003361 0.028669 0.838000
-0.032239 0.019610 0.849000
-0.018271 -0.004234 0.866000
-0.025136 0.031435 0.857000
-0.016903 -0.021059 0.869000
0.006834 -0.004112 0.841000
0.011955 0.018278 0.836000
-0.001835 0.019587 0.848000
-0.019206 0.024112 0.860000
-0.022294 -0.035048 0.870000
-0.006380 0.040227 0.849000
0.017544 -0.008947 0.840000
-0.001498 0.052828 0.855000
0.004401 0.033192 0.839000
0.013741 -0.008602 0.840000
-0.003929 0.011560 0.848000
-0.004982 0.010874 0.849000
-0.026361 0.034017 0.851000
-0.005350 0.004250 0.852000
0.020852 0.014458 0.834000
-0.030600 0.011614 0.852000
-0.017416 0.026559 0.859000
-0.032125 0.032772 0.846000
-0.003975 -0.021852 0.858000
-0.030420 0.040829 0.847000
-0.018123 0.029033 0.859000
-0.027284 -0.002076 0.858000
0.013643 0.018577 0.834000
0.008848 0.030284 0.835000
-0.032581 -0.024677 0.858000
-0.032977 0.015435 0.850000
0.013986 0.016518 0.834000
-0.012924 -0.023125 0.866000
-0.006801 -0.027502 0.858000
-0.020742 -0.004229 0.865000
-0.016113 -0.003517 0.865000
0.013127 -0.036128 0.845000
-0.002913 -0.022885 0.857000
0.004046 0.030701 0.837000
-0.031801 -0.010879 0.856000
0.012598 0.028497 0.833000
-0.018735 -0.030428 0.871000
-0.033405 0.002847 0.852000
-0.026102 0.023592 0.854000
0.009224 0.012458 0.838000
0.002390 0.054261 0.861000
0.013659 0.012070 0.835000
-0.014333 -0.009570 0.865000
0.010044 -0.042239 0.849000
-0.011013 0.023295 0.856000
0.010394 -0.042589 0.849000
-0.029758 0.034595 0.848000
-0.015866 -0.036164 0.871000
0.014884 -0.038608 0.846000
0.015525 -0.032920 0.843000
0.019044 0.024637 0.830000
0.008869 0.004520 0.837000
0.026755 -0.023664 0.847000
-0.000436 0.047229 0.843000
0.003365 0.026976 0.839000
-0.021961 0.026849 0.857000
-0.007446 0.035068 0.851000
-0.014723 -0.017086 0.867000
-0.006801 -0.029974 0.858000
-0.008878 0.022889 0.854000
-0.009547 0.049778 0.851000
0.016161 -0.009293 0.840000
-0.028079 0.031528 0.850000
0.016813 -0.003408 0.838000
-0.005006 -0.012948 0.853000
0.022065 -0.021765 0.841000
-0.017679 -0.035488 0.872000
0.012476 -0.041492 0.848000
0.008190 0.002801 0.838000
-0.019868 0.029000 0.858000
-0.022666 0.025086 0.857000
-0.020527 -0.031145 0.871000
-0.004622 0.035251 0.847000
-0.028462 0.022809 0.851000
-0.016469 -0.001737 0.865000
0.003019 0.031811 0.839000
-0.016545 -0.024278 0.869000
-0.021146 -0.013517 0.867000
-0.006545 -0.047636 0.871000
-0.030769 0.033508 0.847000
-0.002913 -0.021474 0.857000
-0.007463 -0.001713 0.853000
0.008307 -0.039840 0.850000
-0.032228 -0.024324 0.858000
-0.025310 0.036469 0.851000
-0.014621 0.011028 0.861000
-0.014774 -0.036123 0.870000
0.006465 0.034187 0.838000
0.009683 -0.034860 0.848000
-0.004982 0.016116 0.849000
-0.022470 -0.001733 0.863000
0.005761 0.027224 0.836000
0.022839 -0.028096 0.844000
-0.006395 0.005296 0.851000
0.011001 -0.012781 0.842000
0.010210 0.038486 0.834000
-0.009921 0.036554 0.853000
0.022118 -0.026675 0.843000
-0.032973 -0.028949 0.859000
0.000953 0.048327 0.844000
0.012749 -0.024940 0.843000
0.021077 -0.029797 0.843000
0.009268 -0.012781 0.842000
-0.022191 -0.014927 0.866000
-0.006038 0.015085 0.850000
-0.016564 -0.028961 0.870000
0.019153 -0.038791 0.850000
-0.021734 0.003945 0.862000
0.006883 -0.029241 0.847000
0.027167 -0.028961 0.849000
0.013411 -0.013458 0.841000
-0.020169 -0.030070 0.871000
-0.029860 -0.026890 0.861000
0.018559 -0.017570 0.839000
0.009997 -0.021869 0.845000
-0.001861 -0.042433 0.860000
0.008307 -0.042639 0.850000
0.019917 0.000041 0.838000
-0.026316 -0.008817 0.861000
0.000963 -0.024182 0.853000
-0.033366 0.010900 0.851000
0.008545 0.014545 0.839000
-0.006840 -0.034766 0.863000
-0.028055 -0.011638 0.860000
-0.021146 -0.016015 0.867000
0.005501 0.006681 0.849000
-0.025548 0.001457 0.859000
-0.031912 -0.027181 0.859000
-0.007079 0.049661 0.849000
-0.014350 -0.017422 0.866000
0.005495 -0.018456 0.848000
0.001644 0.035390 0.842000
0.002023 -0.043292 0.856000
0.023478 -0.021445 0.842000
-0.014923 0.032884 0.858000
0.008180 0.007965 0.837000
0.020459 0.019218 0.832000
0.008848 0.029597 0.835000
0.018604 -0.028688 0.841000
-0.013896 0.015617 0.860000
-0.012509 -0.004215 0.862000
-0.002176 0.034820 0.845000
-0.027347 -0.009868 0.860000
0.008545 0.019379 0.839000
0.007957 -0.038441 0.850000
-0.013511 0.026528 0.858000
-0.002199 -0.016478 0.854000
-0.019605 0.012815 0.862000
-0.021231 0.033160 0.856000
0.021449 -0.031917 0.844000
-0.017679 -0.035129 0.872000
0.015470 -0.013096 0.840000
0.021487 0.021615 0.832000
0.017677 0.024979 0.830000
-0.003925 0.039435 0.847000
0.004819 -0.036778 0.852000
0.015684 0.017526 0.833000
-0.026163 0.010259 0.856000
-0.018228 0.004666 0.864000
-0.019719 -0.014231 0.867000
0.022118 -0.025981 0.843000
0.006785 0.029253 0.835000
0.019135 0.012055 0.834000
-0.017831 0.014234 0.862000
0.002709 -0.031794 0.850000
-0.000784 0.038948 0.844000
-0.030420 0.034554 0.847000
-0.011392 0.014874 0.858000
-0.004288 0.022082 0.850000
-0.020122 -0.022490 0.869000
-0.002906 -0.026702 0.855000
0.020238 0.003142 0.837000
-0.010405 -0.025917 0.864000
0.003433 -0.046463 0.856000
-0.027188 0.013063 0.855000
-0.017659 -0.033296 0.871000
-0.032435 0.035516 0.845000
-0.015366 0.006081 0.863000
-0.025136 0.014857 0.857000
-0.020878 0.033512 0.856000
-0.011854 -0.030254 0.866000
-0.002892 -0.010466 0.851000
-0.008888 0.018693 0.855000
0.018905 -0.005138 0.839000
-0.001831 0.012229 0.846000
0.006127 0.024559 0.839000
0.009202 0.039955 0.836000
-0.009251 -0.005242 0.856000
-0.002551 0.052766 0.854000
-0.006094 -0.031034 0.858000
-0.021961 0.024733 0.857000
-0.027508 0.014805 0.854000
0.007826 0.032729 0.836000
-0.024162 0.004290 0.860000
-0.007915 -0.036940 0.864000
-0.006761 0.017947 0.853000
0.006596 -0.048872 0.855000
-0.026899 0.003217 0.857000
0.002334 0.039848 0.841000
-0.004649 0.052292 0.852000
0.010103 0.051008 0.854000
0.009279 -0.014531 0.843000
-0.004994 0.017905 0.851000
-0.011026 0.015210 0.857000
-0.012197 -0.018114 0.865000
-0.031448 -0.010175 0.856000
-0.029540 -0.028695 0.862000
-0.026330 0.038525 0.850000
0.012658 0.004864 0.837000
0.015988 0.023641 0.831000
-0.030498 -0.017989 0.859000
-0.011129 -0.025235 0.865000
-0.017281 -0.027171 0.870000
0.020777 0.021931 0.831000
-0.016650 0.040911 0.856000
0.015525 -0.034655 0.843000
-0.012538 -0.015604 0.864000
0.011969 0.005209 0.837000
-0.000799 0.054198 0.860000
0.016487 -0.016188 0.839000
0.008514 0.035482 0.836000
0.000261 -0.033349 0.854000
-0.017537 -0.001025 0.865000
-0.022912 0.041469 0.853000
0.022065 -0.017265 0.841000
0.010382 -0.038350 0.848000
-0.009671 -0.018761 0.862000
-0.030533 -0.022965 0.860000
-0.004976 0.012956 0.848000
-0.025310 0.038920 0.851000
-0.018940 0.002176 0.864000
0.002671 0.028669 0.838000
0.007919 -0.019806 0.846000
-0.029548 0.017575 0.852000
0.002683 0.010092 0.842000
0.007580 -0.028893 0.847000
-0.003920 0.041129 0.846000
-0.017517 0.002888 0.864000
0.012825 -0.042539 0.848000
-0.022038 0.011369 0.860000
-0.010308 0.019420 0.856000
0.009902 0.003142 0.837000
-0.022235 0.036597 0.854000
-0.025786 -0.033500 0.867000
-0.003975 -0.022205 0.858000
0.019089 0.019218 0.832000
0.010604 -0.000648 0.838000
0.003425 -0.039325 0.854000
-0.017749 0.035356 0.858000
-0.011418 0.003582 0.860000
-0.031927 0.016835 0.850000
0.016873 -0.026265 0.841000
-0.020099 -0.017105 0.868000
-0.024302 -0.019182 0.865000
0.015816 -0.014825 0.840000
0.005176 -0.040683 0.853000
-0.029652 0.001098 0.855000
0.018257 -0.010343 0.841000
0.008307 -0.041589 0.850000
-0.028630 0.000042 0.856000
-0.021049 0.000753 0.863000
-0.020742 -0.003873 0.865000
-0.004671 0.053594 0.856000
-0.020174 0.037388 0.856000
-0.006801 0.054072 0.858000
-0.024956 -0.013810 0.863000
-0.013589 -0.001023 0.863000
0.017014 0.020563 0.831000
-0.020480 -0.024636 0.869000
0.016833 -0.006520 0.839000
-0.006102 -0.020110 0.859000
0.012255 0.038440 0.833000
0.000258 0.012547 0.844000
-0.033796 0.006010 0.853000
-0.012596 -0.034968 0.868000
-0.021379 0.004655 0.862000
0.008199 0.016617 0.839000
-0.006410 -0.008384 0.853000
-0.006387 0.014036 0.850000
-0.012582 -0.028861 0.867000
0.000262 -0.038052 0.857000
0.012490 -0.043987 0.849000
-0.005674 0.040877 0.848000
0.008848 0.028222 0.835000
-0.014536 0.038092 0.856000
0.011569 0.035354 0.833000
0.013594 0.035954 0.831000
0.001299 0.047229 0.843000
-0.008290 -0.037739 0.866000
0.005527 -0.042087 0.853000
0.004411 0.042617 0.841000
0.029333 -0.027278 0.851000
-0.015437 -0.013874 0.867000
0.019227 0.000731 0.838000
-0.010598 0.048728 0.851000
0.016200 -0.029415 0.842000
-0.020550 0.032140 0.857000
0.008636 -0.033464 0.848000
-0.012154 -0.006344 0.862000
0.027965 -0.032570 0.852000
-0.032228 -0.023971 0.858000
-0.034347 -0.002076 0.858000
-0.029094 0.032190 0.849000
0.006488 0.043309 0.841000
0.011708 -0.017653 0.843000
-0.020244 0.025851 0.859000
0.018747 0.038736 0.832000
0.019409 0.036980 0.831000
0.009672 -0.029939 0.847000
-0.007112 0.017947 0.853000
-0.004616 0.044611 0.846000
0.017178 -0.020332 0.839000
0.011653 -0.002721 0.839000
-0.013142 0.029671 0.857000
-0.014383 -0.024250 0.868000
-0.008527 -0.002418 0.854000
-0.007463 0.024618 0.853000
-0.027957 -0.000663 0.857000
-0.029617 0.007072 0.854000
-0.020456 -0.017820 0.868000
0.016200 -0.030455 0.842000
-0.032190 -0.017594 0.857000
-0.011352 0.052476 0.855000
0.013969 0.022326 0.833000
0.007616 -0.042689 0.851000
0.015801 -0.046572 0.858000
0.010629 -0.008602 0.840000
0.012613 0.027845 0.834000
-0.026361 0.035768 0.851000
0.010103 0.051360 0.854000
-0.008626 -0.031606 0.864000
0.010369 -0.034122 0.847000
-0.030498 -0.018696 0.859000
0.004427 0.045200 0.844000
-0.025660 0.039271 0.851000
0.003055 -0.027563 0.849000
-0.029117 -0.018363 0.860000
0.007598 -0.034202 0.849000
-0.019868 0.030059 0.858000
-0.011090 -0.009182 0.862000
0.009323 -0.032030 0.847000
-0.001479 0.046243 0.844000
0.011321 -0.006873 0.840000
-0.014723 -0.021368 0.867000
0.014518 -0.036476 0.845000
0.013969 0.024726 0.833000
-0.006059 -0.006979 0.853000
0.004390 0.027256 0.837000
-0.008517 0.029182 0.853000
0.019941 -0.000649 0.839000
-0.013127 0.045491 0.856000
0.003062 -0.021674 0.851000
-0.003994 -0.043951 0.862000
-0.011485 -0.025947 0.865000
-0.031949 -0.031460 0.860000
0.009997 -0.021173 0.845000
-0.001826 0.034432 0.844000
-0.008156 0.029147 0.852000
0.008575 -0.012781 0.842000
-0.029253 -0.036940 0.864000
0.003044 0.049486 0.846000
0.012314 0.004864 0.837000
-0.008527 -0.000309 0.854000
-0.009615 -0.007012 0.857000
-0.011498 -0.029184 0.866000
-0.023046 0.017346 0.858000
0.016507 -0.025197 0.840000
-0.024358 -0.031002 0.867000
-0.032391 -0.002064 0.853000
-0.022496 -0.008136 0.864000
-0.027729 0.035026 0.850000
-0.026805 0.020780 0.854000
-0.021244 -0.035447 0.871000
-0.034983 -0.019894 0.865000
0.003728 0.017737 0.843000
-0.013912 0.010319 0.861000
-0.008271 -0.033384 0.864000
0.012270 0.028532 0.834000
0.003066 -0.023453 0.852000
-0.002533 0.018191 0.848000
-0.006402 0.002146 0.852000
0.004406 0.008685 0.840000
-0.023974 -0.024194 0.866000
0.019085 -0.037957 0.847000
-0.017221 -0.009235 0.867000
0.017741 0.039811 0.833000
-0.017102 0.016344 0.861000
-0.027830 -0.031606 0.864000
-0.034547 0.011054 0.863000
-0.022496 -0.007425 0.864000
0.008170 0.039267 0.836000
-0.012969 -0.036797 0.869000
0.020214 0.007267 0.836000
0.019296 -0.025573 0.841000
-0.012098 0.016993 0.858000
-0.005681 0.037431 0.849000
0.019801 -0.039384 0.863000
0.013953 0.030518 0.832000
-0.011800 -0.007408 0.862000
-0.021305 0.019841 0.859000
-0.007446 0.031915 0.851000
-0.032977 0.010187 0.850000
0.017035 0.018190 0.832000
0.021093 0.033177 0.830000
0.006465 0.012113 0.838000
-0.021911 -0.027140 0.869000
0.011569 0.034326 0.833000
0.002362 -0.032532 0.851000
-0.023180 -0.005640 0.863000
0.015016 0.015145 0.834000
0.030770 -0.028362 0.852000
0.007240 -0.032417 0.848000
0.002334 0.035002 0.841000
-0.016845 -0.004591 0.866000
0.008879 0.003146 0.838000
-0.020622 0.017033 0.860000
0.005456 -0.007929 0.842000
0.013659 0.041282 0.835000
-0.025992 -0.012020 0.862000
0.023171 0.028771 0.831000
0.001644 0.043361 0.842000
0.004050 0.027634 0.838000
-0.018334 -0.019271 0.869000
-0.025165 0.006752 0.858000
0.015985 -0.042239 0.849000
-0.011000 0.052828 0.855000
-0.027347 -0.008453 0.860000
-0.022600 -0.024250 0.868000
-0.026454 0.020429 0.854000
0.022785 -0.021098 0.842000
0.011680 -0.010689 0.841000
-0.005332 0.009477 0.849000
-0.012909 -0.017046 0.865000
0.018127 0.005540 0.835000
0.009879 0.035783 0.835000
0.006488 -0.003420 0.841000
0.015703 0.011712 0.834000
0.011625 0.015888 0.837000
0.008534 0.003490 0.838000
0.003059 0.051119 0.850000
-0.011129 -0.027015 0.865000
-0.019983 0.007502 0.863000
0.008514 0.032385 0.836000
-0.022587 0.038003 0.854000
0.007518 -0.005836 0.840000
0.009312 -0.022591 0.846000
0.028498 -0.020875 0.847000
0.019689 -0.032226 0.843000
0.014620 0.037664 0.831000
0.022568 0.018920 0.834000
0.001297 0.038162 0.842000
0.016181 -0.025919 0.841000
-0.011077 -0.002792 0.861000
0.010259 0.000731 0.838000
0.006193 -0.019503 0.848000
0.020681 -0.014496 0.841000
0.009902 0.004175 0.837000
0.009661 -0.027814 0.846000
-0.021206 0.042974 0.855000
0.021246 0.009676 0.836000
-0.014621 0.012800 0.861000
0.017398 0.012384 0.833000
-0.030914 0.015453 0.851000
0.000257 0.030502 0.841000
0.014104 -0.022804 0.841000
-0.011000 0.030658 0.855000
0.030104 -0.030853 0.853000
-0.010368 -0.010234 0.861000
-0.011325 0.040767 0.853000
-0.031301 0.009861 0.852000
0.013774 -0.022831 0.842000
0.021027 -0.024188 0.841000
0.018724 0.021931 0.831000
-0.029723 0.035600 0.847000
0.007240 -0.024390 0.848000
0.004448 -0.028229 0.848000
0.007607 0.050070 0.850000
0.002023 -0.042940 0.856000
-0.024487 0.004992 0.859000
0.011969 0.003142 0.837000
-0.019184 0.025851 0.859000
-0.010773 -0.029507 0.865000
-0.002527 0.035558 0.846000
-0.008857 0.052292 0.852000
0.006496 -0.011048 0.842000
0.020036 -0.031532 0.843000
-0.009197 0.050829 0.851000
-0.007096 0.013702 0.851000
-0.018764 0.040558 0.856000
-0.022314 0.024380 0.857000
0.000262 -0.045512 0.858000
0.014364 0.005891 0.836000
-0.008271 -0.035162 0.864000
-0.011786 0.000043 0.861000
-0.029197 0.018277 0.852000
0.010591 0.011065 0.837000
-0.019071 -0.026455 0.870000
0.012270 0.029218 0.834000
-0.013558 0.011028 0.861000
-0.020526 0.035274 0.856000
-0.016825 -0.003161 0.865000
0.014398 -0.000993 0.838000
-0.004268 0.045656 0.846000
0.017178 -0.021714 0.839000
-0.022012 0.015245 0.859000
-0.031632 -0.032205 0.861000
0.000257 0.030848 0.841000
0.016833 -0.006174 0.839000
0.016994 0.034885 0.830000
0.006565 -0.037435 0.851000
-0.004278 0.050650 0.848000
0.014778 -0.014133 0.840000
-0.004633 0.016465 0.849000
-0.002205 -0.021801 0.856000
0.012734 -0.018326 0.842000
0.015816 -0.022777 0.840000
-0.026608 -0.000665 0.859000
0.011240 0.027502 0.834000
0.011926 0.027845 0.834000
0.015341 0.019583 0.833000
0.020068 0.024979 0.830000
-0.014536 0.039149 0.856000
0.007854 0.019725 0.839000
0.020827 0.016498 0.833000
0.007240 -0.024041 0.848000
0.017440 0.007258 0.835000
0.023966 -0.032030 0.847000
-0.028211 0.011290 0.854000
-0.008537 0.016934 0.855000
-0.018648 -0.012090 0.867000
0.033264 -0.023831 0.853000
-0.012112 0.014184 0.859000
-0.028395 0.036732 0.849000
0.020310 -0.020011 0.840000
-0.025931 -0.006683 0.860000
0.014673 0.016174 0.834000
-0.005313 0.030335 0.846000
0.016853 -0.025542 0.840000
-0.033171 -0.014386 0.855000
-0.022314 0.025086 0.857000
0.008616 -0.019457 0.846000
0.022514 0.022984 0.832000
0.007189 -0.012781 0.842000
-0.017241 -0.017463 0.868000
0.025012 -0.029939 0.847000
0.019455 0.015469 0.833000
-0.006038 0.010537 0.850000
0.019727 0.025662 0.830000
0.011093 -0.044336 0.849000
-0.027252 0.001453 0.857000
-0.016450 0.001821 0.864000
0.009879 0.033721 0.835000
