-0.002246 0.021577 0.872000
-0.007842 -0.018630 0.856000
0.019198 0.014069 0.852000
0.028096 0.034569 0.856000
0.004506 0.042115 0.859000
0.024663 0.018518 0.847000
-0.034063 0.000766 0.878000
0.045073 0.028491 0.864000
-0.010860 0.006144 0.872000
-0.025964 -0.013251 0.873000
-0.003677 0.014383 0.871000
0.037943 0.015254 0.840000
-0.006094 0.039594 0.858000
0.009176 0.036399 0.866000
-0.034229 -0.028702 0.873000
-0.014941 -0.022938 0.859000
0.019040 0.000737 0.845000
0.033069 0.025171 0.848000
0.004464 -0.019923 0.851000
-0.014958 0.031545 0.860000
-0.001521 0.028980 0.868000
-0.001844 -0.018193 0.852000
0.042081 0.030873 0.861000
-0.046659 -0.004288 0.877000
0.029716 0.010438 0.842000
-0.013621 -0.005654 0.865000
-0.034542 -0.002495 0.881000
-0.012669 0.004714 0.873000
-0.006402 -0.024505 0.852000
-0.031208 -0.011172 0.879000
0.014068 0.020926 0.860000
0.040780 0.029284 0.856000
-0.018355 -0.008551 0.870000
-0.049047 0.002582 0.881000
0.018757 0.041649 0.864000
-0.007560 0.003243 0.864000
-0.030122 0.002214 0.879000
0.008326 0.005302 0.852000
-0.005344 -0.030080 0.851000
0.038934 0.011092 0.839000
-0.001863 -0.039647 0.861000
0.007589 -0.009382 0.848000
-0.012056 -0.037259 0.855000
-0.015062 0.024280 0.866000
0.012170 0.007397 0.851000
-0.036870 -0.026998 0.876000
-0.014009 -0.004596 0.867000
-0.036273 -0.001765 0.879000
-0.027895 -0.030610 0.866000
0.003807 -0.037521 0.861000
-0.019742 -0.013890 0.868000
0.027290 0.006280 0.842000
-0.010002 0.033669 0.860000
0.019445 0.034852 0.863000
0.012112 -0.000307 0.847000
-0.004329 0.038534 0.858000
-0.031030 -0.021900 0.874000
0.023241 0.009443 0.846000
0.001691 0.032478 0.866000
-0.023835 -0.039647 0.861000
0.011402 -0.004485 0.846000
0.020273 0.024618 0.853000
-0.028218 0.018556 0.865000
-0.005006 -0.014352 0.853000
0.002409 0.017906 0.868000
0.002045 0.014995 0.865000
-0.028349 0.013992 0.869000
-0.019969 0.002934 0.878000
-0.000092 0.019760 0.871000
-0.024972 -0.008249 0.876000
0.023433 0.024618 0.853000
0.036344 0.019125 0.843000
-0.006840 0.001463 0.863000
-0.006508 0.027844 0.866000
-0.023341 -0.012833 0.869000
0.036172 0.013854 0.839000
-0.024140 0.012605 0.872000
-0.029794 0.001130 0.880000
-0.004022 0.027194 0.868000
-0.006777 -0.036204 0.855000
-0.047633 -0.003198 0.875000
0.006665 0.017112 0.864000
0.035122 -0.000307 0.847000
-0.037528 -0.006498 0.883000
-0.042396 0.004703 0.871000
-0.027983 -0.003941 0.880000
-0.022470 -0.028728 0.863000
0.011302 0.038137 0.865000
-0.001524 0.026541 0.870000
0.011944 0.017033 0.860000
-0.014740 -0.007459 0.868000
-0.019696 -0.015284 0.866000
0.033648 0.020561 0.845000
0.005851 -0.012887 0.849000
-0.035911 -0.000680 0.879000
-0.029985 0.006526 0.875000
-0.016825 0.024252 0.865000
0.030646 0.001423 0.839000
-0.025245 -0.012533 0.873000
-0.008857 -0.029765 0.852000
0.027423 0.034962 0.857000
-0.019203 0.000764 0.876000
-0.028806 -0.021491 0.872000
-0.007833 -0.036556 0.855000
0.028063 0.033121 0.855000
0.033996 0.020909 0.845000
-0.017749 -0.031740 0.858000
-0.008586 -0.005267 0.860000
-0.000791 -0.008374 0.852000
-0.024386 0.016834 0.868000
0.016998 0.035289 0.865000
-0.045420 -0.000676 0.874000
-0.011219 0.019424 0.872000
0.028565 0.022755 0.849000
0.022571 0.017124 0.847000
0.020511 0.037693 0.863000
0.004553 0.022193 0.868000
-0.000447 -0.042274 0.864000
-0.038531 -0.004670 0.881000
-0.021911 0.017568 0.869000
0.005182 0.048548 0.854000
0.029436 0.033434 0.854000
0.026818 0.021008 0.849000
0.013067 0.028136 0.864000
-0.001867 0.010698 0.863000
0.003485 0.029371 0.869000
0.000610 -0.023048 0.850000
0.011210 0.014874 0.858000
0.028983 0.026661 0.851000
0.029787 0.015674 0.844000
0.039555 0.033669 0.860000
-0.009671 -0.003505 0.862000
-0.041679 0.005062 0.871000
-0.012042 -0.036513 0.854000
-0.016526 0.020764 0.868000
-0.013815 -0.031629 0.855000
-0.037401 -0.002854 0.880000
-0.038575 -0.005402 0.882000
0.025904 -0.004117 0.842000
-0.032655 -0.037582 0.879000
0.023561 0.008736 0.845000
-0.027602 0.015405 0.868000
0.008728 0.013799 0.857000
-0.007455 -0.028362 0.852000
0.036991 0.035709 0.858000
-0.007970 0.007563 0.870000
-0.032506 -0.021925 0.875000
-0.035707 -0.028375 0.874000
-0.031641 -0.027202 0.871000
-0.025361 -0.007176 0.877000
0.007938 -0.010778 0.848000
-0.030554 -0.007934 0.881000
0.037083 0.028797 0.852000
-0.032040 -0.005039 0.882000
-0.034190 -0.031540 0.872000
0.026304 0.031010 0.855000
-0.001523 0.026868 0.869000
-0.002539 -0.025497 0.850000
0.026313 -0.006211 0.844000
0.034790 0.013163 0.839000
0.020951 0.023537 0.852000
0.033648 0.021257 0.845000
-0.003656 0.029270 0.866000
0.015562 -0.006566 0.845000
0.008125 0.030052 0.868000
0.018380 0.033076 0.863000
0.010614 0.034300 0.867000
-0.004404 0.018368 0.873000
0.030719 0.010426 0.841000
0.036865 0.022353 0.847000
0.030348 0.026630 0.850000
-0.022470 -0.029083 0.863000
0.005514 -0.020623 0.851000
0.013236 0.008458 0.852000
-0.007998 0.018368 0.873000
-0.006073 -0.020016 0.855000
0.022511 0.030412 0.858000
-0.005482 0.016571 0.873000
-0.028610 -0.011146 0.877000
-0.011116 0.035959 0.864000
-0.007516 -0.040262 0.859000
0.014523 0.032834 0.866000
-0.026713 -0.013986 0.874000
-0.043780 0.006130 0.870000
-0.001142 -0.017141 0.852000
-0.026438 -0.030931 0.865000
-0.002233 0.028947 0.867000
0.033794 -0.000304 0.840000
-0.023037 0.014741 0.871000
0.029579 0.022379 0.848000
0.033835 0.015964 0.841000
0.006339 -0.039969 0.868000
-0.026083 0.005819 0.877000
-0.008972 -0.001023 0.863000
0.013422 0.027069 0.864000
0.035638 0.028413 0.851000
-0.004303 -0.011895 0.853000
-0.039437 0.009700 0.869000
-0.012183 0.028136 0.864000
-0.000090 -0.029379 0.851000
-0.019856 -0.005706 0.873000
0.040637 0.036483 0.868000
-0.022878 -0.018470 0.865000
-0.006440 0.038489 0.857000
0.021000 0.025701 0.854000
0.006550 -0.016381 0.849000
-0.029422 -0.027140 0.869000
0.020016 0.026849 0.857000
0.008996 -0.000308 0.849000
0.013407 0.041245 0.863000
-0.013977 -0.012774 0.865000
-0.035308 -0.005765 0.882000
-0.014155 0.009057 0.876000
-0.023261 -0.016709 0.866000
-0.036397 -0.005765 0.882000
0.002381 0.042066 0.858000
-0.018983 0.021429 0.866000
0.018066 0.039561 0.865000
0.029265 0.003495 0.839000
-0.039664 0.002202 0.874000
-0.047524 -0.000316 0.873000
-0.025781 0.003299 0.879000
-0.011604 0.009396 0.874000
0.009028 0.005302 0.852000
-0.018038 0.015476 0.872000
0.019824 0.037381 0.864000
0.005255 0.018221 0.866000
0.007317 0.045897 0.857000
-0.009003 0.004320 0.866000
-0.037571 -0.011599 0.884000
-0.002545 -0.018193 0.852000
0.015783 0.018031 0.857000
-0.017976 -0.010329 0.869000
0.007589 -0.014268 0.848000
-0.002599 0.014366 0.870000
-0.010165 0.010835 0.874000
0.035680 0.032654 0.852000
0.005255 0.019646 0.866000
0.035387 0.020909 0.845000
0.007240 -0.003797 0.848000
0.017254 0.026943 0.860000
-0.007507 0.036415 0.858000
-0.034984 -0.007952 0.883000
0.031598 0.021630 0.846000
-0.005432 0.007519 0.865000
-0.032979 -0.017302 0.878000
-0.006201 0.018368 0.873000
0.013345 0.046711 0.859000
0.034384 0.022675 0.846000
0.014811 0.025942 0.862000
-0.021146 -0.014588 0.867000
-0.026713 0.008677 0.874000
-0.023890 0.008696 0.876000
-0.033792 -0.030787 0.871000
0.015928 -0.002047 0.846000
0.012384 0.037111 0.866000
0.004882 -0.040094 0.863000
-0.012084 -0.024296 0.857000
-0.026082 0.018912 0.865000
0.010032 -0.014617 0.848000
0.033369 0.003835 0.838000
0.027039 0.033512 0.856000
0.012667 0.020596 0.861000
0.013839 -0.006226 0.846000
0.001687 -0.041563 0.864000
0.018757 0.035959 0.864000
0.000262 0.040300 0.858000
-0.031968 0.005114 0.880000
-0.049434 0.000763 0.875000
0.023406 0.023537 0.852000
0.012270 0.014874 0.858000
-0.035143 -0.016019 0.887000
-0.011485 -0.000313 0.865000
-0.024057 -0.013191 0.869000
-0.022138 0.006909 0.878000
0.033674 0.006242 0.837000
-0.029882 0.009374 0.872000
-0.019914 -0.022965 0.860000
0.016933 -0.005516 0.844000
0.046247 0.027844 0.866000
-0.017022 -0.032408 0.857000
-0.004354 0.032721 0.863000
0.032486 0.029113 0.851000
-0.029131 -0.024693 0.871000
-0.008992 0.027812 0.865000
-0.026918 0.014349 0.869000
0.019571 0.024267 0.853000
-0.010356 -0.015532 0.860000
0.017975 -0.006558 0.844000
0.023406 0.023887 0.852000
-0.013058 0.012648 0.875000
0.033536 0.029464 0.851000
-0.024915 -0.011108 0.874000
-0.023180 -0.041515 0.863000
-0.028971 0.004736 0.877000
0.010541 0.017052 0.861000
0.012446 -0.007967 0.846000
-0.001841 -0.022374 0.851000
-0.002542 -0.022024 0.851000
0.035261 0.017369 0.842000
-0.031713 0.007948 0.873000
0.003481 0.031481 0.868000
-0.002889 -0.026196 0.850000
-0.020268 -0.032168 0.860000
-0.005413 0.003945 0.862000
0.035080 0.022675 0.846000
-0.029265 -0.016523 0.875000
-0.002197 -0.009086 0.853000
0.011302 0.026032 0.865000
-0.010897 0.013368 0.875000
-0.016355 -0.026474 0.859000
0.033221 0.017390 0.843000
-0.001493 -0.015738 0.852000
-0.019514 -0.034565 0.858000
-0.034111 0.015440 0.870000
0.004916 0.024364 0.869000
0.001342 0.024779 0.871000
-0.012879 -0.013455 0.863000
0.032796 0.013195 0.841000
0.041055 0.009376 0.840000
-0.001156 0.037650 0.862000
-0.027228 -0.005383 0.879000
0.020528 0.015417 0.849000
0.012755 0.033229 0.867000
0.025527 -0.003420 0.841000
-0.034786 0.002212 0.878000
0.017301 -0.002741 0.845000
-0.004293 -0.030780 0.851000
-0.030172 0.012218 0.870000
0.026976 0.030270 0.854000
0.028548 0.040701 0.859000
-0.014350 0.024280 0.866000
-0.036468 -0.029128 0.875000
0.012313 0.019533 0.861000
0.029962 0.042115 0.859000
-0.028015 -0.002495 0.881000
0.019712 0.000042 0.844000
-0.007933 0.005389 0.866000
0.009555 0.030409 0.868000
-0.028313 -0.008278 0.879000
-0.027527 0.004736 0.877000
-0.026438 -0.041611 0.865000
-0.027991 -0.026424 0.869000
0.011903 0.013799 0.857000
0.023589 0.016755 0.846000
0.004506 0.041408 0.859000
-0.017416 -0.025060 0.859000
0.012170 0.007748 0.851000
-0.023590 -0.020250 0.865000
-0.046752 0.003991 0.872000
0.001669 -0.032685 0.855000
-0.029287 0.018556 0.865000
-0.000440 -0.015369 0.851000
-0.021330 -0.032876 0.860000
-0.000808 0.016514 0.870000
-0.044290 0.001480 0.873000
0.033024 0.008319 0.838000
0.005940 -0.038629 0.862000
0.015214 -0.007610 0.845000
0.034587 0.028063 0.851000
0.005495 -0.006939 0.848000
0.028988 0.008695 0.841000
0.008424 0.040133 0.862000
-0.021751 -0.001040 0.877000
-0.023918 -0.029828 0.864000
0.007334 0.043529 0.859000
0.012623 0.015227 0.858000
-0.000796 -0.035583 0.857000
0.024228 0.014631 0.844000
0.024051 0.021732 0.850000
-0.024334 0.004023 0.879000
-0.039619 0.003636 0.873000
0.013666 0.015210 0.857000
-0.001841 -0.013968 0.851000
-0.007137 -0.016516 0.856000
-0.001859 0.038933 0.859000
0.017670 0.000738 0.846000
-0.013280 0.024636 0.866000
-0.028186 -0.036940 0.864000
-0.018142 0.003653 0.877000
0.011415 -0.008325 0.847000
0.013650 0.013430 0.856000
-0.017340 -0.001394 0.873000
0.017354 0.035289 0.865000
0.038773 0.003511 0.843000
0.001679 0.009245 0.860000
0.003759 -0.015351 0.850000
0.035638 0.031915 0.851000
0.029716 0.011131 0.842000
-0.010710 0.033315 0.860000
0.004500 0.010636 0.858000
-0.004349 0.005010 0.862000
0.029023 0.009398 0.842000
0.007625 -0.001010 0.852000
0.002359 -0.008004 0.850000
-0.002243 0.023345 0.871000
0.000618 0.010319 0.861000
0.012461 -0.013205 0.847000
0.011328 0.032872 0.867000
-0.009637 0.033983 0.859000
0.016585 0.028425 0.862000
-0.028346 -0.005389 0.880000
-0.037123 -0.006128 0.882000
-0.019787 0.017589 0.870000
-0.022574 -0.042778 0.867000
0.023909 0.015692 0.845000
-0.017436 -0.021549 0.860000
-0.020527 -0.010712 0.871000
-0.024334 0.000405 0.879000
-0.032641 -0.033935 0.869000
-0.024573 -0.040048 0.862000
-0.011219 0.005068 0.872000
0.004853 0.043478 0.858000
0.033303 0.035894 0.854000
-0.014519 -0.033037 0.855000
-0.018605 -0.016690 0.865000
-0.018476 -0.039201 0.859000
-0.013495 -0.026059 0.857000
0.025891 0.026022 0.853000
-0.021553 0.017568 0.869000
0.021745 -0.002384 0.842000
0.005249 0.035289 0.865000
-0.025057 0.001129 0.879000
-0.023835 -0.033977 0.861000
0.010080 0.007406 0.852000
-0.028346 0.001492 0.880000
-0.040790 0.000763 0.875000
0.032135 0.029464 0.851000
-0.046393 0.001479 0.872000
0.023214 0.006302 0.845000
-0.046698 0.002911 0.871000
-0.004660 -0.018587 0.854000
-0.030916 -0.005033 0.881000
0.008473 0.033943 0.867000
-0.012140 0.030873 0.861000
-0.015330 0.029455 0.861000
-0.045524 -0.002481 0.876000
0.035946 0.025581 0.850000
0.015580 -0.002744 0.846000
-0.005761 0.034062 0.861000
-0.026949 0.012934 0.870000
-0.006137 0.030625 0.864000
-0.004693 0.035792 0.860000
-0.008716 0.011541 0.873000
-0.009294 0.034023 0.860000
0.022261 0.037295 0.862000
0.037163 0.004525 0.838000
0.020804 0.003872 0.846000
-0.011206 0.004345 0.871000
0.008975 -0.012857 0.847000
-0.002902 -0.033701 0.854000
0.022518 0.004563 0.845000
0.019468 0.041649 0.864000
-0.013542 -0.020487 0.860000
-0.034219 -0.010484 0.882000
0.008069 0.040488 0.862000
-0.014466 0.016931 0.873000
-0.011786 -0.009171 0.861000
0.037083 0.025290 0.852000
-0.038320 0.011118 0.868000
-0.025751 -0.005016 0.878000
-0.024630 -0.030184 0.864000
-0.032256 0.001489 0.878000
0.015893 0.043021 0.863000
0.000614 -0.034484 0.856000
0.001336 0.015030 0.867000
0.033103 0.011451 0.840000
-0.006073 -0.010515 0.855000
0.005560 0.011696 0.858000
-0.019868 -0.035978 0.858000
0.002401 0.034220 0.865000
-0.007455 -0.027661 0.852000
0.022438 -0.001345 0.842000
0.007589 -0.010778 0.848000
0.014759 0.019488 0.859000
0.026219 0.004195 0.841000
-0.012169 -0.012034 0.863000
-0.019340 0.022141 0.866000
-0.025994 -0.012547 0.874000
0.025557 0.004547 0.842000
-0.005363 -0.018938 0.854000
-0.022392 -0.037831 0.860000
0.032334 0.007974 0.838000
-0.002584 0.031372 0.865000
-0.006194 0.020500 0.872000
-0.019385 0.018977 0.868000
-0.030916 -0.001044 0.881000
-0.020238 0.011914 0.874000
-0.026384 -0.012561 0.875000
0.021652 0.023537 0.852000
0.034832 0.000041 0.840000
-0.021659 -0.035312 0.859000
-0.003677 0.014024 0.871000
0.020853 0.009116 0.848000
0.002012 -0.026577 0.851000
0.021102 0.002126 0.844000
-0.018397 -0.005340 0.872000
0.010210 0.020289 0.863000
-0.033417 -0.001405 0.880000
0.037083 0.030199 0.852000
-0.016981 -0.002113 0.873000
0.030277 0.023426 0.848000
0.012564 0.010938 0.854000
0.014489 0.028491 0.864000
0.009323 -0.009371 0.847000
-0.030671 0.006518 0.874000
-0.019937 -0.020865 0.861000
0.017114 0.012330 0.853000
0.014472 0.028103 0.863000
-0.002892 -0.029379 0.851000
0.000625 0.023345 0.871000
-0.015276 -0.028209 0.858000
-0.007842 -0.015812 0.856000
0.026624 0.028513 0.854000
-0.021305 -0.034252 0.859000
0.028834 0.038489 0.857000
-0.036954 -0.000318 0.878000
-0.016709 -0.024706 0.859000
-0.039124 0.007204 0.870000
-0.012909 -0.002449 0.865000
0.036732 0.030199 0.852000
-0.019071 0.016873 0.870000
0.027359 0.032417 0.855000
0.007768 0.029338 0.868000
0.028548 0.041054 0.859000
-0.010513 0.018368 0.873000
0.000621 0.033152 0.865000
0.026723 0.017452 0.846000
0.011053 -0.006226 0.846000
-0.005842 0.020165 0.873000
0.022118 0.001776 0.843000
-0.001528 0.022295 0.872000
-0.027729 0.010810 0.872000
0.006596 0.047197 0.855000
-0.025282 -0.039693 0.862000
-0.004753 0.023345 0.871000
0.018124 0.009849 0.851000
-0.013763 0.004360 0.874000
0.001311 -0.028329 0.851000
-0.037935 -0.009780 0.884000
0.010198 0.018491 0.862000
-0.004747 -0.043284 0.870000
-0.025637 -0.039693 0.862000
0.012098 -0.001351 0.846000
-0.018799 -0.001755 0.874000
-0.012894 -0.004225 0.864000
-0.034582 -0.005402 0.882000
0.016900 0.025528 0.860000
-0.023248 0.004023 0.879000
0.033106 0.039947 0.858000
0.033536 0.031915 0.851000
0.001331 0.047338 0.864000
-0.007221 0.039606 0.866000
-0.009208 -0.031167 0.852000
0.028482 0.036726 0.857000
-0.038945 0.004360 0.874000
0.020877 0.010874 0.849000
-0.026143 -0.027077 0.867000
0.006899 -0.015683 0.849000
-0.007805 -0.028362 0.852000
0.020202 0.019633 0.850000
-0.028577 -0.012576 0.876000
-0.017340 0.014775 0.873000
0.015580 -0.011449 0.846000
-0.041583 0.007554 0.869000
0.008975 -0.011462 0.847000
0.011315 0.029270 0.866000
0.031486 0.014961 0.843000
0.036430 0.008654 0.837000
0.024576 0.014631 0.844000
-0.015202 0.002561 0.874000
-0.010810 0.023622 0.868000
0.024716 0.039378 0.861000
-0.007612 0.007921 0.870000
0.005249 0.035645 0.865000
0.038934 0.013163 0.839000
-0.043261 0.001122 0.874000
0.024659 0.035397 0.859000
0.024834 -0.000651 0.841000
-0.008367 0.013353 0.874000
0.012098 -0.009360 0.846000
0.028642 0.007657 0.841000
-0.023368 -0.012490 0.870000
0.000264 0.034852 0.863000
0.032334 0.005905 0.838000
-0.022808 -0.005365 0.876000
-0.004747 0.011143 0.870000
-0.030241 -0.024362 0.872000
-0.017537 0.023540 0.865000
0.016173 0.022670 0.859000
-0.015219 0.012648 0.875000
0.011550 0.047660 0.857000
-0.011978 0.012288 0.875000
-0.006102 0.036811 0.859000
-0.025756 -0.028828 0.866000
-0.019856 0.013697 0.873000
-0.021479 -0.015997 0.866000
0.008799 0.038093 0.864000
0.001679 0.010307 0.860000
0.011590 0.017033 0.860000
-0.035711 -0.007225 0.883000
0.000264 0.033825 0.864000
-0.031139 -0.035641 0.867000
0.023980 0.036854 0.860000
-0.031282 0.010439 0.871000
-0.008261 0.031300 0.863000
0.019046 0.030518 0.861000
0.027102 0.037828 0.858000
0.021551 0.016097 0.848000
0.000962 -0.006971 0.852000
0.024544 0.027843 0.855000
-0.031604 -0.029319 0.870000
-0.029064 0.013992 0.869000
-0.004399 0.022654 0.872000
0.004490 0.045138 0.856000
-0.028284 -0.029218 0.867000
-0.003593 -0.024476 0.851000
-0.002192 -0.022024 0.851000
-0.020934 0.012619 0.873000
-0.016469 0.023896 0.865000
-0.006769 -0.021399 0.854000
0.036473 0.012113 0.838000
0.014422 0.046057 0.860000
0.020202 0.018234 0.850000
-0.046805 -0.000316 0.873000
0.019243 0.025350 0.854000
-0.011800 -0.007763 0.862000
0.022866 0.006650 0.845000
0.009718 0.005296 0.851000
-0.046552 -0.002118 0.875000
-0.024358 -0.042778 0.867000
-0.036468 -0.030208 0.875000
0.039970 0.008674 0.839000
0.011197 0.047660 0.857000
-0.013684 0.021503 0.869000
-0.014774 0.020095 0.870000
0.006689 0.033229 0.867000
-0.021734 0.024877 0.862000
-0.006425 -0.018960 0.855000
0.003803 0.041102 0.860000
0.005255 0.020003 0.866000
-0.015202 0.014432 0.874000
-0.016206 -0.006044 0.870000
-0.007481 -0.021424 0.855000
0.001340 0.026183 0.870000
-0.005721 -0.035500 0.855000
0.009522 0.023896 0.865000
-0.031641 -0.001044 0.881000
0.006281 0.007476 0.860000
0.037828 0.026022 0.853000
-0.004753 0.012949 0.871000
-0.029037 -0.009363 0.879000
-0.015348 0.028425 0.862000
-0.029677 -0.033462 0.866000
0.022210 0.034023 0.860000
-0.026444 -0.008259 0.877000
-0.020099 -0.013533 0.868000
-0.037334 0.008637 0.870000
-0.001839 -0.028295 0.850000
-0.025282 -0.034726 0.862000
-0.041320 0.005420 0.871000
-0.002896 -0.020647 0.852000
-0.000091 -0.042630 0.864000
-0.025667 -0.033701 0.863000
-0.013637 -0.003878 0.866000
-0.003597 -0.014686 0.852000
0.010971 0.033943 0.867000
0.017753 0.008438 0.850000
-0.031246 0.010785 0.870000
0.000261 0.045086 0.855000
0.026881 0.024210 0.851000
0.003473 0.033191 0.866000
0.020697 0.026818 0.856000
0.023478 0.001428 0.842000
-0.013127 -0.028847 0.856000
-0.008338 0.021552 0.871000
-0.035778 0.011819 0.867000
0.035988 0.027012 0.851000
-0.017020 0.012288 0.875000
-0.006904 0.010439 0.871000
0.008356 0.010951 0.855000
0.029998 0.026980 0.850000
-0.001859 0.038579 0.859000
0.026881 0.023509 0.851000
0.026881 0.023159 0.851000
0.029057 0.013226 0.843000
0.035661 0.038978 0.860000
0.018778 0.043833 0.865000
-0.003284 0.004300 0.862000
0.011972 0.042617 0.862000
-0.023808 -0.037477 0.860000
-0.017914 -0.014927 0.866000
0.007385 0.020692 0.865000
-0.001491 -0.014669 0.851000
-0.008223 -0.007382 0.859000
-0.003593 -0.030780 0.851000
0.012535 0.008809 0.852000
0.010895 0.042922 0.861000
-0.037735 0.012232 0.871000
-0.004364 0.030304 0.865000
0.022838 0.029671 0.857000
-0.016650 -0.033075 0.856000
0.025189 0.025320 0.853000
-0.008857 -0.029414 0.852000
0.037989 0.016310 0.841000
0.000610 -0.012902 0.850000
0.018518 0.017596 0.853000
0.006550 -0.016032 0.849000
0.021252 0.021382 0.850000
-0.034180 -0.002857 0.881000
-0.016431 -0.018072 0.863000
-0.018080 -0.001755 0.874000
0.002392 0.013879 0.862000
-0.012596 0.000757 0.868000
-0.022112 0.007623 0.877000
0.007768 0.029695 0.868000
0.039970 0.010056 0.839000
0.005152 -0.012188 0.849000
-0.006052 -0.024154 0.852000
-0.026233 -0.021800 0.870000
0.000973 0.012460 0.862000
-0.008527 -0.025265 0.854000
-0.030635 -0.022234 0.873000
-0.008185 -0.036204 0.855000
-0.001493 -0.031518 0.852000
-0.005035 -0.038096 0.858000
0.002773 0.027257 0.870000
-0.015455 -0.008888 0.868000
-0.008271 0.001821 0.864000
0.039719 0.014579 0.841000
-0.010673 -0.039463 0.857000
-0.018896 0.028070 0.862000
-0.003303 0.010748 0.867000
0.033186 0.032266 0.851000
-0.013388 0.004355 0.873000
-0.005842 0.019446 0.873000
0.010406 0.003890 0.850000
-0.011432 -0.010589 0.861000
0.003465 0.015334 0.864000
0.041104 0.011118 0.841000
-0.011116 -0.001024 0.864000
-0.015739 -0.016671 0.864000
-0.018735 -0.008202 0.871000
0.023131 -0.003077 0.842000
-0.002605 0.022654 0.872000
0.012535 0.008107 0.852000
-0.008626 0.001465 0.864000
-0.028251 -0.032749 0.866000
0.040234 0.036797 0.867000
-0.001140 -0.025497 0.850000
0.000615 -0.035583 0.857000
0.009444 0.044891 0.858000
0.002031 -0.036373 0.859000
0.013453 0.037111 0.866000
0.034181 0.015964 0.841000
-0.014689 0.025320 0.865000
-0.015223 -0.034092 0.855000
-0.026022 -0.034056 0.863000
0.024864 0.003854 0.842000
-0.019605 -0.019825 0.862000
0.032588 -0.002799 0.863000
0.011563 0.014874 0.858000
0.010553 0.041552 0.862000
0.040806 0.034181 0.864000
0.009544 0.028590 0.867000
0.019365 -0.000653 0.844000
-0.015561 0.014792 0.874000
-0.019251 -0.041112 0.862000
-0.001867 0.033786 0.863000
-0.039483 0.010427 0.870000
-0.025637 -0.038984 0.862000
0.001696 0.019714 0.869000
-0.009065 -0.041230 0.872000
-0.032073 -0.024031 0.873000
-0.020862 -0.011415 0.870000
-0.008868 -0.026640 0.853000
-0.000092 0.027941 0.869000
-0.042754 0.004703 0.871000
0.029681 -0.002728 0.841000
-0.030033 -0.039164 0.866000
0.016565 0.027684 0.861000
-0.023476 -0.010029 0.874000
-0.035748 -0.032009 0.875000
-0.021578 -0.011774 0.870000
0.011262 0.020620 0.862000
0.020625 0.024618 0.853000
0.018453 0.008438 0.850000
-0.009219 -0.033310 0.853000
0.031231 0.036640 0.855000
-0.032506 -0.020484 0.875000
0.013360 0.020218 0.860000
-0.006872 0.007180 0.867000
-0.013495 -0.026765 0.857000
-0.016244 -0.003187 0.872000
0.026687 0.033512 0.856000
-0.027634 -0.026067 0.869000
0.005207 0.043125 0.858000
0.002359 -0.017450 0.850000
0.013839 -0.002744 0.846000
0.010021 -0.001353 0.847000
0.012155 0.005989 0.850000
0.011617 0.041552 0.862000
-0.002194 -0.011530 0.852000
-0.001846 -0.031906 0.853000
-0.009559 -0.029765 0.852000
0.016305 0.036399 0.866000
-0.015597 0.011941 0.876000
0.039110 0.032884 0.858000
0.025904 0.005240 0.842000
-0.022371 -0.010018 0.873000
-0.004649 -0.031518 0.852000
-0.015575 -0.034444 0.855000
-0.014976 0.029455 0.861000
0.030634 0.040300 0.858000
0.026281 0.008369 0.843000
-0.011485 0.026388 0.865000
0.010198 0.019910 0.862000
-0.032641 0.011131 0.869000
0.034587 0.027712 0.851000
0.029963 0.023803 0.849000
0.029153 0.036683 0.856000
-0.006258 -0.043106 0.881000
0.014742 0.019112 0.858000
0.022864 0.030059 0.858000
-0.036301 0.007571 0.871000
-0.019891 -0.037787 0.859000
-0.014553 -0.027823 0.857000
0.030646 0.001768 0.839000
-0.020551 -0.008929 0.872000
0.030792 0.014267 0.843000
0.030843 0.034488 0.854000
-0.026980 -0.016447 0.871000
-0.018778 0.014775 0.873000
0.034790 0.011437 0.839000
-0.011800 -0.013794 0.862000
-0.028185 -0.015443 0.875000
0.023909 0.009432 0.845000
-0.008726 0.014792 0.874000
-0.003943 -0.030080 0.851000
0.026104 0.040040 0.860000
-0.011432 0.031227 0.861000
-0.031426 0.006526 0.875000
-0.020670 0.026651 0.862000
0.002009 -0.008004 0.850000
0.003413 -0.022024 0.851000
0.030662 0.024852 0.849000
-0.004303 -0.017161 0.853000
0.010418 0.007047 0.851000
-0.019161 -0.032446 0.858000
-0.012669 0.005792 0.873000
-0.032979 -0.018025 0.878000
0.030598 0.039548 0.857000
-0.004994 -0.027278 0.851000
-0.012745 -0.032646 0.854000
-0.020386 -0.016690 0.865000
-0.004303 -0.020320 0.853000
-0.002575 0.006783 0.862000
-0.029780 -0.027855 0.869000
-0.015490 0.019737 0.870000
-0.017062 -0.028241 0.859000
-0.046139 -0.000676 0.874000
0.003754 -0.006947 0.849000
-0.012864 0.029490 0.862000
0.019759 0.003524 0.846000
0.022920 0.017124 0.847000
0.010369 -0.001004 0.847000
0.002359 -0.017100 0.850000
0.037208 0.013163 0.839000
-0.014499 0.014449 0.875000
-0.011090 0.030554 0.862000
-0.025159 0.023676 0.870000
-0.006920 0.015134 0.873000
-0.016698 0.006541 0.877000
0.010021 -0.009371 0.847000
0.010369 -0.007976 0.847000
-0.000092 0.019379 0.870000
-0.031641 -0.007934 0.881000
0.007240 -0.009731 0.848000
-0.007998 0.012978 0.873000
0.010971 0.032159 0.867000
-0.011142 0.025706 0.866000
0.011644 0.024580 0.864000
-0.013542 -0.020841 0.860000
-0.002560 -0.036288 0.857000
-0.029794 0.000768 0.880000
0.010406 -0.017800 0.850000
0.032835 0.014597 0.842000
-0.023590 0.020336 0.865000
-0.020692 0.005825 0.878000
-0.039079 0.010415 0.869000
0.030301 0.005221 0.839000
-0.022470 -0.041515 0.863000
-0.015983 -0.029268 0.858000
-0.002581 0.010355 0.864000
-0.046499 -0.001396 0.874000
-0.017416 -0.022938 0.859000
-0.033054 -0.000681 0.880000
-0.008194 -0.014755 0.856000
0.028296 0.006618 0.841000
-0.024573 -0.040758 0.862000
-0.045727 0.000402 0.873000
-0.026744 -0.012561 0.875000
-0.013058 0.008686 0.875000
0.025420 0.020658 0.849000
-0.023617 -0.016709 0.866000
0.002042 0.014623 0.864000
0.032836 0.029464 0.851000
-0.025014 -0.029151 0.865000
0.015556 0.030625 0.864000
-0.036438 -0.007952 0.883000
0.000260 -0.018872 0.851000
-0.002228 0.032084 0.865000
0.028954 0.000041 0.840000
-0.015983 -0.028209 0.858000
-0.033129 -0.003587 0.882000
-0.020598 -0.035666 0.859000
0.004458 -0.019199 0.850000
-0.041727 0.003273 0.872000
0.033369 0.006939 0.838000
-0.009921 -0.034715 0.853000
-0.033455 -0.001770 0.881000
-0.000791 -0.030080 0.851000
-0.031534 -0.014050 0.878000
-0.016641 0.001482 0.874000
-0.022834 0.007623 0.877000
-0.009348 0.028168 0.865000
0.039693 0.035207 0.863000
0.005851 -0.004501 0.849000
0.033714 0.009699 0.838000
0.016841 0.022969 0.857000
0.035219 0.016310 0.841000
0.015236 0.034973 0.866000
0.008444 0.020312 0.864000
0.010234 0.024252 0.865000
-0.028186 -0.036585 0.864000
-0.015939 0.003645 0.875000
-0.031354 0.007229 0.873000
-0.018713 0.017231 0.870000
0.030527 0.036640 0.855000
-0.018842 0.002207 0.876000
0.024923 0.010463 0.844000
-0.003999 -0.042581 0.863000
-0.024695 0.004023 0.879000
-0.004319 -0.035894 0.856000
0.000615 0.042017 0.857000
0.003767 -0.023102 0.852000
-0.030241 0.009016 0.872000
0.035741 0.006587 0.837000
0.005547 0.045491 0.856000
0.008060 0.015989 0.861000
0.037508 0.007974 0.838000
0.018422 0.040273 0.865000
0.034099 0.001423 0.839000
-0.023672 0.017548 0.868000
0.009672 -0.005536 0.847000
0.009488 0.041197 0.862000
-0.022473 -0.003205 0.877000
0.011106 -0.017100 0.850000
0.023571 0.031118 0.858000
-0.000791 -0.009777 0.852000
0.029505 0.037740 0.856000
-0.017769 -0.028595 0.859000
0.013491 -0.011101 0.846000
-0.036075 -0.011949 0.883000
-0.027621 0.000406 0.880000
-0.025458 -0.023536 0.868000
0.037508 0.011078 0.838000
0.006310 0.038093 0.864000
0.035439 0.004525 0.838000
0.033970 0.041907 0.862000
0.000260 -0.020599 0.850000
0.037433 0.028797 0.852000
-0.002551 -0.009097 0.854000
0.020528 0.017164 0.849000
-0.005828 0.011515 0.871000
-0.005781 0.030625 0.864000
-0.031816 0.016439 0.866000
-0.023556 0.006901 0.877000
0.002757 0.035289 0.865000
-0.022448 -0.003923 0.876000
-0.013621 0.026032 0.865000
-0.010272 -0.034364 0.853000
-0.002896 -0.015738 0.852000
-0.046966 -0.003923 0.876000
-0.012553 -0.001737 0.865000
0.006208 -0.019199 0.850000
0.005170 -0.022050 0.852000
0.026786 0.019936 0.848000
-0.017935 -0.013517 0.867000
0.004803 -0.014984 0.849000
-0.013058 0.011568 0.875000
0.011792 0.003886 0.849000
0.015875 0.028425 0.862000
-0.037377 0.007571 0.871000
-0.007979 0.009005 0.871000
-0.000809 0.022986 0.871000
-0.008567 0.037475 0.858000
-0.001841 -0.029379 0.851000
0.019876 0.013702 0.851000
-0.016903 0.019357 0.869000
0.024954 0.032140 0.857000
-0.025282 -0.034371 0.862000
0.025330 0.017452 0.846000
0.023796 -0.000651 0.841000
-0.013731 0.018347 0.872000
-0.005741 0.038181 0.858000
-0.008982 0.000754 0.864000
0.014759 0.020902 0.859000
0.030719 -0.002035 0.841000
0.011415 -0.013205 0.847000
-0.012028 -0.034013 0.853000
-0.019868 -0.034918 0.858000
-0.025546 0.012590 0.871000
-0.041338 -0.003574 0.879000
0.043095 0.027651 0.860000
0.003457 -0.038629 0.862000
-0.008920 -0.010199 0.858000
0.014134 0.028136 0.864000
0.039509 0.032922 0.859000
-0.016057 0.028425 0.862000
-0.002602 0.022986 0.871000
-0.013621 0.025676 0.865000
0.007343 0.042518 0.860000
0.016645 0.001785 0.847000
-0.006777 -0.020720 0.855000
0.037083 0.029147 0.852000
0.028710 0.012879 0.843000
-0.018433 -0.036641 0.857000
0.041776 0.031973 0.862000
-0.011813 -0.004930 0.863000
0.012991 0.017366 0.859000
-0.007630 0.011528 0.872000
-0.000091 -0.041919 0.864000
0.025042 0.037208 0.860000
0.024923 0.008031 0.844000
-0.018799 -0.003194 0.874000
-0.017281 -0.008193 0.870000
-0.001158 0.033114 0.864000
-0.002189 -0.024797 0.850000
0.022590 0.036543 0.861000
-0.017039 0.004370 0.876000
0.044567 0.031481 0.868000
-0.019541 -0.002118 0.875000
-0.036149 -0.025916 0.876000
0.011402 -0.005878 0.846000
0.005267 0.031481 0.868000
-0.025992 -0.036500 0.862000
0.028599 0.024181 0.850000
-0.039795 0.008627 0.869000
-0.003601 -0.018916 0.853000
-0.008204 -0.019005 0.857000
-0.004026 0.010773 0.869000
-0.047828 0.000043 0.872000
-0.029287 -0.036627 0.865000
0.027679 0.030270 0.854000
0.040758 0.012156 0.841000
-0.009956 -0.023210 0.856000
0.014338 0.012359 0.855000
0.018401 0.041293 0.864000
0.019423 0.033037 0.862000
-0.015348 -0.018761 0.862000
0.030590 0.022004 0.847000
-0.030088 -0.040791 0.878000
-0.009660 0.032645 0.861000
0.008820 0.024636 0.866000
0.039064 0.032493 0.857000
-0.042182 0.001122 0.874000
0.032489 0.014250 0.842000
0.021577 0.039114 0.863000
-0.017042 -0.029268 0.858000
-0.014058 -0.041136 0.870000
-0.004349 0.033747 0.862000
-0.003677 0.015816 0.871000
0.003059 -0.013952 0.850000
-0.000441 -0.008374 0.852000
-0.010537 0.012288 0.875000
-0.002916 -0.037390 0.858000
0.002384 0.041054 0.859000
0.005249 0.036001 0.865000
-0.030817 0.013261 0.868000
-0.011800 0.029844 0.862000
0.010382 -0.000307 0.848000
-0.007805 -0.027310 0.852000
-0.012596 0.022550 0.868000
0.014372 0.015210 0.857000
0.033264 0.034448 0.853000
-0.027104 -0.013642 0.875000
0.009683 -0.014617 0.848000
-0.001491 -0.021674 0.851000
-0.030390 0.015726 0.866000
0.025480 0.023159 0.851000
0.023533 0.012547 0.844000
0.009522 0.037781 0.865000
0.001665 -0.031204 0.853000
-0.022448 -0.004283 0.876000
-0.023863 0.009407 0.875000
-0.014250 0.031899 0.860000
0.011315 0.028914 0.866000
-0.011759 0.032922 0.859000
0.034707 0.006242 0.837000
0.010115 0.048605 0.855000
-0.029490 -0.024334 0.871000
-0.018918 -0.018428 0.863000
0.021202 0.012956 0.848000
-0.002599 0.026183 0.870000
-0.011051 -0.019049 0.859000
0.026913 0.025991 0.852000
0.031795 0.014250 0.842000
-0.037123 -0.005039 0.882000
-0.026652 0.011528 0.872000
0.005975 0.021810 0.867000
-0.028218 -0.033779 0.865000
-0.023116 -0.008950 0.874000
-0.017456 0.028038 0.861000
0.027917 -0.000304 0.840000
-0.010760 0.028491 0.864000
0.035619 0.038226 0.859000
-0.002923 -0.039247 0.860000
0.029187 0.038489 0.857000
-0.019537 -0.026474 0.859000
-0.026825 -0.029897 0.866000
-0.014906 -0.038757 0.857000
0.015709 0.010223 0.853000
0.026242 -0.006979 0.853000
0.003457 -0.038984 0.862000
0.019852 0.010887 0.850000
0.002760 0.032478 0.866000
0.015580 -0.011797 0.846000
0.031909 0.020561 0.845000
-0.009921 -0.032257 0.853000
-0.000442 -0.033388 0.855000
-0.008951 -0.004919 0.861000
-0.026866 0.003299 0.879000
-0.019115 0.015117 0.872000
0.035439 0.002801 0.838000
-0.012338 0.012648 0.875000
-0.042157 -0.006846 0.881000
-0.013558 -0.019448 0.861000
-0.010380 0.030909 0.862000
-0.012225 0.001113 0.867000
-0.044031 -0.000677 0.875000
-0.021355 -0.022637 0.861000
-0.009273 -0.017968 0.858000
0.025934 -0.005163 0.843000
0.011986 0.023485 0.863000
0.018066 0.040273 0.865000
0.022236 0.036188 0.861000
-0.001165 0.027941 0.869000
0.040018 0.011451 0.840000
0.022491 0.003168 0.844000
0.015912 0.031692 0.864000
-0.000807 0.027583 0.869000
0.003803 0.012785 0.860000
0.036862 0.002459 0.839000
0.007240 -0.004146 0.848000
0.035329 0.033355 0.852000
-0.034229 -0.028342 0.873000
-0.009316 -0.003860 0.862000
0.007723 0.017802 0.863000
0.017321 0.000738 0.846000
0.031636 0.022701 0.847000
-0.038894 -0.005396 0.881000
0.034937 0.027362 0.851000
0.002009 -0.011503 0.850000
-0.000791 -0.020623 0.851000
0.025934 0.007675 0.843000
-0.023153 -0.041112 0.862000
-0.000444 0.039286 0.859000
0.027647 0.043071 0.864000
0.008116 0.034656 0.867000
0.002709 -0.017800 0.850000
0.002009 -0.014651 0.850000
0.011106 0.004940 0.850000
0.035827 0.040582 0.864000
0.033339 0.022675 0.846000
0.000618 0.007839 0.861000
-0.008567 -0.009139 0.858000
-0.030415 -0.014034 0.877000
-0.002605 0.021936 0.872000
0.012741 0.036399 0.866000
-0.007279 0.016931 0.873000
-0.003639 0.006074 0.862000
-0.043671 -0.000677 0.875000
0.014187 -0.003092 0.846000
-0.026384 -0.012201 0.875000
-0.001846 -0.032608 0.853000
-0.010501 0.005785 0.872000
-0.036801 -0.012313 0.883000
-0.014587 -0.023645 0.859000
-0.034180 -0.002495 0.881000
-0.037165 -0.008315 0.883000
0.006009 0.040240 0.872000
-0.012338 0.012288 0.875000
0.004200 0.029371 0.869000
0.009706 0.003540 0.850000
0.005152 -0.010790 0.849000
-0.026763 0.020668 0.864000
-0.014399 -0.003176 0.869000
-0.034219 -0.011210 0.882000
-0.000091 -0.039647 0.861000
0.021202 0.013305 0.848000
0.032211 0.034097 0.853000
-0.019184 -0.024706 0.859000
0.015376 0.011641 0.854000
-0.017375 -0.037347 0.857000
-0.022851 -0.028050 0.864000
-0.015775 -0.012432 0.866000
0.008975 -0.013205 0.847000
0.019468 0.038448 0.864000
0.020828 0.005968 0.847000
-0.018123 -0.030363 0.859000
-0.016336 -0.029621 0.858000
-0.010165 0.014432 0.874000
0.014166 0.033904 0.866000
-0.023535 -0.041515 0.863000
-0.013403 0.006518 0.874000
0.015232 -0.002396 0.846000
0.014570 -0.013919 0.848000
-0.020145 -0.011057 0.870000
-0.009604 -0.022858 0.856000
-0.022652 0.015082 0.870000
0.031023 0.041761 0.859000
-0.014499 0.013728 0.875000
0.037252 0.002116 0.840000
0.008779 0.017782 0.862000
0.027135 0.019936 0.848000
-0.026591 -0.022158 0.870000
0.007411 0.026837 0.868000
-0.019983 -0.018428 0.863000
-0.008261 0.000753 0.863000
0.000264 0.034181 0.864000
-0.012070 -0.026381 0.856000
0.021152 0.005265 0.846000
-0.020621 0.011207 0.875000
0.033369 0.008319 0.838000
0.019525 0.012301 0.851000
-0.022089 -0.029050 0.862000
0.003073 0.047493 0.854000
-0.035348 -0.006498 0.883000
-0.034905 -0.014461 0.881000
-0.037952 0.001485 0.876000
-0.018123 -0.028949 0.859000
-0.006560 0.017290 0.873000
-0.022808 0.008336 0.876000
-0.020598 -0.038141 0.859000
-0.000440 -0.021648 0.850000
0.024171 0.001428 0.842000
-0.021355 -0.039647 0.861000
-0.030635 0.007589 0.873000
0.017710 0.038493 0.865000
0.008365 0.047252 0.856000
0.025527 0.002465 0.841000
-0.018455 -0.033153 0.858000
0.030792 0.014961 0.843000
0.014570 0.002485 0.848000
-0.001154 0.007484 0.861000
-0.007204 0.030625 0.864000
-0.017082 -0.021549 0.860000
-0.026856 0.021810 0.867000
0.032566 0.019147 0.844000
-0.036933 0.009700 0.869000
0.002359 -0.018500 0.850000
0.024630 0.032884 0.858000
-0.024943 -0.008960 0.875000
0.033103 0.000387 0.840000
-0.041989 0.006130 0.870000
0.019017 -0.007253 0.844000
0.006611 0.011330 0.857000
0.019135 0.040273 0.865000
0.006696 0.030767 0.868000
-0.006801 -0.008080 0.858000
0.024864 0.002814 0.842000
-0.028905 -0.016523 0.875000
-0.012553 0.026032 0.865000
-0.016507 -0.012447 0.867000
0.017649 -0.009348 0.845000
0.017362 0.003532 0.848000
-0.032330 -0.000681 0.880000
-0.044442 -0.002481 0.876000
-0.009446 0.011554 0.874000
0.027258 -0.002728 0.841000
-0.031246 -0.029319 0.870000
0.023598 0.033276 0.859000
-0.035307 -0.029780 0.873000
-0.021776 0.005825 0.878000
0.018847 0.012666 0.852000
-0.018100 0.011928 0.875000
0.020528 0.009477 0.849000
-0.004747 0.010785 0.870000
-0.028674 0.014333 0.868000
0.006642 -0.036812 0.861000
0.032874 0.016696 0.843000
-0.015939 0.004005 0.875000
-0.020692 0.002934 0.878000
0.007580 -0.006233 0.847000
-0.007212 0.005739 0.865000
-0.034548 -0.031181 0.872000
0.014472 0.027037 0.863000
0.029230 0.020634 0.848000
0.032084 0.041054 0.859000
0.008985 -0.002401 0.848000
0.023109 0.026052 0.854000
-0.024246 -0.041160 0.863000
0.013438 0.038493 0.865000
0.035094 0.010044 0.838000
-0.030495 0.012561 0.869000
-0.009991 -0.010918 0.859000
0.006222 -0.020998 0.852000
0.032566 0.018105 0.844000
-0.012698 0.010127 0.875000
-0.016169 -0.009603 0.868000
0.021900 0.017842 0.848000
-0.034111 0.009353 0.870000
-0.003665 0.027194 0.868000
-0.020951 -0.037787 0.859000
0.009411 0.048253 0.855000
0.028676 0.009052 0.842000
0.002392 0.014234 0.862000
-0.012338 0.013728 0.875000
-0.010623 -0.033661 0.853000
-0.004379 0.027551 0.868000
-0.023781 0.013322 0.872000
0.040497 0.034932 0.865000
-0.003246 -0.031869 0.852000
0.005885 0.048196 0.854000
-0.042396 0.004345 0.871000
-0.016689 -0.029268 0.858000
-0.024667 -0.002848 0.878000
0.005146 -0.007288 0.848000
-0.011868 0.024308 0.867000
-0.013418 0.011928 0.875000
-0.013880 -0.023999 0.859000
0.003754 -0.009393 0.849000
-0.028218 0.018200 0.865000
0.015599 -0.012508 0.847000
-0.012524 -0.005285 0.863000
-0.023590 -0.025591 0.865000
0.008444 0.019601 0.864000
-0.019514 -0.035271 0.858000
-0.015028 -0.016315 0.864000
0.008677 0.005302 0.852000
0.007249 -0.017779 0.849000
-0.014621 0.029810 0.861000
0.000625 0.022269 0.871000
0.033887 0.030865 0.851000
0.011986 0.024196 0.863000
-0.005070 0.030980 0.864000
0.009144 0.019934 0.863000
0.011328 0.030017 0.867000
-0.024306 -0.002486 0.878000
-0.012437 -0.039463 0.857000
-0.020030 -0.016334 0.865000
-0.032544 -0.019787 0.876000
0.002757 0.034932 0.865000
0.039280 0.009710 0.839000
0.035052 0.007965 0.837000
0.015949 0.038181 0.866000
-0.031889 -0.033182 0.868000
-0.032330 0.000043 0.880000
-0.000794 0.043326 0.855000
-0.003994 0.004655 0.862000
-0.017201 -0.014927 0.866000
-0.002215 -0.038893 0.860000
-0.009716 0.026419 0.866000
-0.031354 0.007948 0.873000
0.004910 0.022907 0.868000
-0.022087 -0.002841 0.876000
0.000261 -0.007322 0.852000
-0.022396 -0.007151 0.874000
0.006310 0.037026 0.864000
-0.015080 -0.009592 0.867000
-0.016298 -0.034132 0.856000
-0.024943 0.009407 0.875000
0.000620 -0.041919 0.864000
0.022158 0.030412 0.858000
0.013507 0.001088 0.847000
0.014884 -0.002047 0.846000
-0.015702 0.028425 0.862000
-0.037763 -0.002854 0.880000
-0.021053 0.003296 0.878000
0.024953 0.016388 0.845000
-0.031030 -0.021180 0.874000
0.020804 0.005265 0.846000
-0.016603 0.016911 0.872000
-0.003277 0.036500 0.860000
0.006964 0.044838 0.857000
0.024721 0.020309 0.849000
-0.031532 -0.034968 0.868000
-0.028931 0.018556 0.865000
-0.027558 -0.008629 0.878000
-0.008507 -0.029765 0.852000
0.008287 -0.013919 0.848000
-0.019960 -0.020535 0.862000
-0.006856 0.029236 0.865000
0.000982 0.026899 0.870000
-0.011854 0.025706 0.866000
-0.006123 0.033037 0.862000
0.000618 0.012105 0.862000
0.013730 0.043630 0.861000
0.013158 0.000390 0.847000
-0.006793 -0.008776 0.857000
-0.022038 -0.039247 0.860000
0.003059 -0.015351 0.850000
-0.014859 0.005805 0.875000
0.003489 0.025824 0.870000
-0.010308 -0.023915 0.856000
0.035904 0.024852 0.849000
0.040780 0.027875 0.856000
-0.030817 -0.032824 0.868000
-0.009424 0.008298 0.872000
0.014901 0.000042 0.847000
-0.022473 0.007262 0.877000
-0.027895 0.017151 0.866000
-0.002947 0.029304 0.867000
-0.023726 0.015082 0.870000
0.011067 -0.008673 0.847000
-0.000091 0.035207 0.863000
0.020730 -0.001693 0.843000
-0.006560 0.015493 0.873000
-0.027590 0.002214 0.879000
0.007957 -0.018150 0.850000
0.029187 0.038842 0.857000
-0.015132 -0.003896 0.870000
-0.027761 0.009385 0.873000
-0.020718 0.023868 0.864000
-0.003994 0.005719 0.862000
0.024063 0.040180 0.863000
-0.030460 0.014333 0.868000
0.021148 0.032607 0.860000
-0.024715 -0.021011 0.867000
-0.011964 0.007238 0.874000
-0.048546 0.000043 0.872000
-0.016299 0.003645 0.875000
-0.019161 -0.033153 0.858000
-0.009251 -0.022506 0.856000
-0.000091 -0.034484 0.856000
-0.022089 -0.030469 0.862000
0.019445 0.035207 0.863000
-0.006777 -0.016145 0.855000
-0.011759 0.034337 0.859000
0.005934 0.015281 0.861000
-0.039123 -0.002125 0.878000
0.005625 0.031481 0.868000
0.000266 0.019379 0.870000
-0.009637 -0.016221 0.859000
-0.017801 -0.041514 0.878000
-0.014808 0.000402 0.872000
-0.008007 0.016590 0.874000
-0.028839 -0.019719 0.873000
0.037853 0.006939 0.838000
-0.017003 -0.036246 0.856000
-0.027959 -0.028537 0.868000
-0.008357 0.019805 0.873000
-0.038629 0.002204 0.875000
-0.014383 -0.004601 0.868000
-0.018691 -0.011402 0.869000
0.000979 0.031088 0.867000
-0.035348 -0.009769 0.883000
-0.017456 0.029101 0.861000
0.037853 0.011078 0.838000
0.042691 0.029033 0.859000
-0.022799 -0.031178 0.862000
-0.031605 -0.009736 0.880000
0.012042 0.030731 0.867000
-0.017914 0.022141 0.866000
-0.045009 0.001121 0.873000
-0.021702 0.010487 0.875000
-0.020551 -0.008571 0.872000
-0.012098 -0.023265 0.858000
-0.026591 -0.019651 0.870000
-0.031103 0.015726 0.866000
-0.008726 0.012633 0.874000
-0.004026 0.011131 0.869000
-0.018081 -0.033114 0.857000
0.021197 0.035876 0.862000
0.005906 0.010271 0.857000
-0.024544 -0.036458 0.861000
-0.000091 0.007484 0.861000
0.017280 -0.005864 0.844000
-0.025693 0.007615 0.876000
-0.014267 -0.020157 0.861000
0.014187 -0.003440 0.846000
0.042521 0.035134 0.870000
0.009843 0.018137 0.862000
0.005975 0.022524 0.867000
0.019175 0.011250 0.851000
-0.023116 -0.009669 0.874000
0.038635 0.014908 0.840000
-0.036933 0.010058 0.869000
0.024576 0.005947 0.844000
-0.012422 -0.027791 0.856000
-0.015939 0.013008 0.875000
0.004171 0.015316 0.863000
-0.022746 -0.037831 0.860000
0.012755 0.031802 0.867000
-0.032367 -0.002495 0.881000
0.031644 0.004525 0.838000
0.018781 0.006681 0.849000
0.035783 0.011423 0.838000
-0.013700 0.019737 0.870000
-0.015097 0.022193 0.868000
0.035020 0.033746 0.853000
0.029255 0.041408 0.859000
-0.019295 -0.018093 0.864000
-0.018503 0.005819 0.877000
-0.010760 0.028847 0.864000
0.032913 0.019147 0.844000
0.033955 0.019495 0.844000
-0.017400 0.003649 0.876000
-0.007104 -0.027661 0.852000
0.001675 0.041006 0.858000
-0.023891 -0.030859 0.863000
-0.040650 0.004709 0.872000
0.019112 0.040582 0.864000
-0.010525 0.016950 0.874000
-0.006872 -0.041708 0.867000
0.008041 -0.020463 0.859000
-0.027888 -0.011146 0.877000
-0.026530 -0.026394 0.868000
-0.017679 -0.003546 0.872000
-0.025994 0.009396 0.874000
0.030420 0.031602 0.852000
-0.028675 -0.007916 0.879000
-0.010405 0.028491 0.864000
-0.029591 0.007957 0.874000
0.034059 0.002456 0.838000
-0.008527 -0.024914 0.854000
-0.030776 -0.015839 0.877000
-0.021684 -0.033938 0.860000
-0.020692 0.001489 0.878000
-0.014889 -0.037655 0.856000
-0.015184 0.016571 0.873000
-0.009805 0.015871 0.874000
0.014035 0.016640 0.858000
0.029265 0.000387 0.839000
0.032753 0.039594 0.858000
0.025618 0.014979 0.844000
-0.024302 -0.028083 0.865000
0.005201 0.010624 0.857000
0.036381 0.031953 0.852000
0.010210 0.020999 0.863000
0.017732 0.006681 0.849000
-0.026414 0.006894 0.876000
0.014150 0.039917 0.865000
0.021874 0.010500 0.847000
-0.013058 0.010847 0.875000
-0.002578 0.033076 0.863000
0.028954 0.006265 0.840000
0.043145 0.026975 0.861000
-0.026499 -0.027434 0.867000
-0.010417 0.027456 0.865000
0.004104 -0.010092 0.849000
-0.001148 0.043729 0.856000
0.031176 0.017410 0.844000
-0.011077 -0.014132 0.861000
0.013634 0.012359 0.855000
0.010908 0.019201 0.862000
0.006281 0.014909 0.860000
0.030646 0.005912 0.839000
0.014204 -0.012857 0.847000
0.002401 0.014995 0.865000
0.026565 0.003157 0.841000
-0.030881 -0.009736 0.880000
0.020156 0.035562 0.863000
-0.013250 -0.012404 0.864000
-0.019225 0.007984 0.877000
0.014776 0.022696 0.860000
-0.005694 -0.030080 0.851000
-0.023207 -0.028761 0.864000
-0.014366 -0.006380 0.867000
-0.015010 -0.016652 0.863000
0.038934 0.012128 0.839000
0.020060 0.000042 0.844000
-0.022217 0.018955 0.867000
-0.013700 -0.000673 0.870000
-0.007279 0.012978 0.873000
0.018366 -0.010752 0.846000
0.028315 0.028446 0.852000
-0.025029 -0.003570 0.878000
-0.036468 -0.027327 0.875000
0.000260 -0.026196 0.850000
-0.022548 0.020716 0.866000
0.010602 0.036399 0.866000
-0.001140 -0.023048 0.850000
-0.013794 0.009778 0.876000
-0.024190 -0.039647 0.861000
-0.035509 0.007271 0.878000
-0.024956 -0.041160 0.863000
-0.015236 0.008696 0.876000
0.002387 0.012077 0.860000
-0.018313 0.020049 0.868000
0.019479 0.008079 0.849000
-0.018627 0.022141 0.866000
-0.010002 -0.007037 0.860000
0.032905 0.043326 0.862000
-0.018123 -0.027181 0.859000
-0.017355 -0.034484 0.856000
-0.003262 0.040911 0.856000
0.040029 0.027843 0.855000
0.027359 0.032769 0.855000
0.026628 -0.004816 0.843000
0.037208 0.013509 0.839000
-0.018691 -0.012118 0.869000
0.040029 0.027491 0.855000
0.002012 -0.025527 0.851000
0.037898 0.012818 0.839000
0.010234 0.024964 0.865000
-0.027276 0.014707 0.869000
-0.007842 -0.016516 0.856000
-0.010095 0.024336 0.868000
0.024488 -0.000997 0.841000
-0.020598 -0.032838 0.859000
-0.012393 -0.035810 0.854000
0.024923 -0.006906 0.844000
0.036560 0.015254 0.840000
0.020155 0.006673 0.848000
0.032796 -0.000997 0.841000
0.039280 0.010056 0.839000
0.004532 0.016045 0.864000
0.004848 0.043780 0.857000
-0.030671 -0.020821 0.874000
-0.021860 -0.014588 0.867000
0.015562 -0.007957 0.845000
0.011132 0.008107 0.852000
0.010382 0.001438 0.848000
-0.014167 -0.031277 0.855000
0.015654 0.006689 0.850000
-0.010723 0.031227 0.861000
-0.018439 -0.001755 0.874000
0.012112 -0.014251 0.847000
-0.018503 0.006180 0.877000
-0.007096 -0.028329 0.851000
-0.002217 0.035480 0.861000
-0.017003 -0.034132 0.856000
-0.037018 0.006854 0.871000
0.015484 0.023404 0.860000
-0.007179 0.032999 0.861000
0.041104 0.010772 0.841000
0.015250 0.002133 0.847000
-0.034621 -0.009405 0.883000
-0.002210 -0.037037 0.858000
-0.030068 0.015030 0.867000
0.018388 -0.012160 0.847000
0.005851 -0.012188 0.849000
0.034855 0.025201 0.849000
-0.030191 -0.001407 0.881000
0.034587 0.030865 0.851000
-0.011458 0.029524 0.863000
-0.022038 -0.033584 0.860000
-0.019429 0.016873 0.870000
-0.004649 -0.022401 0.852000
-0.002223 0.009278 0.863000
0.039970 0.007638 0.839000
-0.012683 0.015871 0.874000
0.018018 -0.010752 0.846000
-0.014515 0.009417 0.876000
-0.027150 -0.041255 0.865000
0.033754 0.001423 0.839000
-0.017360 -0.000317 0.874000
0.003124 0.041127 0.868000
-0.012939 0.023594 0.867000
0.009187 0.033943 0.867000
0.020877 0.018911 0.849000
0.005968 0.020003 0.866000
0.006650 0.039424 0.862000
-0.023835 -0.038938 0.861000
-0.002545 -0.013634 0.852000
0.036430 0.020561 0.845000
-0.007621 0.022628 0.871000
0.033063 0.009365 0.839000
-0.024630 -0.029828 0.864000
-0.021379 -0.028695 0.862000
0.031374 0.000041 0.840000
0.036732 0.027745 0.852000
-0.020621 -0.003918 0.875000
0.022196 0.014666 0.846000
-0.010405 0.000043 0.864000
0.012755 0.034656 0.867000
0.014536 -0.001003 0.846000
0.034873 0.016656 0.841000
-0.031354 0.007589 0.873000
0.009155 0.020312 0.864000
-0.042493 0.002558 0.873000
0.026043 0.035709 0.858000
0.004490 0.045491 0.856000
0.000611 -0.019572 0.851000
0.003433 -0.032371 0.856000
0.021049 0.026818 0.856000
0.000615 0.041664 0.857000
0.037561 0.037693 0.863000
0.005631 0.027583 0.869000
-0.016262 -0.001035 0.873000
0.025510 0.024589 0.852000
-0.017340 0.015134 0.873000
-0.001505 -0.037434 0.859000
0.001693 0.015387 0.867000
-0.010798 0.002898 0.867000
0.010021 -0.006233 0.847000
-0.001146 -0.034092 0.855000
-0.021885 0.026480 0.868000
-0.028447 0.010451 0.872000
-0.019137 -0.005706 0.873000
-0.009979 -0.020086 0.858000
0.016546 0.025174 0.860000
0.025181 0.001426 0.841000
0.017354 0.040985 0.865000
0.006200 -0.012887 0.849000
0.038543 0.006250 0.838000
0.041499 0.010438 0.842000
0.013143 -0.007967 0.846000
-0.039026 -0.009052 0.884000
-0.037634 -0.027750 0.877000
0.019736 -0.009348 0.845000
0.016605 -0.002741 0.845000
0.004848 0.009919 0.857000
0.028834 0.038137 0.857000
0.014587 0.004934 0.849000
