-0.033303 0.008345 0.877000
0.007732 -0.009203 0.864000
0.002042 0.016401 0.864000
0.011106 0.026280 0.850000
-0.007054 -0.017905 0.890000
-0.028061 -0.034911 0.894000
-0.001876 0.021453 0.867000
-0.027352 0.002588 0.883000
0.002798 -0.027421 0.878000
-0.025535 0.006585 0.883000
-0.023529 0.036819 0.876000
0.010376 -0.036413 0.877000
0.006030 -0.029488 0.875000
0.007360 -0.003505 0.862000
-0.032754 0.023730 0.872000
0.001734 -0.039794 0.888000
0.010151 0.004280 0.858000
-0.023592 -0.015743 0.892000
0.015912 -0.015248 0.864000
-0.011538 0.044393 0.869000
0.025304 -0.022490 0.869000
-0.015686 0.026514 0.881000
0.007539 -0.042114 0.883000
0.009775 0.014487 0.856000
-0.028015 0.007296 0.881000
-0.010453 0.049701 0.868000
0.016343 -0.031038 0.868000
-0.014171 0.033973 0.877000
-0.014515 0.035737 0.876000
-0.002953 0.016853 0.869000
-0.030916 0.000406 0.881000
0.002401 0.049529 0.865000
-0.033064 -0.012777 0.890000
-0.008153 -0.014608 0.890000
-0.024326 -0.017211 0.892000
0.004239 -0.019087 0.877000
0.026765 -0.022516 0.870000
0.007831 0.054063 0.875000
-0.025371 -0.013876 0.890000
-0.030207 0.035175 0.871000
0.007634 0.026373 0.853000
-0.009906 0.005858 0.883000
-0.029566 -0.005050 0.884000
-0.030706 0.021291 0.875000
-0.010633 0.009856 0.883000
-0.008395 0.017730 0.877000
0.015966 0.023077 0.848000
0.013507 0.028628 0.847000
-0.025171 0.008039 0.883000
0.008820 -0.013145 0.866000
-0.035262 0.016894 0.890000
-0.013541 0.016398 0.883000
-0.009117 0.007623 0.877000
0.016211 -0.004919 0.861000
-0.028668 -0.023766 0.890000
-0.017331 0.001878 0.891000
-0.027662 -0.031197 0.893000
-0.032321 0.032270 0.870000
0.002728 0.024352 0.856000
-0.019898 -0.004723 0.891000
0.004521 0.005010 0.862000
-0.011296 0.022448 0.878000
0.014553 0.032463 0.847000
0.012696 -0.008482 0.863000
0.020630 -0.029252 0.868000
0.007643 0.039761 0.854000
-0.011515 -0.016532 0.895000
0.012461 0.029325 0.847000
0.019594 0.014102 0.854000
0.014553 0.028976 0.847000
-0.007437 -0.021984 0.892000
-0.007952 0.029338 0.868000
-0.007204 0.046272 0.864000
-0.003669 0.010058 0.869000
-0.033869 0.020524 0.873000
-0.018679 -0.034891 0.903000
0.020559 -0.015978 0.865000
-0.020423 0.022914 0.882000
0.014570 0.034595 0.848000
-0.003639 0.030199 0.862000
-0.027569 -0.020836 0.890000
0.025032 -0.030463 0.872000
0.016939 -0.005989 0.862000
0.010614 -0.015658 0.867000
-0.009273 -0.016477 0.892000
-0.016964 0.000044 0.891000
-0.030530 0.036567 0.870000
-0.030133 -0.027063 0.890000
-0.028281 0.017389 0.878000
-0.021046 -0.012085 0.893000
0.010092 0.020756 0.853000
0.009400 0.040112 0.854000
-0.028936 -0.013099 0.887000
0.008551 -0.030928 0.875000
0.014204 0.030371 0.847000
-0.020794 -0.026936 0.898000
0.004574 0.052801 0.872000
0.004652 -0.043400 0.887000
-0.007787 -0.016806 0.890000
-0.000093 -0.029361 0.882000
-0.014995 0.020395 0.883000
-0.009929 0.002229 0.885000
-0.034787 0.033306 0.869000
0.013263 -0.042550 0.877000
-0.023433 0.002596 0.886000
-0.026191 -0.026051 0.893000
-0.015846 0.001875 0.890000
-0.014122 0.039972 0.874000
-0.008548 -0.021273 0.893000
0.016060 0.011628 0.853000
-0.029432 0.006201 0.880000
0.002376 0.029284 0.856000
0.020582 -0.025620 0.866000
0.009665 -0.037900 0.878000
-0.027080 -0.003968 0.886000
0.001716 -0.017322 0.879000
0.010418 0.024560 0.851000
-0.013763 0.039972 0.874000
-0.030294 -0.006142 0.884000
-0.016983 -0.002526 0.892000
-0.012606 -0.011362 0.894000
0.011223 0.001810 0.859000
-0.014515 0.036819 0.876000
-0.004165 -0.036587 0.899000
-0.004704 0.046164 0.862000
-0.008896 -0.014625 0.891000
0.002026 0.024380 0.857000
0.009511 -0.009203 0.864000
-0.011976 -0.032996 0.902000
0.033364 -0.020101 0.874000
-0.009586 -0.004337 0.887000
-0.012620 -0.013954 0.895000
0.011873 -0.046007 0.881000
-0.029599 -0.009063 0.885000
0.016475 -0.040292 0.875000
-0.022667 -0.035847 0.899000
-0.022617 -0.029860 0.897000
0.007471 -0.028407 0.875000
0.007732 -0.008847 0.864000
-0.031749 -0.012327 0.884000
-0.003281 0.029101 0.861000
0.023051 -0.018826 0.865000
-0.019208 -0.008409 0.893000
-0.000819 -0.026094 0.882000
0.002026 0.036020 0.857000
0.007054 -0.014604 0.868000
-0.003673 0.017589 0.870000
-0.034588 0.023398 0.873000
-0.021634 0.003695 0.887000
0.033402 -0.020484 0.875000
0.007634 0.028480 0.853000
0.018735 -0.007416 0.863000
0.004836 0.031713 0.855000
-0.015283 -0.024403 0.900000
0.010103 0.040112 0.854000
0.010651 -0.019651 0.870000
-0.009252 -0.012044 0.890000
-0.021005 0.042588 0.876000
-0.000444 0.041054 0.859000
-0.011538 0.044751 0.869000
0.026857 -0.028342 0.873000
-0.014267 -0.034261 0.906000
-0.028675 0.013429 0.879000
-0.013936 0.013521 0.885000
0.016527 -0.000311 0.859000
-0.028142 -0.003963 0.885000
-0.001153 0.042164 0.860000
0.001685 0.020999 0.863000
-0.021046 -0.011717 0.893000
-0.005246 -0.031968 0.894000
0.018359 -0.005989 0.862000
0.004220 0.053221 0.873000
0.012014 -0.013486 0.865000
0.010761 -0.042285 0.879000
-0.015249 -0.019175 0.898000
0.011536 0.009555 0.856000
-0.001153 0.042872 0.860000
-0.002277 -0.025425 0.884000
0.001681 0.043630 0.861000
-0.030900 -0.030760 0.891000
-0.009884 0.008746 0.881000
-0.026171 -0.037576 0.905000
-0.001559 -0.032924 0.890000
0.004865 0.009599 0.860000
-0.012238 -0.013202 0.894000
0.004244 -0.021277 0.878000
0.014204 0.033160 0.847000
-0.026655 0.003318 0.884000
-0.028635 -0.019714 0.889000
-0.025201 -0.036136 0.897000
-0.001194 -0.037361 0.891000
-0.004073 -0.011172 0.879000
-0.019992 0.035136 0.879000
-0.029767 -0.026696 0.890000
-0.013679 -0.004362 0.892000
0.019135 -0.024167 0.865000
0.013438 -0.017402 0.865000
0.016488 0.004275 0.857000
0.019153 0.021732 0.850000
-0.030031 -0.017845 0.887000
0.001322 0.039947 0.858000
-0.000804 0.011435 0.865000
0.017194 0.004275 0.857000
0.017690 -0.020583 0.864000
-0.025314 -0.006900 0.888000
-0.019697 0.024366 0.882000
-0.023592 -0.014641 0.892000
0.005735 -0.042938 0.885000
-0.015650 0.032242 0.879000
-0.018756 0.004801 0.889000
-0.024976 -0.008372 0.889000
-0.017174 -0.032254 0.902000
-0.014466 0.042801 0.873000
0.014338 0.007080 0.855000
-0.029400 -0.024865 0.890000
-0.018142 0.042997 0.877000
0.015268 0.035293 0.848000
-0.015864 -0.000689 0.891000
0.009112 0.000396 0.860000
-0.011171 -0.022107 0.897000
0.015682 -0.035447 0.871000
0.007184 -0.043981 0.884000
-0.024920 -0.001782 0.887000
-0.011193 0.042296 0.870000
-0.007237 0.027551 0.868000
-0.025477 0.015273 0.881000
-0.020975 -0.002887 0.890000
0.004927 0.052382 0.871000
0.009698 -0.043831 0.881000
0.014068 -0.003851 0.860000
-0.002217 0.030873 0.861000
-0.000452 -0.011108 0.874000
0.002099 -0.040525 0.888000
-0.003008 -0.016712 0.885000
-0.025004 -0.013876 0.890000
-0.005470 0.011156 0.871000
0.003935 0.004806 0.890000
-0.010453 0.044342 0.868000
-0.014156 -0.023636 0.899000
-0.009727 0.047503 0.867000
0.019852 0.023132 0.850000
-0.001182 -0.027183 0.882000
0.014982 -0.036565 0.872000
0.000996 -0.022463 0.882000
-0.002235 0.020764 0.868000
-0.030900 -0.031127 0.891000
-0.020197 0.004064 0.888000
0.000977 0.015708 0.865000
-0.022422 0.040018 0.875000
-0.033433 0.024779 0.871000
-0.011437 -0.003615 0.889000
-0.000093 -0.025004 0.882000
0.015095 0.002161 0.858000
0.015947 0.032114 0.847000
-0.011538 0.046182 0.869000
-0.006560 0.009026 0.873000
-0.000798 0.029387 0.859000
-0.003281 0.042922 0.861000
0.013376 -0.004564 0.861000
-0.030881 0.002941 0.880000
-0.020310 -0.009512 0.893000
0.017690 0.025839 0.847000
0.012652 -0.000665 0.860000
-0.031641 0.030873 0.871000
0.020725 -0.036206 0.872000
0.025809 -0.032332 0.874000
-0.012683 0.036015 0.874000
-0.027809 -0.009073 0.886000
0.005304 0.053642 0.874000
0.005012 -0.043351 0.886000
0.011341 -0.018534 0.868000
-0.006515 0.035370 0.867000
-0.025086 0.017429 0.880000
0.016738 -0.035048 0.870000
-0.012959 -0.008042 0.893000
-0.015976 0.038666 0.877000
0.013516 -0.030035 0.870000
0.013856 0.032114 0.847000
-0.024777 -0.030162 0.895000
-0.003673 0.020811 0.870000
0.020249 -0.026720 0.867000
-0.021149 0.022187 0.882000
-0.034025 0.012316 0.877000
0.012083 -0.026097 0.870000
-0.028088 0.038445 0.872000
0.022288 -0.036413 0.877000
-0.002926 0.044339 0.861000
-0.026323 0.037411 0.873000
0.002434 -0.016922 0.877000
-0.003994 0.046874 0.862000
-0.000448 0.016082 0.866000
-0.002215 0.041456 0.860000
0.008182 0.053642 0.874000
0.019847 -0.013842 0.865000
-0.023972 0.023921 0.879000
0.010127 0.013430 0.856000
-0.012592 -0.009512 0.893000
0.009049 0.023241 0.854000
-0.021826 0.028294 0.880000
0.022008 -0.023482 0.866000
-0.006553 0.014040 0.872000
0.001356 -0.027483 0.880000
-0.001517 0.023211 0.866000
0.006743 0.053642 0.874000
0.016623 -0.012404 0.864000
-0.025033 -0.016092 0.891000
-0.011553 -0.025088 0.898000
0.003098 0.022014 0.861000
-0.033037 0.030479 0.870000
-0.006329 -0.021959 0.891000
-0.001874 0.023924 0.866000
-0.009727 0.043934 0.867000
0.024701 -0.031576 0.873000
-0.001547 -0.029394 0.883000
0.006750 -0.022645 0.875000
0.010675 -0.025439 0.872000
-0.026354 0.034936 0.874000
-0.014978 0.022550 0.882000
0.002392 0.021684 0.862000
-0.033792 0.025137 0.871000
-0.022832 -0.009491 0.891000
-0.014842 0.049325 0.874000
-0.006222 0.002207 0.876000
-0.007700 -0.005027 0.880000
0.015838 -0.003497 0.860000
0.007688 0.002871 0.859000
-0.002572 0.043985 0.861000
-0.008016 0.010127 0.875000
-0.013163 0.018920 0.882000
0.007037 -0.012076 0.866000
-0.026015 -0.007258 0.887000
-0.025173 -0.033146 0.896000
0.012170 0.038570 0.851000
-0.021149 0.022550 0.882000
0.007831 -0.024086 0.875000
-0.023225 -0.016844 0.892000
-0.013967 0.008440 0.887000
0.017314 -0.008482 0.863000
-0.010107 0.040459 0.869000
-0.016691 -0.012494 0.896000
-0.028904 -0.010167 0.886000
0.008317 0.037519 0.851000
0.011022 -0.024334 0.871000
0.006317 -0.007078 0.865000
0.014623 -0.036206 0.872000
-0.012253 0.046539 0.869000
-0.022964 0.019283 0.882000
0.000263 0.036104 0.859000
0.003102 0.045100 0.862000
-0.028346 0.010909 0.880000
0.015628 -0.029609 0.868000
0.006665 -0.006714 0.864000
0.002395 0.046928 0.863000
-0.012060 0.018899 0.881000
-0.018452 -0.002159 0.892000
-0.008347 0.053160 0.872000
-0.008414 -0.000318 0.879000
-0.025143 0.010571 0.882000
0.009980 -0.029814 0.874000
-0.024334 0.022474 0.879000
-0.000820 -0.018491 0.883000
-0.030727 -0.013813 0.886000
0.008375 0.017326 0.857000
0.013794 -0.017046 0.865000
0.002750 0.007502 0.863000
0.006237 0.029567 0.854000
-0.028577 0.022397 0.876000
0.010163 -0.047942 0.890000
0.011778 0.030058 0.848000
0.016900 -0.002081 0.860000
-0.013771 -0.019544 0.898000
0.014489 -0.014537 0.864000
-0.028088 0.037727 0.872000
-0.018971 0.027270 0.882000
-0.000445 0.032253 0.860000
0.024917 -0.022464 0.868000
0.028720 -0.030208 0.875000
-0.004389 0.022244 0.870000
0.003785 0.031046 0.856000
0.006037 -0.032406 0.876000
0.016959 -0.008127 0.863000
-0.020833 0.017144 0.884000
-0.023248 0.027539 0.879000
0.031312 -0.028111 0.877000
-0.009619 -0.010945 0.890000
0.009752 0.019726 0.854000
0.003091 0.023023 0.859000
-0.010754 -0.014658 0.893000
0.014673 0.010587 0.854000
0.011833 0.018277 0.852000
0.004128 0.025350 0.854000
0.008657 0.032927 0.850000
-0.010453 0.049344 0.868000
-0.000819 -0.029361 0.882000
-0.009500 0.011259 0.879000
-0.020951 0.000410 0.889000
0.005927 0.014201 0.860000
-0.020904 0.007345 0.887000
0.012476 0.026917 0.848000
0.013571 0.017905 0.851000
0.016979 -0.012048 0.864000
-0.019334 0.026907 0.882000
-0.022591 -0.025770 0.896000
-0.022642 -0.033959 0.898000
0.012284 0.001457 0.859000
0.002465 -0.041256 0.888000
-0.013372 0.042393 0.872000
-0.007770 -0.010921 0.888000
0.005527 0.037959 0.853000
0.003781 0.029602 0.855000
-0.000805 0.020359 0.866000
0.012840 0.036383 0.849000
0.000263 0.032569 0.859000
-0.018907 0.035136 0.879000
-0.026589 -0.031600 0.894000
-0.023486 -0.001418 0.888000
-0.006872 0.050714 0.867000
0.000977 0.018912 0.865000
0.018317 -0.040745 0.877000
0.010049 -0.042333 0.880000
-0.026074 -0.012762 0.889000
-0.027935 -0.019370 0.890000
-0.017428 -0.014338 0.896000
-0.001516 0.024252 0.865000
-0.025145 -0.030898 0.895000
0.004181 0.049529 0.865000
0.014725 0.003217 0.857000
-0.023095 0.001139 0.887000
-0.000448 0.011435 0.865000
0.004133 0.033473 0.855000
0.000615 0.026497 0.857000
0.002805 -0.022412 0.880000
0.006980 0.003931 0.859000
0.006099 -0.044031 0.885000
0.000618 0.046111 0.861000
0.002728 0.038444 0.856000
-0.006943 0.002928 0.876000
-0.020678 -0.012820 0.893000
0.006273 0.018781 0.859000
0.018233 -0.037685 0.873000
0.033762 -0.020484 0.875000
-0.002277 -0.026153 0.884000
0.001683 0.045455 0.862000
0.006244 0.023972 0.855000
-0.029499 -0.032667 0.893000
-0.029136 0.001859 0.882000
-0.001185 -0.021059 0.884000
-0.027778 -0.003599 0.885000
-0.025057 0.020665 0.879000
-0.022297 -0.019566 0.899000
-0.024195 0.041411 0.874000
-0.000799 0.042164 0.860000
-0.012945 -0.005096 0.892000
-0.022148 -0.015393 0.893000
-0.010386 -0.016495 0.893000
-0.014093 -0.010638 0.895000
-0.009263 -0.013525 0.891000
-0.023328 0.017831 0.882000
-0.019229 -0.012466 0.894000
-0.030201 -0.034466 0.892000
-0.025810 0.023948 0.880000
0.015646 -0.030716 0.869000
-0.019315 -0.025458 0.898000
-0.018882 -0.013585 0.895000
-0.007952 0.031124 0.868000
-0.006343 -0.028624 0.893000
0.014199 -0.027108 0.868000
-0.022264 0.017125 0.883000
-0.032716 0.026571 0.871000
-0.030588 -0.001045 0.882000
0.015288 -0.030716 0.869000
0.001320 0.037784 0.857000
-0.029235 -0.009063 0.885000
-0.033265 0.010860 0.876000
-0.022272 -0.033220 0.898000
0.015288 -0.032147 0.869000
0.020891 -0.018804 0.864000
-0.030101 -0.036627 0.900000
-0.000805 0.022498 0.866000
-0.016049 0.028689 0.881000
0.015599 0.030022 0.847000
-0.015567 -0.009902 0.895000
0.028588 -0.021108 0.871000
-0.026470 -0.017173 0.890000
-0.009117 0.011594 0.877000
0.007688 0.012063 0.859000
0.001005 -0.041349 0.890000
0.016173 -0.000311 0.859000
0.004916 -0.014264 0.869000
0.018865 -0.032505 0.869000
-0.010188 0.025281 0.876000
-0.029964 -0.008698 0.885000
-0.017117 -0.022526 0.899000
-0.013832 -0.032254 0.902000
0.009752 0.020780 0.854000
-0.018503 0.039749 0.877000
0.015466 -0.000665 0.859000
-0.018287 -0.032996 0.902000
0.017334 -0.013115 0.864000
0.011779 -0.032692 0.874000
0.002038 0.022039 0.862000
-0.033227 0.014088 0.875000
-0.028047 0.003311 0.882000
0.019024 0.001104 0.860000
0.012278 -0.047619 0.884000
0.013516 -0.028603 0.870000
-0.012295 0.040599 0.872000
-0.030959 0.028396 0.872000
-0.014582 0.027570 0.880000
0.013422 -0.011692 0.864000
-0.005949 -0.019714 0.889000
-0.026321 -0.000321 0.885000
-0.016653 -0.009155 0.894000
-0.021751 0.037944 0.877000
0.013251 0.013734 0.853000
0.013842 -0.026394 0.868000
-0.019488 0.005532 0.889000
0.025750 -0.029028 0.872000
0.019468 -0.017738 0.864000
-0.015254 0.036500 0.877000
0.009522 -0.010994 0.865000
-0.034150 0.024779 0.871000
0.010756 0.027330 0.850000
-0.006130 0.044797 0.863000
0.002442 -0.022412 0.880000
-0.020975 -0.001421 0.890000
0.007688 0.004639 0.859000
-0.025285 -0.003607 0.887000
-0.010754 -0.015025 0.893000
-0.017801 0.036180 0.878000
-0.002953 0.051547 0.869000
0.029664 -0.019674 0.871000
-0.019992 0.033689 0.879000
-0.001197 -0.041856 0.893000
-0.008434 -0.003220 0.881000
-0.032109 0.021627 0.874000
-0.019488 0.004801 0.889000
-0.031749 -0.011599 0.884000
0.007688 0.003224 0.859000
0.004553 -0.009603 0.868000
-0.028447 0.036651 0.872000
0.016296 0.031417 0.847000
0.016979 -0.012404 0.864000
-0.022112 0.037583 0.877000
0.000638 -0.037277 0.889000
0.015538 -0.009192 0.863000
-0.006904 0.052741 0.871000
-0.001521 0.017191 0.868000
-0.014797 -0.005101 0.893000
0.005975 -0.012447 0.867000
-0.020010 -0.020607 0.896000
0.016723 0.016854 0.851000
-0.005152 -0.004293 0.878000
0.013856 0.030022 0.847000
-0.015515 -0.001792 0.892000
-0.009511 0.006201 0.880000
-0.021390 0.039027 0.877000
-0.005589 -0.023766 0.890000
0.013067 -0.011692 0.864000
0.002078 -0.018769 0.879000
-0.014252 0.022187 0.882000
0.014604 0.037125 0.850000
0.019491 -0.013486 0.865000
-0.014961 0.025788 0.881000
-0.003284 0.038359 0.862000
-0.026321 0.000044 0.885000
-0.032679 0.030479 0.870000
-0.008280 0.047037 0.865000
-0.020904 0.008440 0.887000
0.002392 0.013170 0.862000
0.003812 0.043681 0.862000
-0.000092 0.013571 0.865000
-0.010041 -0.022058 0.895000
0.005722 -0.037026 0.883000
0.013587 0.015121 0.852000
-0.016374 0.033689 0.879000
-0.018369 0.007354 0.888000
0.003505 0.053642 0.874000
-0.008386 0.020234 0.876000
-0.008443 -0.005402 0.882000
-0.003639 0.040133 0.862000
-0.027264 -0.026756 0.892000
-0.016850 0.017892 0.885000
0.024203 -0.022464 0.868000
-0.013267 0.001873 0.889000
-0.007831 -0.027215 0.895000
0.016286 -0.022386 0.865000
-0.025419 0.021388 0.879000
-0.025964 0.038489 0.873000
0.007351 -0.001729 0.861000
0.014395 -0.045593 0.880000
0.012461 0.032811 0.847000
-0.020668 0.042997 0.877000
-0.000444 0.030094 0.859000
-0.020817 -0.032887 0.899000
-0.011710 0.015290 0.882000
-0.014996 -0.034224 0.905000
0.017194 0.004628 0.857000
0.005316 -0.031685 0.876000
0.013856 0.034206 0.847000
0.006758 -0.032406 0.876000
0.006390 -0.029488 0.875000
-0.032295 -0.021544 0.889000
-0.012901 0.001873 0.889000
-0.036075 0.034933 0.883000
0.015654 0.018234 0.850000
0.016024 -0.047210 0.890000
-0.012422 0.017811 0.881000
-0.009370 0.049644 0.867000
-0.028603 -0.016037 0.888000
0.013650 0.006384 0.856000
-0.031492 -0.018575 0.887000
-0.022099 -0.009124 0.891000
-0.011296 0.022087 0.878000
0.001330 0.012119 0.863000
0.001716 -0.029623 0.879000
-0.019943 -0.009512 0.893000
0.017195 -0.039932 0.875000
-0.032036 -0.028225 0.892000
0.017334 -0.019160 0.864000
0.021271 -0.022386 0.865000
0.006281 0.013139 0.860000
-0.023771 0.006236 0.885000
-0.014466 0.044238 0.873000
0.010394 0.030792 0.849000
-0.033792 0.024779 0.871000
-0.013526 0.019283 0.882000
-0.009839 0.020257 0.877000
-0.012829 0.012414 0.884000
0.005534 0.038706 0.854000
0.017751 -0.028504 0.867000
0.013507 0.031068 0.847000
0.005012 -0.042986 0.886000
-0.005868 -0.000318 0.877000
-0.022653 0.012778 0.884000
-0.018044 0.004073 0.890000
-0.008016 0.007966 0.875000
-0.008706 0.053160 0.872000
-0.032655 0.002576 0.879000
0.004865 0.008184 0.860000
0.012461 0.030719 0.847000
-0.001519 0.010748 0.867000
0.013067 -0.012759 0.864000
0.016546 -0.003143 0.860000
0.005586 0.002171 0.862000
-0.032403 -0.005402 0.882000
-0.028301 -0.022667 0.890000
-0.002953 0.018999 0.869000
-0.031931 0.004385 0.879000
0.001673 0.025791 0.857000
0.013603 0.039012 0.853000
-0.005835 0.009733 0.872000
0.011550 0.007450 0.857000
-0.026625 0.005495 0.883000
-0.007479 -0.034290 0.897000
-0.000820 -0.019218 0.883000
0.026888 -0.030893 0.874000
-0.014090 0.045264 0.872000
-0.034430 0.032233 0.869000
-0.026291 0.002591 0.884000
-0.005781 0.030269 0.864000
0.001673 0.038137 0.857000
-0.011949 -0.027737 0.900000
0.009798 0.007105 0.858000
0.017013 0.022728 0.848000
0.030951 -0.029555 0.877000
0.016931 -0.044868 0.880000
-0.029599 -0.007970 0.885000
-0.000091 0.045048 0.861000
-0.004419 0.054846 0.876000
-0.021101 0.029743 0.880000
-0.012640 0.051665 0.871000
-0.034307 0.018050 0.875000
0.013523 0.024124 0.848000
0.021246 -0.019160 0.864000
-0.003284 0.026651 0.862000
-0.007682 0.001850 0.878000
-0.028806 0.035933 0.872000
-0.012634 -0.017288 0.896000
-0.015029 0.014978 0.885000
-0.004394 0.020118 0.871000
-0.014252 0.021098 0.882000
-0.004470 -0.025483 0.886000
0.005322 -0.032082 0.877000
0.018231 0.006736 0.856000
-0.000799 0.043580 0.860000
-0.017506 -0.026996 0.900000
0.030881 -0.026607 0.875000
0.003192 0.006250 0.887000
-0.019831 0.007354 0.888000
-0.032186 -0.014907 0.886000
-0.017757 -0.008787 0.894000
-0.010456 -0.030667 0.899000
0.013407 -0.009548 0.863000
-0.026958 0.008030 0.882000
0.034278 -0.026367 0.879000
0.019829 0.024502 0.849000
-0.022390 -0.000687 0.888000
0.014506 -0.017758 0.865000
0.004831 0.033434 0.854000
0.014845 -0.016315 0.864000
-0.029666 -0.013829 0.887000
-0.000819 -0.028635 0.882000
0.019311 -0.037685 0.873000
-0.021732 -0.008757 0.891000
-0.016784 -0.028881 0.901000
0.016920 -0.004919 0.861000
-0.011489 -0.013187 0.893000
0.000969 0.039594 0.858000
-0.008529 -0.016458 0.891000
-0.033037 0.032270 0.870000
-0.011084 -0.007649 0.890000
-0.002649 -0.030622 0.887000
0.020203 -0.015622 0.865000
-0.010860 0.052801 0.872000
0.003102 0.007493 0.862000
-0.017902 0.024030 0.883000
0.002725 0.027139 0.855000
-0.020128 0.016435 0.885000
0.014305 0.013734 0.853000
-0.031705 -0.032667 0.893000
-0.006856 0.041697 0.865000
0.007966 0.031565 0.851000
0.006259 0.041311 0.857000
0.018359 -0.005634 0.862000
0.008356 0.040511 0.855000
-0.004736 0.025051 0.868000
-0.014944 0.028294 0.880000
-0.016907 0.008815 0.888000
0.016743 0.014069 0.852000
0.006434 -0.036217 0.881000
0.003077 0.027843 0.855000
-0.002926 0.030518 0.861000
-0.013618 0.005526 0.888000
-0.000800 0.024849 0.861000
-0.019229 -0.010259 0.894000
0.013523 0.034944 0.848000
-0.021069 -0.014674 0.894000
-0.022525 0.027900 0.879000
-0.012324 0.036015 0.874000
-0.009403 0.035851 0.870000
-0.019809 0.010996 0.887000
0.015691 0.015121 0.852000
-0.009467 0.022037 0.876000
-0.020354 0.032242 0.879000
0.005885 0.027107 0.854000
-0.019707 -0.027706 0.899000
-0.018266 0.021849 0.883000
-0.007943 0.040009 0.867000
-0.023195 0.032890 0.877000
-0.022912 0.025397 0.880000
0.020226 0.026661 0.851000
0.018974 -0.038447 0.874000
-0.001547 -0.027577 0.883000
0.019157 -0.027046 0.866000
-0.011671 0.021750 0.879000
0.004870 0.013863 0.861000
-0.019809 0.010631 0.887000
-0.015266 -0.023266 0.899000
-0.020539 0.007345 0.887000
0.009695 0.031840 0.849000
-0.029466 0.002944 0.881000
0.023542 -0.027529 0.870000
-0.006864 0.028201 0.866000
0.034239 -0.025975 0.878000
0.027871 -0.022900 0.871000
-0.018971 0.026544 0.882000
0.002728 0.038092 0.856000
-0.002994 -0.014461 0.881000
-0.031030 0.023065 0.874000
0.022468 -0.029677 0.870000
-0.002277 -0.029427 0.884000
-0.030362 -0.013449 0.886000
-0.007102 -0.032039 0.896000
-0.019575 -0.008042 0.893000
-0.015289 0.030433 0.879000
-0.030635 0.040645 0.873000
-0.022912 0.025035 0.880000
-0.034346 0.016628 0.876000
-0.030207 0.034099 0.871000
0.012829 -0.031540 0.872000
-0.020724 -0.017637 0.895000
0.003812 0.018846 0.862000
-0.026440 -0.013128 0.889000
0.017485 0.011993 0.854000
-0.016121 0.017163 0.885000
0.030091 -0.023671 0.873000
-0.015515 -0.002159 0.892000
-0.011923 -0.024719 0.898000
0.004133 0.025027 0.855000
0.003077 0.026787 0.855000
-0.008007 0.024145 0.874000
0.003127 0.051547 0.869000
0.005370 -0.042209 0.885000
0.022695 -0.018826 0.865000
-0.001566 -0.043374 0.894000
0.012535 0.017225 0.852000
-0.011009 0.008412 0.884000
-0.006173 0.051547 0.869000
-0.030534 -0.029294 0.891000
-0.000445 0.033669 0.860000
0.001689 0.016776 0.865000
-0.008025 0.015547 0.876000
0.004479 0.026404 0.854000
-0.018993 0.022576 0.883000
0.010406 0.028379 0.850000
0.010479 0.013430 0.856000
0.029013 -0.024390 0.873000
-0.019663 -0.022107 0.897000
-0.021801 0.030795 0.879000
0.032247 -0.019360 0.873000
-0.006553 0.011169 0.872000
0.009599 -0.021491 0.872000
-0.015215 -0.014707 0.896000
-0.005223 -0.024865 0.890000
-0.030866 -0.029261 0.890000
-0.013587 0.011348 0.886000
-0.020833 0.017872 0.884000
-0.001161 0.014300 0.866000
-0.011870 -0.015042 0.894000
0.004955 -0.030243 0.876000
0.016267 -0.016671 0.864000
-0.004384 0.013634 0.869000
0.017690 -0.013826 0.864000
-0.030465 -0.022276 0.889000
0.022468 -0.031110 0.870000
0.018757 -0.009203 0.864000
0.005553 0.022617 0.857000
-0.025342 -0.009469 0.889000
0.016249 -0.009192 0.863000
-0.033606 -0.001778 0.885000
-0.011936 -0.026966 0.899000
0.018046 -0.010981 0.864000
0.005913 0.042066 0.858000
0.015218 -0.020962 0.865000
-0.031821 -0.017825 0.886000
0.008317 0.031215 0.851000
-0.017902 0.023666 0.883000
0.012741 -0.016353 0.866000
0.002798 -0.028143 0.878000
-0.005788 0.039205 0.865000
0.016873 -0.042550 0.877000
0.005920 0.010295 0.859000
-0.032581 0.010872 0.877000
-0.028410 0.004763 0.882000
0.019738 -0.038896 0.876000
-0.005989 -0.032740 0.895000
-0.023011 -0.033220 0.898000
0.003909 -0.035976 0.884000
0.019594 0.014453 0.854000
-0.003376 -0.029494 0.886000
-0.030635 0.027351 0.873000
-0.026625 0.006585 0.883000
0.020203 -0.024167 0.865000
-0.005117 0.017988 0.872000
-0.022163 0.030433 0.879000
0.006281 0.014201 0.860000
0.014845 -0.015248 0.864000
-0.005781 0.028847 0.864000
-0.014797 -0.006572 0.893000
0.005322 -0.023419 0.877000
-0.013342 0.048383 0.870000
-0.023610 0.026453 0.879000
0.006980 0.010649 0.859000
0.005219 0.011015 0.860000
-0.020174 0.007710 0.887000
-0.007337 -0.005752 0.880000
-0.017117 0.030468 0.880000
0.013278 -0.044405 0.878000
0.011833 0.038966 0.852000
0.002379 0.031082 0.857000
0.010139 0.010624 0.857000
0.019571 0.016192 0.853000
-0.000457 -0.021035 0.883000
0.007334 0.010295 0.859000
0.013922 -0.037325 0.873000
-0.030415 0.013399 0.877000
0.013251 0.014787 0.853000
-0.015249 -0.020653 0.898000
-0.001538 0.055694 0.878000
0.007005 -0.002086 0.862000
0.008522 -0.020055 0.872000
-0.018493 -0.008787 0.894000
0.004249 -0.023472 0.879000
0.007119 -0.032766 0.876000
0.016743 0.015121 0.852000
-0.020307 0.040110 0.877000
0.010092 0.021107 0.853000
-0.012279 -0.019892 0.897000
-0.007471 -0.032408 0.896000
0.006581 0.030586 0.853000
-0.033113 0.023730 0.872000
-0.014203 0.028986 0.879000
0.001716 -0.028899 0.879000
0.000615 0.028613 0.857000
-0.009013 0.042864 0.867000
-0.009565 0.000408 0.885000
0.007902 -0.044294 0.883000
0.013006 -0.001373 0.860000
-0.021245 0.008431 0.886000
0.018778 -0.012418 0.865000
0.018316 -0.001727 0.860000
-0.008190 -0.025713 0.894000
0.019108 0.029011 0.848000
-0.018411 0.002974 0.890000
0.006940 0.024998 0.854000
0.012456 -0.028994 0.871000
-0.000819 -0.027909 0.882000
0.014553 0.029325 0.847000
-0.007221 0.031409 0.866000
0.010882 0.000750 0.860000
-0.007656 0.007606 0.875000
0.005878 0.035150 0.853000
0.006581 0.028480 0.853000
0.005947 -0.002799 0.863000
-0.024638 -0.011678 0.890000
-0.031137 0.013760 0.877000
-0.021053 0.035096 0.878000
0.001681 0.044339 0.861000
-0.021732 -0.009491 0.891000
-0.029848 0.036967 0.871000
0.005267 -0.013175 0.868000
-0.005895 -0.010835 0.881000
-0.005955 -0.021202 0.890000
-0.025173 -0.031671 0.896000
-0.028764 -0.033035 0.893000
-0.000094 -0.036546 0.889000
-0.030881 0.004752 0.880000
0.006398 -0.026277 0.876000
0.016211 -0.004564 0.861000
-0.005775 0.042311 0.863000
-0.032867 0.013728 0.875000
-0.023771 0.006964 0.885000
0.010423 -0.044919 0.881000
-0.005595 -0.024526 0.891000
-0.021781 -0.015760 0.893000
-0.021464 0.027932 0.880000
-0.028732 -0.027858 0.892000
-0.025506 0.011660 0.882000
0.000997 -0.031574 0.883000
-0.022886 0.028624 0.879000
0.006980 0.004992 0.859000
-0.019663 -0.023584 0.897000
-0.030225 -0.001408 0.882000
-0.003011 -0.022565 0.886000
-0.002223 0.048704 0.863000
0.016334 0.035684 0.849000
0.010044 0.030443 0.849000
-0.034464 0.014876 0.879000
-0.029298 0.020234 0.876000
0.028556 -0.018935 0.870000
-0.018988 -0.028849 0.900000
-0.015602 -0.015092 0.897000
-0.034163 0.001509 0.890000
-0.004031 0.051964 0.870000
-0.034268 0.019108 0.874000
0.019245 -0.035048 0.870000
-0.017777 -0.011007 0.895000
0.008688 -0.047523 0.889000
-0.007577 0.040676 0.866000
-0.023751 -0.036176 0.898000
0.010577 -0.010270 0.864000
-0.003032 -0.035200 0.892000
0.015340 0.015471 0.852000
0.011483 0.020381 0.852000
-0.000094 -0.043645 0.892000
0.008932 -0.034248 0.877000
0.028687 -0.027655 0.874000
0.014238 0.020658 0.849000
-0.012479 0.009150 0.885000
-0.032001 -0.026726 0.891000
-0.014204 -0.031883 0.902000
-0.005795 0.049943 0.866000
0.015599 0.025839 0.847000
-0.018950 0.027964 0.881000
0.016305 -0.025620 0.866000
-0.019315 -0.024349 0.898000
-0.017658 0.006264 0.889000
-0.029067 -0.027460 0.891000
-0.003288 0.034852 0.863000
0.008580 -0.035371 0.878000
-0.030916 -0.000319 0.881000
-0.004364 0.026032 0.865000
0.013360 -0.003497 0.860000
-0.021116 -0.023189 0.896000
0.003927 -0.043814 0.888000
0.010394 0.035684 0.849000
0.006743 -0.020101 0.874000
-0.031030 0.024145 0.874000
-0.021634 0.005155 0.887000
-0.017777 -0.010270 0.895000
0.018847 0.017225 0.852000
0.017465 0.013734 0.853000
-0.008726 0.025224 0.874000
0.018409 0.032501 0.848000
-0.012770 0.021051 0.880000
0.012341 -0.008127 0.863000
-0.026896 -0.026022 0.892000
0.002395 0.019934 0.863000
0.006230 0.032341 0.853000
-0.004435 -0.011534 0.879000
-0.000819 -0.028998 0.882000
-0.032321 0.030838 0.870000
-0.010838 -0.031812 0.900000
0.007893 -0.042066 0.882000
0.012564 0.013399 0.854000
0.024532 -0.020297 0.867000
-0.022781 -0.005810 0.889000
0.027092 -0.019986 0.869000
-0.024555 -0.002147 0.887000
-0.000805 0.021072 0.866000
-0.021415 0.034012 0.878000
-0.020400 0.027964 0.881000
-0.021221 0.013885 0.885000
0.004137 0.040206 0.856000
0.033079 -0.023032 0.876000
0.015857 -0.005273 0.861000
0.021345 -0.027823 0.868000
-0.021903 -0.030632 0.898000
0.015556 -0.020227 0.864000
-0.018756 0.004435 0.889000
-0.026927 0.012372 0.881000
0.000991 0.055694 0.878000
-0.018146 -0.011007 0.895000
-0.009963 -0.004342 0.888000
-0.010645 0.005865 0.884000
-0.008676 0.051547 0.869000
-0.022591 -0.026876 0.896000
0.002827 -0.038654 0.887000
0.010785 -0.045645 0.881000
0.000616 0.038181 0.858000
-0.007229 0.037154 0.867000
-0.030499 -0.025964 0.890000
0.006573 0.034057 0.852000
0.002038 0.011396 0.862000
-0.008367 0.054002 0.874000
-0.031641 0.030514 0.871000
0.005968 -0.010294 0.866000
0.001685 0.013185 0.863000
0.015218 -0.022742 0.865000
0.011276 -0.007416 0.863000
0.002028 0.031825 0.858000
0.014204 0.030719 0.847000
-0.027631 -0.027858 0.892000
-0.034086 0.002602 0.888000
0.013507 0.030022 0.847000
-0.018186 -0.017677 0.897000
-0.003741 -0.028400 0.886000
-0.019057 0.012807 0.886000
0.014604 0.018234 0.850000
-0.014284 0.016053 0.884000
-0.012930 -0.003256 0.891000
-0.034987 0.026303 0.874000
-0.006598 -0.001402 0.878000
0.004893 -0.003517 0.865000
-0.031210 0.039386 0.869000
0.001689 0.049885 0.865000
0.023211 -0.031504 0.871000
-0.024054 0.015653 0.882000
-0.028365 -0.026756 0.892000
0.017485 0.010587 0.854000
-0.014204 -0.031511 0.902000
-0.029490 0.035175 0.871000
-0.002981 -0.010424 0.877000
0.000987 0.007957 0.874000
-0.010860 0.037010 0.872000
0.002833 -0.044230 0.889000
-0.012611 0.047970 0.869000
-0.018162 0.036542 0.878000
0.014305 0.012330 0.853000
-0.028079 0.001497 0.883000
-0.002623 -0.012966 0.878000
-0.021756 -0.010236 0.892000
-0.031568 0.037598 0.869000
0.004176 0.047338 0.864000
-0.029834 -0.030795 0.892000
0.010743 0.035684 0.849000
0.013888 0.021707 0.849000
-0.028806 -0.000320 0.883000
0.017732 0.021357 0.849000
-0.022781 -0.002883 0.889000
-0.018004 0.008450 0.888000
-0.016121 0.017892 0.885000
0.014553 0.034206 0.847000
0.031637 -0.025555 0.876000
-0.023917 0.031447 0.877000
0.023790 -0.019917 0.866000
0.007283 0.027777 0.853000
-0.002220 0.034102 0.862000
0.014989 0.015121 0.852000
-0.015654 -0.025515 0.900000
0.001673 0.030024 0.857000
-0.019203 0.041867 0.876000
-0.022422 0.041819 0.875000
-0.027141 -0.013114 0.888000
0.001322 0.032884 0.858000
0.004899 -0.007086 0.866000
-0.002238 0.018999 0.869000
0.025691 -0.018935 0.870000
-0.016430 0.024366 0.882000
0.013142 -0.024636 0.869000
0.018847 0.017926 0.852000
0.022186 -0.035888 0.873000
-0.032358 0.030514 0.871000
0.024532 -0.019583 0.867000
0.009706 0.037475 0.850000
-0.010597 0.015618 0.880000
-0.007924 0.043833 0.865000
-0.005848 0.007238 0.874000
-0.008806 -0.003587 0.882000
-0.009304 -0.024268 0.895000
0.018273 0.002514 0.858000
0.006604 0.022943 0.856000
-0.031314 -0.003587 0.882000
-0.015463 0.005532 0.889000
-0.006515 0.035727 0.867000
-0.021163 -0.028045 0.898000
-0.000093 -0.028602 0.881000
0.002078 -0.018046 0.879000
-0.033318 0.036125 0.868000
-0.005781 0.039515 0.864000
-0.016085 0.021486 0.883000
-0.031570 0.005470 0.879000
-0.019510 -0.000689 0.890000
-0.033189 0.018389 0.874000
0.012946 0.007793 0.856000
-0.003989 0.042567 0.861000
-0.025061 -0.018312 0.892000
-0.009446 0.028102 0.874000
0.018046 -0.014537 0.864000
-0.006864 0.039963 0.866000
0.012711 -0.012404 0.864000
0.010234 -0.012062 0.865000
-0.010386 -0.015393 0.893000
0.002099 -0.039428 0.888000
0.016296 0.027931 0.847000
0.013422 -0.011337 0.864000
0.010198 -0.005279 0.862000
-0.019208 -0.007307 0.893000
-0.007412 -0.014592 0.889000
0.026498 -0.029420 0.873000
-0.029136 0.002222 0.882000
-0.013372 0.043470 0.872000
-0.023972 0.023559 0.879000
-0.013731 0.043470 0.872000
-0.025257 0.000044 0.886000
0.005316 -0.030964 0.876000
0.014068 -0.002081 0.860000
0.018758 0.029011 0.848000
-0.006208 0.006158 0.874000
-0.023556 0.033251 0.877000
-0.033510 0.019087 0.873000
-0.013103 0.028953 0.878000
-0.013148 0.020349 0.881000
0.006222 0.036862 0.852000
0.007688 0.008528 0.859000
-0.007656 0.008326 0.875000
-0.009435 0.028429 0.873000
-0.003669 0.022576 0.869000
-0.015334 -0.033033 0.903000
0.025779 -0.030498 0.873000
-0.029814 0.040147 0.870000
0.009741 0.022862 0.853000
-0.006856 0.041341 0.865000
0.024314 -0.031540 0.872000
-0.012347 -0.031883 0.902000
-0.012843 0.010243 0.885000
-0.013043 0.037454 0.874000
-0.016821 -0.033776 0.903000
0.022110 -0.031826 0.870000
-0.018925 -0.019892 0.897000
-0.005438 0.050299 0.866000
-0.002953 0.017926 0.869000
-0.020242 -0.001788 0.890000
-0.009727 0.049287 0.867000
-0.009055 0.034099 0.871000
-0.020151 0.013172 0.886000
0.002808 -0.032228 0.881000
-0.020288 -0.007299 0.892000
0.027576 -0.027624 0.873000
-0.024832 -0.034659 0.897000
-0.032679 0.030121 0.870000
0.000968 0.026497 0.857000
-0.031232 -0.028894 0.890000
0.020535 -0.016671 0.864000
-0.011817 -0.005451 0.890000
-0.013889 0.020009 0.882000
-0.005064 0.028458 0.863000
0.007471 -0.024086 0.875000
-0.032469 0.019468 0.874000
-0.001174 -0.009691 0.876000
-0.026866 0.017047 0.879000
-0.003011 -0.020742 0.886000
0.012564 0.013047 0.854000
0.006037 -0.025555 0.876000
0.014590 -0.032900 0.870000
0.002109 -0.045847 0.892000
0.004893 -0.002805 0.865000
-0.031527 -0.023347 0.888000
-0.032961 0.038269 0.868000
0.002750 0.017092 0.863000
-0.001865 0.025587 0.862000
-0.021900 0.017125 0.883000
0.018213 -0.036924 0.872000
-0.030157 0.007287 0.880000
-0.006733 -0.033146 0.896000
-0.031498 0.013038 0.877000
-0.002575 0.025942 0.862000
-0.016121 0.018256 0.885000
-0.026655 0.001499 0.884000
0.027999 -0.031288 0.875000
-0.000798 0.039640 0.859000
-0.024780 0.029448 0.882000
0.022161 -0.034770 0.872000
-0.010142 0.032703 0.872000
0.009028 0.025991 0.852000
-0.008746 0.020955 0.876000
-0.013418 0.037137 0.875000
-0.000444 0.029741 0.859000
0.004853 0.041713 0.858000
-0.020810 0.021486 0.883000
-0.029599 -0.008698 0.885000
-0.030706 0.019490 0.875000
-0.005775 0.047284 0.863000
-0.027983 0.010185 0.880000
0.009841 -0.048158 0.894000
-0.015775 0.013536 0.886000
0.007334 0.015245 0.859000
-0.010847 0.037326 0.871000
-0.016945 0.002974 0.890000
-0.016698 0.037583 0.877000
0.003102 0.018846 0.862000
-0.020128 0.016071 0.885000
-0.021610 0.007702 0.886000
-0.007933 0.049586 0.866000
-0.012087 0.013127 0.883000
-0.014252 0.021461 0.882000
-0.011923 -0.022501 0.898000
-0.013058 0.033896 0.875000
0.012097 -0.027919 0.871000
-0.012698 0.033176 0.875000
0.010455 0.040112 0.854000
-0.012292 -0.021762 0.898000
0.014623 -0.035847 0.872000
-0.006500 0.031728 0.865000
0.015201 -0.014537 0.864000
-0.019663 -0.022476 0.897000
-0.000799 0.041810 0.860000
-0.008577 -0.027614 0.896000
0.011917 0.003927 0.858000
-0.002235 0.020049 0.868000
-0.003656 0.050299 0.866000
-0.005576 -0.016768 0.888000
-0.015393 0.016799 0.885000
-0.008856 -0.006528 0.887000
-0.025869 0.011297 0.882000
-0.023972 0.024283 0.879000
0.011805 0.024531 0.850000
-0.013192 0.014961 0.884000
-0.015994 0.034735 0.878000
0.010423 -0.045645 0.881000
0.008336 0.025671 0.853000
-0.016176 0.009912 0.888000
-0.000091 0.024168 0.862000
-0.025448 0.024310 0.880000
0.014862 -0.019538 0.865000
0.032719 -0.025555 0.876000
0.029800 -0.027327 0.875000
0.000994 -0.018066 0.880000
-0.018266 0.024393 0.883000
0.002376 0.038444 0.856000
-0.020904 0.005885 0.887000
-0.003639 0.046874 0.862000
-0.016831 0.021510 0.884000
0.013220 0.018956 0.851000
0.016979 -0.013115 0.864000
-0.022755 -0.002515 0.888000
-0.031137 0.011955 0.877000
-0.021437 -0.017986 0.894000
0.026827 -0.025798 0.872000
0.013874 -0.029319 0.870000
-0.020400 0.025788 0.881000
-0.008756 0.013399 0.877000
-0.001559 -0.034389 0.890000
-0.033101 -0.022576 0.901000
0.018209 0.010599 0.855000
-0.014316 0.010984 0.886000
0.020963 -0.026363 0.867000
0.004865 0.020572 0.860000
-0.026866 0.018856 0.879000
0.011778 0.029709 0.848000
0.009422 0.015192 0.856000
0.023900 -0.026813 0.870000
0.007054 -0.014962 0.868000
-0.027228 0.015600 0.879000
0.011429 0.031803 0.848000
-0.007062 -0.020126 0.891000
0.018529 -0.034690 0.870000
0.006588 0.025350 0.854000
0.032284 -0.021540 0.874000
0.017506 0.008840 0.855000
0.007688 0.010295 0.859000
0.015324 -0.035447 0.871000
-0.033948 -0.004371 0.894000
0.013174 0.025520 0.848000
-0.033831 0.021577 0.872000
0.022468 -0.030752 0.870000
0.016004 0.018234 0.850000
0.004532 0.001821 0.864000
0.027903 -0.024003 0.872000
-0.027228 0.017409 0.879000
0.014183 -0.024579 0.867000
-0.001173 -0.011481 0.875000
-0.008656 0.049287 0.867000
-0.018555 -0.019523 0.897000
-0.012577 -0.007299 0.892000
0.004652 -0.043765 0.887000
0.002420 -0.013595 0.872000
-0.014896 -0.021786 0.899000
0.006030 -0.019044 0.875000
-0.017760 0.042588 0.876000
0.010305 -0.021108 0.871000
-0.014349 0.006988 0.888000
0.013376 -0.004919 0.861000
0.031637 -0.027358 0.876000
-0.011803 -0.002517 0.889000
0.001023 -0.046940 0.906000
0.008395 0.003578 0.859000
-0.017059 -0.013600 0.896000
-0.005489 0.007597 0.874000
-0.009413 0.034099 0.871000
-0.003288 0.035562 0.863000
-0.022473 0.034695 0.877000
0.020535 -0.018449 0.864000
-0.017059 -0.014338 0.896000
-0.029693 0.015925 0.877000
0.017354 -0.024879 0.865000
0.001673 0.036373 0.857000
-0.001153 0.044287 0.860000
-0.000828 -0.038828 0.891000
0.008901 -0.025137 0.874000
-0.012128 0.005878 0.886000
-0.027073 0.032058 0.874000
-0.000093 -0.019922 0.882000
-0.014515 0.050880 0.876000
0.034640 -0.024196 0.879000
-0.006244 -0.004660 0.879000
-0.002295 -0.033694 0.891000
0.006940 0.039761 0.854000
-0.022163 0.028624 0.879000
-0.003311 0.010773 0.869000
-0.002587 0.050299 0.866000
-0.001519 0.020740 0.867000
-0.021029 0.038305 0.877000
0.000986 -0.012892 0.873000
-0.007446 -0.025316 0.893000
-0.017487 -0.022526 0.899000
-0.011209 -0.029219 0.900000
0.019135 -0.009570 0.865000
-0.007312 0.001848 0.877000
0.008405 0.000042 0.860000
-0.021149 0.022914 0.882000
-0.021046 -0.012820 0.893000
0.015746 0.008136 0.855000
0.003425 0.027810 0.854000
-0.022834 0.033251 0.877000
-0.005117 0.020500 0.872000
-0.018162 0.037264 0.878000
-0.004359 0.034181 0.864000
0.008317 0.032266 0.851000
-0.028333 -0.024526 0.891000
0.011778 0.031105 0.848000
-0.023037 -0.035477 0.899000
0.020366 -0.035847 0.872000
-0.005223 -0.026696 0.890000
-0.016285 -0.008419 0.894000
0.004967 -0.025252 0.878000
-0.009500 0.016324 0.879000
0.008097 -0.011350 0.865000
-0.029432 0.007649 0.880000
-0.017428 -0.013969 0.896000
-0.001509 0.047174 0.861000
-0.021210 -0.035146 0.900000
-0.012292 -0.022501 0.898000
0.013953 -0.039211 0.875000
-0.018286 0.018963 0.884000
0.018316 -0.000311 0.860000
0.018757 -0.018449 0.864000
-0.002950 0.011475 0.868000
0.002035 0.043985 0.861000
0.019892 -0.028504 0.867000
-0.026652 0.039163 0.872000
-0.019444 0.008806 0.887000
0.015250 0.025839 0.847000
-0.017136 -0.027367 0.900000
-0.024611 0.033935 0.876000
-0.031004 -0.034911 0.894000
0.006310 -0.006714 0.864000
-0.000813 -0.012201 0.875000
-0.014681 0.013536 0.886000
0.018046 -0.018804 0.864000
0.027513 -0.022900 0.871000
0.027513 -0.023976 0.871000
-0.016831 0.019327 0.884000
-0.026103 -0.016440 0.890000
0.009444 0.008871 0.858000
-0.028301 -0.021934 0.890000
0.001006 -0.043962 0.891000
-0.013810 0.032890 0.877000
0.008346 0.024295 0.854000
-0.017902 0.021849 0.883000
0.001353 0.055694 0.878000
-0.028378 0.008746 0.881000
-0.003035 -0.037445 0.893000
0.004831 0.034488 0.854000
0.008326 0.028797 0.852000
-0.022834 0.032529 0.877000
-0.004384 0.013992 0.869000
-0.024278 0.031086 0.877000
-0.018204 0.032279 0.880000
-0.013163 0.018557 0.882000
-0.029800 -0.028927 0.891000
0.013422 -0.012404 0.864000
0.024203 -0.022107 0.868000
0.005322 -0.025224 0.877000
-0.005211 -0.017865 0.888000
0.017342 0.028279 0.847000
0.002376 0.035978 0.856000
-0.001537 -0.014034 0.877000
-0.019943 -0.010247 0.893000
0.018431 0.032889 0.849000
-0.002305 -0.043423 0.895000
0.015286 0.021357 0.849000
-0.024832 -0.036136 0.897000
0.013682 0.002514 0.858000
-0.012549 -0.002887 0.890000
-0.005828 0.015099 0.871000
0.005540 0.023972 0.855000
0.003573 -0.046163 0.891000
0.012885 0.038966 0.852000
-0.006500 0.039917 0.865000
0.014254 0.019633 0.850000
-0.024190 0.000044 0.887000
-0.005962 -0.024893 0.891000
-0.022938 0.020349 0.881000
0.005676 -0.021589 0.876000
0.007625 0.037914 0.852000
-0.002217 0.044693 0.861000
-0.025708 -0.011299 0.889000
-0.025564 0.005501 0.884000
-0.007296 0.007606 0.875000
0.020915 -0.022386 0.865000
0.010257 -0.015301 0.867000
0.005683 -0.024502 0.877000
-0.030530 0.037999 0.870000
-0.000093 -0.021399 0.883000
-0.016006 -0.021786 0.899000
0.008365 0.020124 0.856000
-0.014078 -0.010259 0.894000
0.000616 0.037828 0.858000
0.018713 -0.004924 0.862000
-0.028174 -0.008708 0.886000
-0.000456 -0.026094 0.882000
0.022442 -0.027855 0.869000
0.008541 -0.025857 0.874000
0.013523 0.035991 0.848000
-0.008686 0.034418 0.870000
-0.010597 0.015980 0.880000
0.014456 -0.008827 0.862000
-0.030065 -0.020058 0.888000
0.031134 -0.018261 0.872000
0.013826 -0.023152 0.867000
0.008032 0.015580 0.858000
-0.021851 0.024338 0.881000
-0.029301 -0.014559 0.887000
-0.029425 -0.037080 0.902000
0.005017 -0.044495 0.887000
-0.006967 -0.002489 0.879000
-0.034934 0.011779 0.891000
0.006627 0.008881 0.859000
0.023237 -0.033335 0.872000
-0.033417 0.003303 0.880000
0.008687 0.026373 0.853000
-0.022834 0.034334 0.877000
0.009499 -0.008127 0.863000
0.007054 -0.014247 0.868000
0.005389 -0.046007 0.888000
0.008414 -0.002438 0.861000
-0.006560 0.008667 0.873000
-0.006726 -0.030162 0.895000
-0.010810 0.046128 0.868000
-0.024808 0.010583 0.883000
0.016645 0.028976 0.847000
-0.022138 0.031121 0.878000
0.012825 0.026567 0.848000
-0.013312 -0.004729 0.892000
0.012825 0.035991 0.848000
-0.002297 -0.037403 0.892000
-0.016304 -0.010270 0.895000
0.010492 0.010977 0.857000
0.013391 -0.008117 0.862000
0.009346 -0.045333 0.882000
0.009511 -0.008847 0.864000
0.011986 -0.008127 0.863000
0.009324 -0.040522 0.880000
0.019046 -0.002438 0.861000
-0.000828 -0.038462 0.891000
0.019984 -0.035447 0.871000
0.019108 0.025869 0.848000
-0.030727 -0.014907 0.886000
-0.012669 0.038489 0.873000
-0.013372 0.043111 0.872000
-0.009457 0.023812 0.875000
-0.001861 0.043226 0.860000
0.019513 -0.026333 0.866000
-0.022806 -0.006550 0.890000
0.003812 0.007138 0.862000
-0.011221 -0.033701 0.901000
-0.029625 0.023452 0.875000
0.014389 0.001455 0.858000
-0.030172 0.039431 0.870000
-0.005158 -0.009001 0.879000
-0.004840 -0.025511 0.887000
0.010870 0.002164 0.859000
-0.024777 -0.027952 0.895000
-0.010107 0.040101 0.869000
0.030951 -0.030277 0.877000
-0.026015 -0.005067 0.887000
0.011262 -0.005989 0.862000
0.017858 0.009192 0.855000
-0.025171 0.010220 0.883000
0.009197 -0.015319 0.868000
0.000969 0.036415 0.858000
0.012696 -0.008837 0.863000
0.014405 -0.002079 0.859000
-0.034190 0.024089 0.872000
-0.005457 0.051547 0.869000
0.002728 0.037388 0.856000
-0.020840 -0.035146 0.900000
0.015691 0.014419 0.852000
-0.024610 -0.009835 0.889000
-0.007796 -0.017559 0.891000
-0.031030 0.023425 0.874000
-0.028479 0.033100 0.873000
-0.001587 -0.046194 0.906000
0.016979 -0.014182 0.864000
0.012917 -0.043321 0.878000
-0.016337 0.039027 0.877000
0.031961 -0.023005 0.875000
0.002038 0.046519 0.862000
0.008395 0.011356 0.859000
0.021369 -0.029286 0.869000
0.009775 0.014135 0.856000
-0.031893 -0.020789 0.888000
-0.017896 -0.029993 0.901000
-0.011578 0.037727 0.872000
0.002040 0.008567 0.863000
-0.014548 0.031121 0.878000
0.002387 0.042518 0.860000
0.013794 -0.017402 0.865000
0.008738 0.010990 0.858000
0.005683 -0.025946 0.877000
-0.011790 -0.000687 0.888000
0.014166 -0.021343 0.866000
-0.019586 0.038666 0.877000
-0.017902 0.022213 0.883000
-0.015323 0.026876 0.881000
-0.017506 -0.025144 0.900000
-0.012169 0.000044 0.889000
-0.029633 -0.011625 0.886000
0.008395 0.001810 0.859000
-0.000444 0.028646 0.858000
-0.000829 -0.041442 0.892000
0.013969 -0.040338 0.876000
-0.022473 0.033973 0.877000
0.001334 0.050299 0.866000
-0.001861 0.038978 0.860000
-0.008007 0.022346 0.874000
-0.006568 0.008317 0.874000
0.007679 0.016287 0.858000
0.015728 0.009532 0.854000
0.006573 0.036161 0.852000
-0.003736 -0.015255 0.885000
0.018039 0.026536 0.847000
-0.014015 0.001875 0.890000
0.006774 -0.033925 0.878000
-0.006605 -0.004660 0.879000
0.021983 -0.018470 0.865000
-0.002264 -0.009001 0.879000
-0.006308 -0.014576 0.888000
-0.030924 0.032665 0.871000
0.006743 -0.019382 0.874000
0.010115 0.017637 0.855000
0.004904 -0.008521 0.867000
-0.004851 -0.021178 0.889000
0.009912 -0.016391 0.868000
-0.032999 0.035094 0.869000
0.002792 -0.016902 0.876000
0.003433 0.024000 0.856000
-0.016765 -0.026626 0.900000
-0.017896 -0.029622 0.901000
-0.009839 0.020979 0.877000
-0.020333 -0.013938 0.894000
-0.024195 0.040692 0.874000
0.013438 -0.017758 0.865000
-0.021149 0.024003 0.882000
0.014204 0.032114 0.847000
-0.009211 -0.003603 0.886000
-0.007647 0.013713 0.874000
-0.012727 0.028198 0.877000
0.012888 -0.039977 0.876000
0.009049 0.021835 0.854000
-0.000094 -0.042910 0.892000
0.023317 -0.034890 0.875000
0.014248 -0.033655 0.871000
0.004600 -0.020892 0.877000
-0.024555 -0.003972 0.887000
-0.010282 0.004046 0.884000
-0.010537 0.026693 0.875000
0.004853 0.021937 0.858000
0.011110 -0.041153 0.878000
-0.022087 0.040785 0.876000
-0.019586 0.040831 0.877000
0.017027 -0.046216 0.885000
-0.027080 -0.004697 0.886000
0.004876 0.003590 0.862000
-0.003288 0.033786 0.863000
0.009809 0.002871 0.859000
-0.000468 -0.046515 0.905000
-0.000092 0.020003 0.866000
0.004162 0.012091 0.861000
0.001356 -0.026397 0.880000
0.001322 0.041006 0.858000
-0.010409 -0.020216 0.895000
-0.009974 -0.007640 0.889000
-0.001547 -0.025033 0.883000
-0.000094 -0.035814 0.889000
0.011367 -0.023590 0.870000
0.022774 -0.026037 0.868000
-0.031354 0.024476 0.873000
0.014150 -0.017758 0.865000
-0.003639 0.039069 0.862000
-0.017467 -0.020284 0.898000
0.012900 0.039363 0.853000
0.016488 0.003217 0.857000
-0.011502 -0.014306 0.894000
-0.031172 0.009439 0.878000
0.011631 -0.007772 0.863000
-0.014631 0.020395 0.883000
-0.002233 0.014316 0.867000
-0.019294 -0.020261 0.897000
0.031998 -0.026637 0.876000
0.011262 -0.005634 0.862000
-0.030259 -0.004318 0.883000
0.000268 -0.014739 0.876000
-0.015114 0.001875 0.890000
-0.022964 0.017831 0.882000
0.023078 -0.021343 0.866000
0.008004 0.023268 0.855000
-0.011631 0.028526 0.876000
0.006222 0.035810 0.852000
0.011930 0.001810 0.859000
0.015271 -0.028895 0.868000
-0.030706 0.022011 0.875000
0.015250 0.028279 0.847000
-0.016024 -0.026256 0.900000
0.004506 0.042468 0.859000
-0.032036 0.028037 0.872000
-0.004709 0.039469 0.863000
0.007334 0.004992 0.859000
0.017273 -0.043732 0.879000
-0.001507 0.040394 0.860000
0.000633 -0.022826 0.882000
-0.017155 -0.029622 0.901000
-0.000091 0.035397 0.859000
0.006642 0.000751 0.861000
-0.002256 0.054846 0.876000
-0.011923 0.041628 0.871000
0.005885 0.030973 0.854000
0.009261 -0.029454 0.874000
-0.029566 -0.003959 0.884000
-0.005835 0.015835 0.872000
0.024314 -0.031181 0.872000
-0.021341 -0.002520 0.890000
-0.003669 0.023291 0.869000
-0.013920 0.016053 0.884000
0.017983 -0.002438 0.861000
-0.025448 0.017429 0.880000
-0.022024 -0.000322 0.888000
0.013438 -0.014198 0.865000
0.009444 0.010636 0.858000
-0.016821 -0.034148 0.903000
-0.032113 -0.010144 0.884000
-0.008016 0.008326 0.875000
0.016399 -0.035806 0.871000
-0.024777 -0.029057 0.895000
-0.004796 -0.006830 0.879000
-0.017002 -0.004366 0.893000
-0.026988 0.003314 0.883000
-0.002926 0.038669 0.861000
0.018758 0.026567 0.848000
-0.029490 0.040552 0.871000
-0.020099 -0.033664 0.900000
-0.006215 0.004725 0.875000
-0.006222 0.001125 0.876000
-0.015323 0.027239 0.881000
-0.030431 -0.021520 0.888000
-0.016560 0.007362 0.889000
0.018167 0.013734 0.853000
0.010364 -0.034569 0.876000
-0.032183 0.011941 0.876000
