0.005819 0.035526 0.898000
0.041070 0.037128 0.901000
-0.028563 -0.034413 0.910000
-0.021093 0.024356 0.895000
-0.022293 -0.002588 0.914000
-0.016504 -0.040601 0.906000
-0.012197 0.031949 0.891000
-0.007189 0.016097 0.907000
0.013445 -0.015690 0.889000
0.039070 0.017086 0.881000
-0.016635 0.028345 0.893000
-0.019444 -0.037162 0.904000
0.009808 0.043684 0.891000
0.009494 0.018114 0.896000
-0.028343 -0.014265 0.915000
-0.023589 -0.036499 0.906000
-0.015300 -0.037039 0.901000
0.033783 0.033555 0.885000
0.006237 -0.036458 0.905000
0.033839 0.000043 0.877000
0.000648 0.026804 0.903000
-0.013863 -0.016326 0.904000
0.005787 0.039739 0.893000
0.006928 0.035896 0.898000
-0.016559 -0.006689 0.909000
-0.026837 -0.012759 0.915000
-0.015654 0.023011 0.900000
-0.022520 -0.026489 0.908000
0.002478 -0.025684 0.893000
0.025319 0.017468 0.882000
0.030695 0.018877 0.880000
0.017796 -0.013464 0.887000
0.025233 0.012344 0.879000
0.037492 0.015582 0.878000
-0.032912 0.009740 0.906000
-0.004878 -0.015778 0.894000
0.024732 0.029615 0.887000
0.026680 -0.002489 0.879000
0.034148 0.026634 0.885000
-0.025510 -0.036953 0.908000
-0.000457 0.045160 0.884000
-0.031247 0.014136 0.901000
0.018976 0.027915 0.891000
-0.000467 0.018999 0.903000
0.021738 0.008412 0.884000
-0.024577 -0.005227 0.915000
-0.009336 -0.025828 0.898000
-0.020389 -0.000331 0.913000
-0.016238 0.010555 0.912000
0.019919 0.002954 0.884000
0.003221 0.013305 0.895000
0.007232 0.005905 0.890000
-0.033421 -0.002984 0.920000
0.001371 -0.012411 0.890000
0.035923 0.004725 0.875000
-0.040833 0.003408 0.908000
-0.036909 -0.007544 0.922000
-0.027154 -0.018368 0.913000
0.037767 0.003649 0.876000
-0.007142 0.006349 0.901000
-0.013119 -0.016326 0.904000
-0.010351 0.033744 0.890000
-0.020379 0.023646 0.896000
-0.019220 -0.004829 0.911000
-0.009608 0.035170 0.889000
-0.005627 0.031390 0.896000
-0.009705 -0.030263 0.898000
-0.036629 0.000045 0.915000
0.011681 0.016970 0.894000
-0.025538 0.010895 0.909000
-0.025192 -0.014188 0.910000
0.026680 -0.001765 0.879000
-0.026112 0.003438 0.916000
0.033783 0.033190 0.885000
-0.035188 0.014230 0.907000
0.021010 0.011686 0.884000
0.026016 0.006933 0.881000
-0.028250 -0.025855 0.912000
-0.003406 -0.012466 0.894000
0.024422 0.033706 0.889000
-0.010850 -0.005518 0.901000
-0.000096 0.019371 0.903000
0.017391 0.000772 0.885000
0.011351 0.029210 0.897000
-0.043928 -0.005622 0.918000
0.001761 -0.035966 0.902000
-0.007521 -0.039679 0.902000
-0.031356 -0.025563 0.915000
0.011224 0.004060 0.887000
0.030625 0.007993 0.878000
-0.010479 -0.012935 0.901000
-0.022995 0.009804 0.912000
0.035563 0.008686 0.875000
-0.004510 -0.013938 0.894000
-0.012361 -0.009247 0.903000
-0.022495 -0.031686 0.907000
-0.004105 0.040156 0.886000
0.031637 0.006173 0.876000
0.025319 -0.006491 0.882000
-0.014298 -0.000329 0.908000
-0.026767 0.017454 0.900000
0.016483 0.037249 0.895000
0.003962 -0.030564 0.896000
0.024246 -0.010282 0.896000
-0.011184 -0.036176 0.898000
-0.029752 -0.031485 0.912000
-0.010946 0.014262 0.909000
-0.004911 0.003378 0.900000
-0.034178 -0.011314 0.920000
0.004307 -0.017925 0.891000
-0.025735 -0.003348 0.916000
0.004721 0.021529 0.900000
-0.036789 -0.025675 0.919000
-0.009439 0.018731 0.908000
0.037363 0.005445 0.875000
0.035806 0.035942 0.890000
-0.022317 0.003811 0.915000
-0.028058 -0.001844 0.918000
0.024928 0.005483 0.881000
0.024450 0.037407 0.890000
0.001001 0.042027 0.887000
-0.027936 -0.018388 0.914000
0.031782 0.020688 0.880000
-0.019509 -0.014514 0.907000
-0.001204 0.032200 0.898000
0.026528 0.030311 0.886000
-0.007142 0.026745 0.901000
0.011275 0.010312 0.891000
-0.016672 0.026567 0.895000
-0.011592 -0.007372 0.901000
0.011224 0.001869 0.887000
-0.018308 -0.020397 0.903000
-0.031178 0.017065 0.899000
-0.013955 0.005663 0.910000
-0.016113 -0.016717 0.905000
-0.018075 -0.007071 0.910000
0.014875 0.005520 0.887000
-0.020583 -0.033106 0.905000
-0.008172 0.033453 0.892000
0.010859 0.003329 0.887000
0.037215 0.018877 0.880000
-0.023045 -0.004845 0.914000
-0.045518 -0.002207 0.912000
-0.020743 -0.004459 0.912000
-0.025912 -0.032878 0.909000
-0.033275 0.001553 0.916000
0.040059 0.033565 0.895000
-0.005627 -0.010282 0.896000
-0.019707 0.021505 0.899000
-0.027213 -0.012759 0.915000
-0.034973 -0.009810 0.921000
0.013152 0.023593 0.894000
-0.019595 -0.006329 0.911000
-0.006599 -0.042014 0.929000
0.000270 0.043704 0.884000
0.034122 0.005445 0.875000
-0.011184 -0.031741 0.898000
-0.005317 0.015333 0.906000
0.033167 0.037689 0.888000
-0.023772 -0.009725 0.913000
-0.032237 0.007893 0.908000
-0.005317 0.014215 0.906000
-0.022495 -0.023100 0.907000
0.001008 -0.027154 0.893000
0.016024 0.012498 0.890000
0.033478 0.014482 0.877000
-0.009387 0.004876 0.903000
0.007241 0.041850 0.891000
0.026281 0.042169 0.890000
0.032728 0.035781 0.886000
0.038327 0.031877 0.889000
0.023010 0.038183 0.891000
0.007965 0.005905 0.890000
0.037919 0.031476 0.888000
-0.015131 0.031215 0.891000
-0.028186 0.019633 0.898000
-0.011618 -0.012220 0.903000
-0.029537 -0.012032 0.917000
0.038171 0.002570 0.877000
0.019234 0.006608 0.886000
0.016851 0.039091 0.895000
-0.003038 -0.011730 0.894000
0.031883 0.043047 0.893000
0.010232 0.019589 0.896000
-0.001558 0.039561 0.889000
-0.010120 -0.000327 0.902000
-0.019992 0.010931 0.912000
0.035679 0.040241 0.896000
-0.000094 -0.011691 0.891000
-0.013580 0.007161 0.910000
-0.029947 -0.000332 0.918000
-0.038006 -0.005261 0.921000
-0.021517 -0.004840 0.913000
0.022415 0.015653 0.882000
-0.006688 0.035576 0.890000
-0.010198 0.012017 0.909000
-0.014639 -0.008905 0.906000
0.020305 -0.010520 0.885000
-0.000095 0.016751 0.902000
-0.003444 0.024973 0.904000
0.009885 0.035526 0.898000
0.006551 0.017027 0.897000
0.015570 -0.005784 0.885000
0.019754 0.037533 0.893000
0.012319 0.004425 0.887000
0.008359 -0.020906 0.893000
0.027257 0.029581 0.886000
-0.011976 -0.008865 0.902000
0.007224 -0.015324 0.889000
0.024537 0.010909 0.880000
0.035766 0.020326 0.880000
0.014272 0.042406 0.895000
0.011927 -0.005420 0.885000
0.032654 0.030242 0.884000
-0.005252 -0.029057 0.895000
0.025653 0.016361 0.881000
0.014559 0.009934 0.890000
0.026438 0.018578 0.883000
0.035603 0.013744 0.876000
0.041298 0.029503 0.906000
0.006478 0.044948 0.887000
-0.025164 -0.029511 0.909000
-0.011209 -0.026256 0.900000
0.007658 0.018873 0.897000
-0.023063 0.018936 0.900000
-0.040395 -0.001461 0.915000
-0.009781 -0.040928 0.905000
-0.010572 0.011269 0.909000
-0.019530 0.014620 0.908000
0.012472 0.036265 0.898000
-0.011221 -0.021835 0.901000
0.014448 -0.017854 0.906000
0.014526 -0.014576 0.888000
0.029902 0.006548 0.878000
0.029048 0.033190 0.885000
-0.006816 0.014977 0.907000
-0.018348 0.017924 0.905000
-0.002703 0.020904 0.905000
0.033279 0.039650 0.891000
0.025491 0.034399 0.888000
0.021422 0.023747 0.886000
0.029015 0.026604 0.884000
-0.030912 0.005306 0.913000
-0.007078 0.033123 0.893000
-0.029409 -0.027762 0.913000
0.013749 0.000408 0.885000
-0.035122 0.000798 0.915000
-0.017174 -0.035595 0.902000
-0.022642 0.025547 0.898000
-0.020211 -0.039811 0.905000
-0.004933 -0.040139 0.904000
0.019665 -0.013128 0.889000
-0.017545 0.020834 0.902000
0.012684 -0.012734 0.887000
0.025069 0.025935 0.886000
-0.032144 -0.024083 0.916000
-0.025510 -0.033590 0.908000
-0.011072 0.034804 0.889000
0.028489 -0.002127 0.879000
-0.024015 -0.014904 0.908000
-0.019220 -0.006704 0.911000
0.011563 -0.003599 0.885000
0.004316 -0.023479 0.893000
0.029279 0.015998 0.881000
-0.007479 -0.025430 0.897000
0.027591 0.029912 0.885000
0.030869 0.034647 0.885000
-0.001196 -0.011337 0.892000
0.020646 0.017508 0.884000
-0.022471 -0.033143 0.906000
0.008331 -0.017905 0.890000
-0.004535 0.003745 0.899000
0.023167 -0.008315 0.883000
-0.000465 0.035936 0.899000
-0.012457 0.015027 0.910000
0.028818 0.001489 0.878000
0.018120 -0.010884 0.885000
-0.011592 -0.008856 0.901000
0.010577 0.016234 0.894000
0.001008 -0.027889 0.893000
-0.034822 -0.028261 0.917000
0.031384 0.015238 0.879000
-0.000829 -0.013540 0.892000
0.000648 0.021229 0.903000
0.009753 -0.006155 0.886000
0.037088 0.001126 0.877000
-0.021423 -0.012675 0.909000
-0.024496 -0.011967 0.912000
0.013035 -0.011625 0.886000
0.003966 0.015550 0.897000
-0.016522 -0.011901 0.907000
0.021200 0.036390 0.892000
-0.007102 -0.015444 0.896000
-0.029817 -0.024783 0.914000
-0.008615 -0.016995 0.900000
-0.010479 -0.014047 0.901000
-0.012549 0.032279 0.890000
-0.032144 -0.021444 0.916000
-0.020720 -0.008579 0.911000
0.009207 -0.021535 0.904000
0.024844 0.042583 0.891000
-0.025386 0.001178 0.917000
0.008028 0.018135 0.897000
0.030073 0.026574 0.883000
-0.013476 -0.019282 0.903000
-0.014314 0.016132 0.909000
-0.022396 0.017513 0.903000
-0.001586 0.021649 0.905000
0.016851 0.042406 0.895000
0.022052 0.000770 0.882000
0.010129 0.002234 0.887000
0.001007 -0.016110 0.892000
0.003242 0.030824 0.901000
0.027473 0.045252 0.893000
-0.025998 -0.021726 0.912000
-0.012457 0.013154 0.910000
-0.013476 0.022344 0.903000
-0.010850 -0.004406 0.901000
-0.017174 -0.034110 0.902000
-0.011592 -0.009597 0.901000
0.006997 -0.037659 0.907000
-0.007118 -0.019544 0.898000
0.010117 -0.007614 0.886000
0.009156 0.032235 0.899000
-0.011308 0.019104 0.908000
-0.019926 -0.011553 0.909000
-0.034067 -0.024864 0.917000
-0.000094 0.042344 0.886000
-0.021069 0.026169 0.894000
-0.007857 -0.021762 0.898000
0.014113 -0.000685 0.885000
-0.025164 -0.017539 0.909000
-0.012959 0.029815 0.893000
-0.007822 0.031688 0.894000
-0.013446 -0.028881 0.901000
0.010969 0.022171 0.896000
0.004350 0.033012 0.900000
-0.016821 -0.031175 0.903000
-0.013461 -0.022601 0.902000
-0.012016 0.002652 0.905000
-0.027530 0.006433 0.913000
0.026588 0.038420 0.888000
0.029612 -0.006190 0.891000
-0.011682 0.006772 0.908000
-0.015689 -0.038565 0.902000
-0.007883 0.003382 0.901000
0.018140 0.006243 0.886000
-0.017916 -0.021859 0.902000
0.040337 0.006180 0.877000
0.023975 0.024476 0.886000
-0.036829 -0.026839 0.920000
-0.047613 -0.000703 0.909000
-0.029312 0.007910 0.910000
-0.006002 -0.035029 0.897000
-0.027154 -0.040163 0.913000
0.025986 0.009098 0.880000
0.016464 0.030216 0.894000
0.001745 -0.029392 0.894000
0.026104 0.021510 0.884000
-0.008227 -0.010304 0.898000
-0.001945 0.030755 0.899000
-0.027273 -0.005239 0.917000
0.032071 0.014859 0.878000
-0.021941 0.002305 0.915000
0.019776 0.039783 0.894000
0.036739 0.030311 0.886000
-0.013491 -0.005536 0.904000
0.016132 0.039872 0.896000
0.001376 -0.026419 0.893000
0.014624 0.025065 0.894000
-0.022669 -0.001083 0.914000
-0.026975 0.011617 0.907000
0.036128 0.019602 0.880000
0.018505 0.018277 0.886000
-0.029033 -0.025883 0.913000
0.002868 0.017825 0.900000
0.010197 0.013276 0.893000
0.028287 0.027695 0.884000
0.018161 0.010631 0.887000
0.027042 0.001129 0.879000
-0.009450 0.016507 0.909000
-0.000830 -0.025684 0.893000
0.032290 0.026968 0.884000
-0.019904 -0.013783 0.908000
0.025653 -0.005758 0.881000
-0.031837 -0.014312 0.918000
0.009863 0.019589 0.896000
-0.036529 -0.010200 0.922000
-0.033689 0.004574 0.917000
0.031673 0.010150 0.877000
0.016024 0.016528 0.890000
0.033608 0.038873 0.890000
-0.026112 -0.003725 0.916000
-0.013740 0.027703 0.896000
-0.011669 0.019083 0.907000
-0.027905 -0.021750 0.913000
-0.016358 0.024438 0.898000
-0.007537 0.024229 0.904000
0.027747 0.042169 0.890000
0.013551 0.030284 0.896000
-0.032863 -0.031212 0.915000
0.033079 0.009778 0.876000
-0.020389 0.010191 0.913000
-0.024292 -0.043347 0.933000
0.011654 -0.018680 0.892000
0.014113 -0.000321 0.885000
0.031745 -0.002489 0.879000
0.024928 0.004757 0.881000
0.013811 0.008825 0.889000
-0.028312 -0.020645 0.914000
-0.037222 0.010439 0.902000
-0.017269 0.017217 0.907000
-0.022171 0.012765 0.909000
-0.002670 0.035000 0.894000
-0.031013 -0.019936 0.916000
-0.015863 0.009804 0.912000
-0.020188 0.017904 0.904000
0.010129 -0.009813 0.887000
-0.027154 -0.018744 0.913000
-0.011605 -0.002183 0.902000
0.022102 0.019691 0.884000
0.019577 0.016071 0.885000
-0.039143 -0.005641 0.921000
-0.001197 -0.022376 0.893000
-0.024201 0.017845 0.901000
0.000641 -0.023479 0.893000
0.027529 0.020032 0.883000
-0.030292 -0.013919 0.917000
-0.018135 0.007185 0.913000
0.022778 0.017468 0.882000
-0.019072 -0.020047 0.904000
-0.035084 0.002302 0.914000
0.009409 -0.013845 0.888000
0.014858 0.003326 0.886000
-0.003795 0.006335 0.899000
0.020283 0.003682 0.884000
-0.033239 -0.027823 0.915000
0.009775 0.002602 0.888000
0.024760 0.030745 0.888000
-0.003825 0.019808 0.906000
-0.044865 -0.003341 0.914000
0.019386 0.036431 0.893000
-0.035391 -0.008303 0.922000
-0.029784 -0.026635 0.913000
0.012656 -0.002142 0.885000
0.035563 0.003645 0.875000
0.042089 0.034085 0.899000
0.002462 0.043122 0.887000
-0.008558 0.031320 0.894000
-0.032663 -0.008664 0.920000
0.006974 -0.035302 0.904000
0.020099 0.036023 0.892000
-0.007927 0.022045 0.906000
0.038848 0.010139 0.876000
0.010896 0.008835 0.890000
0.036210 0.021824 0.882000
-0.016042 -0.033701 0.901000
0.017200 0.033528 0.894000
-0.012690 -0.027737 0.900000
-0.030979 -0.024057 0.915000
-0.011965 -0.042442 0.930000
-0.021701 0.015689 0.905000
-0.005252 -0.032372 0.895000
-0.016522 -0.014141 0.907000
-0.000463 -0.031232 0.894000
-0.028312 -0.020269 0.914000
-0.003433 0.028599 0.901000
-0.025707 -0.005980 0.915000
0.029743 0.032061 0.884000
0.012375 0.011779 0.891000
-0.029376 -0.028858 0.912000
-0.031115 -0.003737 0.919000
0.025319 0.017831 0.882000
0.016719 0.007354 0.888000
0.009044 -0.014210 0.888000
0.013920 0.040979 0.896000
-0.020345 -0.008204 0.911000
0.023504 0.017105 0.882000
0.009526 0.031125 0.899000
0.000639 -0.010591 0.891000
0.013475 0.012146 0.891000
0.026408 -0.006128 0.882000
0.041440 0.029340 0.901000
-0.005270 -0.036176 0.898000
-0.012733 -0.002185 0.903000
0.024477 0.042583 0.891000
0.017431 0.020123 0.887000
0.027319 0.038785 0.888000
0.026711 0.014531 0.880000
-0.004189 0.025717 0.904000
0.009054 0.006264 0.889000
0.002852 0.012200 0.895000
0.019919 0.017144 0.884000
0.007947 0.044998 0.888000
0.015309 0.020214 0.891000
0.017391 -0.010520 0.885000
-0.040968 0.001170 0.911000
0.008303 -0.004702 0.887000
0.030987 0.010523 0.878000
0.001373 -0.010591 0.891000
0.019732 0.032352 0.892000
-0.031802 -0.016561 0.917000
-0.006022 -0.037368 0.900000
-0.017174 -0.022973 0.902000
-0.003035 -0.013187 0.893000
0.004694 -0.027583 0.895000
-0.005627 -0.032777 0.896000
-0.022570 0.011656 0.910000
0.027435 0.006563 0.880000
-0.024443 -0.012689 0.910000
0.022389 -0.002495 0.881000
0.000649 0.023485 0.904000
-0.001212 0.021253 0.904000
0.036254 0.036390 0.892000
-0.032109 -0.025187 0.915000
0.002875 0.022319 0.902000
0.020260 -0.000320 0.883000
0.015728 0.029480 0.894000
0.010589 0.019199 0.895000
0.015763 0.035447 0.896000
-0.004525 -0.034659 0.897000
-0.027630 0.021253 0.904000
-0.031802 -0.017693 0.917000
-0.001956 0.016044 0.904000
0.009409 -0.011286 0.888000
0.039615 0.011233 0.877000
-0.019659 0.005688 0.914000
-0.023293 -0.024273 0.909000
0.005068 -0.027245 0.896000
0.027653 0.035091 0.887000
-0.043306 0.004514 0.905000
0.006120 0.043902 0.888000
0.017431 0.006250 0.887000
0.006990 -0.036872 0.906000
-0.012690 -0.027367 0.900000
-0.022220 0.011294 0.911000
-0.029947 -0.007511 0.918000
0.002087 0.047289 0.883000
0.010994 0.031091 0.898000
-0.011502 0.029848 0.894000
-0.003406 -0.029024 0.894000
-0.001575 -0.035477 0.899000
-0.033836 -0.009052 0.921000
-0.017681 -0.008186 0.909000
0.030625 0.007271 0.878000
0.009156 0.029275 0.899000
0.027380 0.042169 0.890000
0.009786 -0.016421 0.889000
-0.008606 -0.005876 0.899000
0.013035 -0.007979 0.886000
-0.045994 -0.003717 0.914000
-0.028778 0.012337 0.905000
0.018547 0.024897 0.888000
-0.023615 -0.017874 0.907000
-0.027469 -0.029576 0.911000
-0.020036 0.005688 0.914000
0.000273 -0.020538 0.893000
0.006646 -0.039282 0.910000
0.026348 0.003303 0.880000
-0.004198 0.020554 0.906000
0.031709 0.013053 0.878000
0.005832 0.023011 0.900000
0.036532 0.020712 0.881000
-0.023777 0.020025 0.899000
0.030298 0.013429 0.879000
0.003980 0.018936 0.900000
-0.036601 0.007867 0.905000
0.000648 0.019742 0.903000
-0.017307 -0.008560 0.909000
0.010529 -0.017539 0.890000
-0.034252 0.011924 0.902000
0.018997 0.030149 0.892000
0.012444 0.028071 0.896000
-0.027154 -0.020247 0.913000
0.025491 0.035861 0.888000
0.023504 0.007304 0.882000
-0.011321 0.011643 0.909000
-0.028783 0.002687 0.917000
0.004297 -0.008738 0.889000
0.034242 0.042870 0.897000
-0.019262 0.009064 0.913000
0.037724 0.010127 0.875000
0.001749 0.009632 0.896000
-0.006379 0.029243 0.898000
0.010482 -0.006155 0.886000
-0.025594 -0.024327 0.911000
0.038444 0.006886 0.875000
-0.014141 0.025547 0.898000
0.037363 0.009047 0.875000
-0.029850 -0.019161 0.915000
-0.010198 0.013139 0.909000
0.037595 0.032609 0.889000
0.032654 0.030606 0.884000
0.022440 -0.008679 0.883000
0.006195 0.019655 0.899000
0.020670 0.011700 0.885000
-0.022586 -0.043402 0.926000
-0.021352 -0.031651 0.906000
-0.006364 -0.027614 0.896000
-0.008236 -0.018826 0.899000
-0.011856 0.030550 0.893000
-0.004510 -0.016514 0.894000
-0.032912 0.009367 0.906000
-0.003052 0.005219 0.898000
0.013384 0.000772 0.885000
-0.013446 -0.023318 0.901000
0.020076 0.031949 0.891000
-0.006763 -0.038109 0.900000
0.033402 0.004005 0.875000
-0.000830 -0.027889 0.893000
0.036010 0.030675 0.886000
-0.011333 0.012779 0.910000
-0.026631 -0.037327 0.908000
0.037564 0.038809 0.897000
0.007216 0.044633 0.888000
-0.020412 0.002678 0.914000
-0.019157 0.015367 0.908000
0.006851 -0.007266 0.888000
0.029114 0.038011 0.887000
-0.022644 0.008688 0.913000
-0.010850 -0.018497 0.901000
0.031198 0.030242 0.884000
0.005051 0.011070 0.893000
0.015934 -0.003235 0.885000
0.009753 -0.004332 0.886000
-0.042934 -0.006399 0.921000
0.029936 -0.003213 0.879000
0.016114 0.035039 0.895000
0.008776 0.026286 0.898000
0.015605 0.004060 0.887000
-0.001932 -0.029727 0.893000
0.009874 0.023303 0.897000
0.023840 -0.003945 0.881000
0.026104 -0.007961 0.884000
-0.034860 -0.023758 0.918000
0.015206 -0.006513 0.885000
0.026862 0.025541 0.885000
0.021886 0.032645 0.890000
-0.033239 -0.028953 0.915000
-0.039642 -0.001085 0.915000
0.006874 0.006278 0.891000
0.000643 0.035078 0.896000
0.023477 -0.001044 0.881000
0.021886 0.033012 0.890000
-0.010187 0.017610 0.908000
0.025915 0.041070 0.890000
-0.027499 -0.023978 0.912000
-0.032863 -0.030083 0.915000
-0.000095 0.012241 0.898000
0.020986 0.016761 0.883000
-0.007102 0.031022 0.896000
0.013138 0.017319 0.893000
-0.008587 -0.028752 0.897000
-0.005252 -0.012112 0.895000
-0.045043 -0.000330 0.910000
0.034161 0.010139 0.876000
-0.001565 -0.024214 0.893000
0.018140 0.003326 0.886000
-0.032144 -0.022575 0.916000
0.008747 0.040196 0.895000
-0.003042 -0.022426 0.895000
0.013384 -0.002506 0.885000
0.042270 0.029882 0.895000
0.037724 0.010487 0.875000
0.007241 0.042583 0.891000
-0.031105 -0.037083 0.930000
-0.016951 0.014652 0.910000
-0.017681 -0.006315 0.909000
0.006551 0.016658 0.897000
0.022152 0.023382 0.886000
-0.007102 -0.027245 0.896000
0.002836 0.041070 0.890000
0.007297 0.020372 0.898000
-0.010086 -0.037697 0.899000
-0.028751 -0.012396 0.916000
-0.001952 -0.037451 0.902000
-0.016559 -0.004071 0.909000
-0.028500 0.010509 0.908000
0.029541 0.005464 0.878000
-0.038007 0.010079 0.903000
0.028457 0.000405 0.878000
-0.005696 0.017590 0.907000
0.022077 0.004405 0.883000
-0.007396 0.038011 0.887000
-0.015436 -0.001077 0.909000
-0.037329 -0.025787 0.923000
-0.036094 0.006794 0.911000
-0.004515 -0.024268 0.895000
-0.022293 0.007945 0.914000
-0.000457 0.043704 0.884000
-0.007479 -0.010662 0.897000
0.015763 0.038397 0.896000
-0.022098 -0.040228 0.906000
0.014129 -0.011261 0.886000
-0.007173 0.009357 0.905000
-0.003821 0.016434 0.905000
-0.027273 -0.004861 0.917000
-0.006733 -0.012125 0.896000
-0.011579 -0.027367 0.900000
0.009515 0.035896 0.898000
-0.012747 -0.001072 0.904000
0.035360 0.035130 0.888000
0.008046 0.025575 0.899000
-0.022595 -0.010829 0.911000
0.006889 0.040474 0.893000
-0.018824 -0.005948 0.910000
0.036822 0.032937 0.888000
0.024760 0.033668 0.888000
-0.023720 -0.011953 0.911000
0.011615 0.046513 0.889000
-0.013075 -0.038893 0.901000
-0.020606 -0.040973 0.906000
0.012389 0.013628 0.892000
0.031782 -0.003216 0.880000
-0.004878 -0.029392 0.894000
-0.045668 -0.004097 0.915000
0.009775 0.047922 0.888000
0.024760 0.031110 0.888000
-0.015776 0.017217 0.907000
-0.007848 -0.010662 0.897000
0.012102 0.033678 0.898000
-0.004142 -0.012834 0.894000
-0.032250 -0.009789 0.919000
-0.019948 -0.010817 0.910000
-0.034973 -0.011706 0.921000
-0.030160 -0.036029 0.913000
0.033079 0.001125 0.876000
-0.031767 -0.023329 0.916000
0.024203 0.015998 0.881000
-0.021352 -0.016363 0.906000
0.036324 0.003288 0.876000
-0.013119 -0.015210 0.904000
-0.016185 -0.002574 0.909000
0.035923 0.009407 0.875000
-0.044258 -0.004861 0.917000
0.039209 0.009057 0.876000
-0.045268 0.001911 0.907000
-0.040307 0.000045 0.913000
-0.024550 -0.008983 0.914000
-0.007110 -0.035398 0.897000
-0.011695 0.009024 0.909000
-0.010479 -0.018497 0.901000
0.028159 0.012720 0.880000
0.031926 0.032789 0.884000
0.028018 0.038011 0.887000
-0.011656 0.020554 0.906000
-0.011221 0.024890 0.901000
-0.011656 -0.040973 0.906000
-0.007110 -0.023953 0.897000
-0.019114 -0.040601 0.906000
0.026252 0.040658 0.889000
-0.028188 0.008659 0.910000
0.009044 0.001871 0.888000
-0.031969 0.006419 0.911000
-0.003406 -0.025345 0.894000
0.000635 0.046668 0.885000
0.027165 -0.006861 0.883000
-0.018328 -0.030837 0.904000
0.023325 0.031145 0.889000
0.027684 0.039151 0.888000
-0.023511 0.016769 0.903000
0.010140 0.047557 0.888000
-0.006069 0.017590 0.907000
0.002503 0.022319 0.902000
-0.001584 0.018276 0.904000
-0.019992 -0.003709 0.912000
0.017008 -0.008325 0.884000
-0.009346 -0.037327 0.899000
-0.005317 0.020554 0.906000
-0.012676 0.025205 0.899000
-0.015385 -0.013752 0.906000
0.030298 -0.002489 0.879000
0.019941 0.014249 0.885000
0.015988 0.006623 0.888000
0.017736 -0.002503 0.884000
0.020670 0.010607 0.885000
0.007992 0.012908 0.893000
-0.023303 0.023988 0.895000
-0.006371 -0.008816 0.897000
-0.010572 0.010520 0.909000
0.015728 0.030584 0.894000
0.004321 0.011083 0.894000
0.007582 -0.003246 0.888000
-0.009066 0.015367 0.908000
0.021034 -0.010520 0.885000
-0.008956 -0.029491 0.897000
-0.009066 0.019104 0.908000
-0.010120 -0.040421 0.902000
0.037130 0.016666 0.878000
-0.003035 -0.012085 0.893000
-0.008236 -0.037697 0.899000
-0.024147 0.019655 0.899000
-0.016616 0.030149 0.892000
0.003221 -0.030162 0.895000
0.029676 0.020372 0.882000
-0.017193 -0.020397 0.903000
-0.019530 0.014993 0.908000
0.029877 0.039882 0.888000
0.002132 0.023433 0.902000
0.005516 -0.039239 0.909000
0.007658 0.017396 0.897000
-0.015863 0.007928 0.912000
-0.016042 -0.027768 0.901000
-0.011566 -0.036587 0.899000
0.010859 -0.010543 0.887000
0.003210 -0.021250 0.892000
-0.021773 -0.013783 0.908000
-0.023989 -0.039899 0.907000
0.012292 -0.003963 0.885000
0.035645 0.028123 0.886000
0.017756 0.000772 0.885000
0.036010 0.028123 0.886000
-0.004170 0.008564 0.900000
-0.004184 0.026804 0.903000
0.021153 0.029349 0.890000
0.038103 0.040466 0.901000
0.037003 0.009047 0.875000
-0.007866 -0.019936 0.899000
0.026862 0.028091 0.885000
0.015640 0.010289 0.889000
0.012305 -0.007249 0.886000
0.017776 0.002961 0.886000
-0.008615 0.027085 0.900000
0.009146 0.025547 0.898000
-0.015046 -0.004440 0.908000
0.011720 0.029210 0.897000
0.037577 0.018515 0.880000
-0.008976 -0.008466 0.899000
0.029743 0.031334 0.884000
-0.014282 -0.003315 0.907000
-0.015453 0.000419 0.910000
-0.028688 -0.022150 0.914000
0.027435 0.010185 0.880000
0.004336 0.015919 0.897000
-0.010108 -0.002551 0.901000
-0.012320 -0.028108 0.900000
0.008117 -0.036912 0.907000
-0.010479 -0.013306 0.901000
-0.010108 -0.013676 0.901000
-0.008596 -0.011044 0.898000
0.008766 0.038440 0.897000
0.007992 -0.002529 0.893000
-0.025275 0.007561 0.913000
0.008046 -0.022156 0.899000
-0.010479 -0.002181 0.901000
0.029479 0.038011 0.887000
0.002123 0.034048 0.898000
-0.024389 -0.017894 0.908000
-0.019816 -0.021163 0.904000
-0.005690 0.020927 0.906000
-0.009356 -0.020329 0.900000
-0.033042 -0.008285 0.920000
0.013749 -0.004327 0.885000
0.025520 0.038463 0.889000
-0.028312 -0.018764 0.914000
-0.009046 0.007130 0.906000
0.036727 0.014482 0.877000
-0.012747 -0.015582 0.904000
-0.000852 -0.042603 0.917000
-0.006428 0.023139 0.905000
-0.004889 -0.018026 0.896000
0.001730 0.043074 0.886000
-0.030168 0.014152 0.902000
-0.000462 -0.018701 0.893000
0.008046 0.025945 0.899000
-0.034973 -0.008673 0.921000
-0.032486 -0.025563 0.915000
-0.022471 0.014588 0.906000
0.010129 -0.000321 0.887000
0.018161 -0.012734 0.887000
0.005413 0.040796 0.892000
0.026134 0.024813 0.885000
-0.030636 0.003061 0.916000
0.006920 0.036963 0.897000
-0.003795 0.008925 0.899000
-0.006029 0.007090 0.901000
-0.013133 -0.000328 0.905000
-0.024981 0.001930 0.916000
-0.007927 0.022418 0.906000
0.022440 -0.007952 0.883000
0.005812 0.016658 0.897000
0.017027 -0.010520 0.885000
-0.029192 -0.004111 0.918000
-0.008986 -0.016995 0.900000
-0.001575 0.011885 0.899000
-0.020099 0.020788 0.900000
0.005425 -0.004739 0.894000
-0.010398 0.030952 0.894000
-0.008300 0.008994 0.906000
0.006189 0.017416 0.898000
-0.013817 -0.026285 0.901000
0.039209 0.007975 0.876000
0.011941 -0.009073 0.886000
0.011313 0.041623 0.894000
-0.002682 0.006328 0.898000
-0.013565 0.017255 0.909000
0.019577 0.005872 0.885000
0.004731 0.028631 0.902000
-0.001584 0.024601 0.904000
-0.027905 -0.023629 0.913000
-0.001945 0.031495 0.899000
-0.011196 -0.028076 0.899000
0.004297 -0.012762 0.889000
-0.032109 0.002681 0.915000
0.034148 0.027362 0.885000
0.009074 -0.019392 0.891000
-0.008986 -0.016625 0.900000
0.011995 0.046565 0.890000
0.007599 0.005539 0.890000
0.002503 0.027888 0.902000
-0.002328 0.016044 0.904000
0.030974 0.039516 0.888000
-0.034178 -0.011693 0.920000
-0.013863 -0.018559 0.904000
-0.018762 -0.014514 0.907000
-0.015095 0.009794 0.911000
-0.014078 0.028377 0.894000
-0.018659 -0.025200 0.902000
-0.000462 -0.025684 0.893000
0.010945 0.015498 0.894000
0.006544 0.037660 0.896000
-0.019616 0.010931 0.912000
-0.012690 -0.028849 0.900000
0.038981 0.015962 0.879000
-0.023329 0.022540 0.896000
0.020646 0.012414 0.884000
-0.022122 -0.041392 0.907000
-0.004895 0.031425 0.897000
-0.030887 -0.038052 0.935000
-0.023242 -0.016381 0.907000
0.019234 0.008431 0.886000
-0.007149 0.025661 0.902000
0.013749 -0.000685 0.885000
-0.045192 -0.002210 0.913000
-0.015758 -0.015617 0.906000
0.037553 0.032206 0.888000
0.036643 0.010127 0.875000
0.012670 -0.010167 0.886000
0.005437 0.037660 0.896000
-0.037382 0.000045 0.915000
-0.002282 0.040886 0.886000
-0.010862 -0.000698 0.902000
-0.005258 -0.021714 0.896000
-0.004873 0.034593 0.893000
0.010859 0.000774 0.887000
0.002523 -0.040361 0.909000
-0.030607 0.011951 0.904000
-0.000839 0.017513 0.903000
0.019941 0.019713 0.885000
0.003224 0.037291 0.896000
-0.022495 -0.016381 0.907000
-0.004520 -0.019870 0.896000
-0.005652 0.006712 0.900000
0.019191 0.000044 0.884000
-0.016060 0.021577 0.902000
-0.000834 0.007067 0.898000
-0.029096 0.004564 0.915000
-0.001197 -0.016863 0.893000
0.023813 -0.001043 0.880000
-0.015515 0.031250 0.892000
0.021689 0.015290 0.882000
-0.028751 -0.038787 0.916000
-0.029376 -0.037116 0.912000
0.008756 0.016639 0.896000
0.020963 -0.001772 0.882000
0.036781 0.029980 0.887000
0.021763 0.021899 0.885000
-0.020561 -0.037906 0.904000
0.007573 -0.009083 0.887000
0.009441 -0.018659 0.891000
-0.011246 0.000788 0.903000
-0.023447 0.005694 0.915000
-0.023615 -0.033553 0.907000
-0.007883 0.004865 0.901000
-0.024042 -0.026144 0.909000
0.011325 0.021041 0.895000
-0.028594 0.007544 0.911000
-0.019970 -0.006329 0.911000
0.022984 0.033378 0.890000
0.007624 -0.020906 0.893000
-0.003444 0.026090 0.904000
-0.028126 0.010135 0.908000
-0.012831 0.010158 0.910000
-0.031953 0.015973 0.900000
0.017372 -0.005050 0.884000
0.012656 0.000044 0.885000
-0.022520 -0.027610 0.908000
-0.026778 -0.020247 0.913000
-0.003066 0.027888 0.902000
0.016427 0.026110 0.892000
0.016114 0.034671 0.895000
0.022855 0.021534 0.885000
-0.015882 0.030516 0.892000
0.005767 -0.017173 0.890000
-0.036150 -0.007924 0.922000
0.025624 0.013807 0.880000
-0.011883 0.028777 0.895000
-0.037709 -0.009452 0.923000
-0.003406 -0.017250 0.894000
-0.018055 0.014636 0.909000
-0.001565 -0.023111 0.893000
-0.019816 -0.037906 0.904000
0.006565 0.020765 0.899000
0.007727 -0.035714 0.905000
0.010243 0.026257 0.897000
-0.029183 0.011232 0.906000
0.035241 0.029912 0.885000
0.017027 -0.010884 0.885000
-0.008896 0.033415 0.891000
-0.037718 0.007867 0.905000
-0.011817 0.035209 0.890000
0.003909 0.045887 0.884000
-0.005996 -0.027614 0.896000
-0.024817 0.010907 0.910000
0.004302 -0.013143 0.890000
0.028223 -0.006128 0.882000
0.009764 -0.010543 0.887000
-0.025510 0.011630 0.908000
0.003210 -0.019781 0.892000
-0.019444 -0.033814 0.904000
-0.033348 0.006846 0.918000
-0.005264 -0.034659 0.897000
0.012670 0.002961 0.886000
0.001018 0.018236 0.902000
-0.013817 -0.028139 0.901000
-0.029096 -0.016902 0.915000
-0.038879 0.006011 0.906000
-0.043031 -0.002968 0.915000
-0.015487 0.010555 0.912000
0.014113 -0.003235 0.885000
-0.023421 -0.004469 0.914000
0.014875 0.004425 0.887000
-0.018490 0.003048 0.912000
0.039615 0.013038 0.877000
-0.020956 -0.025284 0.905000
0.016719 0.020511 0.888000
-0.006308 0.040247 0.888000
-0.004535 0.030015 0.899000
-0.015095 0.005294 0.911000
-0.013282 0.032645 0.890000
0.032793 0.016666 0.878000
-0.034178 -0.010936 0.920000
-0.016914 -0.008924 0.908000
-0.018105 0.028345 0.893000
0.034600 0.016666 0.878000
0.005825 0.019285 0.899000
-0.011605 0.023433 0.902000
0.001020 0.027547 0.903000
-0.030193 0.004559 0.914000
0.040249 0.004041 0.883000
-0.010572 0.014636 0.909000
-0.011566 -0.031037 0.899000
0.016280 -0.006869 0.884000
0.015970 0.004425 0.887000
-0.022317 0.003435 0.915000
0.012035 0.016584 0.893000
-0.017428 0.025121 0.896000
-0.025542 0.021433 0.896000
-0.019051 -0.021140 0.903000
-0.023641 -0.021257 0.908000
0.022027 -0.004308 0.881000
-0.007118 -0.019914 0.898000
-0.029505 0.002684 0.916000
0.022077 0.008766 0.883000
-0.008596 -0.011783 0.898000
0.013920 0.031390 0.896000
0.002492 0.009284 0.898000
0.015763 0.036553 0.896000
-0.026373 -0.022852 0.912000
-0.031322 -0.027040 0.914000
0.042459 0.033715 0.899000
-0.033042 -0.007906 0.920000
-0.029665 0.017416 0.898000
-0.014172 -0.035146 0.900000
0.022517 0.023747 0.886000
-0.017467 0.024068 0.898000
-0.016167 -0.006308 0.908000
-0.043550 -0.005622 0.918000
-0.028188 -0.037034 0.910000
0.013197 0.032902 0.897000
-0.039101 -0.004877 0.920000
0.016832 0.034632 0.894000
-0.019970 -0.008579 0.911000
0.012770 0.015481 0.893000
-0.006364 -0.027245 0.896000
0.018870 0.016089 0.886000
0.029015 0.027332 0.884000
0.014657 0.034341 0.896000
-0.008596 0.028504 0.898000
-0.001963 -0.040645 0.907000
-0.019816 -0.038279 0.904000
-0.027878 0.017084 0.900000
-0.034178 -0.003741 0.920000
-0.005564 0.040156 0.886000
-0.016951 -0.001079 0.910000
-0.011963 -0.023318 0.901000
-0.009716 -0.011796 0.899000
0.010624 0.036265 0.898000
-0.004105 0.040886 0.886000
-0.031356 -0.024810 0.915000
-0.025330 -0.006734 0.915000
-0.029915 -0.013164 0.917000
-0.011579 0.025604 0.900000
-0.027065 -0.032915 0.910000
-0.017545 -0.036338 0.902000
-0.027477 0.017435 0.899000
-0.015029 0.018337 0.907000
0.006573 0.028567 0.900000
0.019213 0.002958 0.885000
-0.024790 -0.028389 0.909000
-0.014672 0.017610 0.908000
0.007314 0.029678 0.900000
-0.024200 -0.001838 0.915000
0.006943 0.027456 0.900000
-0.001584 0.017532 0.904000
-0.018206 0.023329 0.898000
0.011363 0.037004 0.898000
0.014477 -0.009427 0.885000
0.016851 0.040933 0.895000
0.024002 0.027059 0.887000
0.037724 0.009047 0.875000
0.031782 0.019964 0.880000
-0.027590 -0.014265 0.915000
0.022907 0.025234 0.887000
-0.006002 -0.019154 0.897000
-0.009367 -0.002551 0.901000
-0.019444 -0.028233 0.904000
-0.047071 -0.003713 0.913000
0.022804 0.005132 0.883000
-0.016613 0.009429 0.912000
-0.013565 0.016132 0.909000
0.024732 0.027789 0.887000
0.006202 0.027456 0.900000
-0.014591 0.021229 0.903000
0.030686 -0.005889 0.901000
-0.021328 -0.024167 0.905000
0.014193 -0.016440 0.890000
0.026862 0.025177 0.885000
0.004694 0.013674 0.895000
0.020283 0.018236 0.884000
-0.037005 0.002681 0.915000
-0.026315 -0.030293 0.910000
0.018140 0.005514 0.886000
-0.010198 0.012391 0.909000
0.038214 0.015221 0.878000
-0.003825 0.020181 0.906000
-0.016220 0.002670 0.911000
0.002859 -0.032444 0.897000
-0.022073 0.016061 0.905000
-0.034215 -0.008673 0.921000
-0.025594 -0.020577 0.911000
-0.020014 -0.000331 0.913000
0.029379 0.027695 0.884000
-0.002667 -0.012820 0.893000
-0.007134 0.003749 0.900000
0.024340 0.023747 0.886000
-0.001586 0.023884 0.905000
0.029379 0.029878 0.884000
0.016317 0.002596 0.886000
-0.002685 0.010035 0.899000
0.036643 0.006165 0.875000
0.001371 0.040338 0.890000
0.001025 -0.040316 0.908000
0.031410 0.041437 0.890000
0.009526 0.029275 0.899000
0.034161 0.012302 0.876000
0.002135 0.024574 0.903000
-0.023751 0.020372 0.898000
0.012656 -0.002870 0.885000
0.023797 0.043047 0.893000
-0.034594 0.007169 0.911000
-0.018597 0.022245 0.899000
0.004321 -0.026449 0.894000
-0.002706 -0.040228 0.906000
-0.023303 0.023251 0.895000
0.017490 0.026052 0.890000
0.004311 -0.021617 0.892000
-0.010491 -0.000327 0.902000
0.014608 0.045619 0.893000
-0.020014 0.001924 0.913000
0.008425 0.031530 0.900000
0.040337 0.007984 0.877000
0.028457 0.001489 0.878000
-0.020367 -0.004084 0.912000
0.029179 0.041756 0.889000
-0.012747 -0.014838 0.904000
-0.016149 -0.010408 0.907000
-0.007094 0.031724 0.895000
0.029868 0.000404 0.877000
-0.012733 -0.008875 0.903000
-0.044816 -0.002585 0.913000
0.011941 0.002232 0.886000
0.009473 0.040887 0.894000
-0.044148 0.002658 0.907000
-0.002308 0.035447 0.896000
-0.033384 -0.013193 0.919000
-0.024970 0.016751 0.902000
0.011211 -0.001050 0.886000
0.031705 0.038420 0.888000
-0.008976 -0.008836 0.899000
-0.010064 -0.031706 0.897000
0.010482 -0.007979 0.886000
-0.004500 0.035289 0.892000
-0.004906 0.005965 0.899000
-0.015828 0.000794 0.910000
-0.010108 -0.039264 0.901000
0.008766 0.037702 0.897000
0.001737 -0.012777 0.890000
-0.027875 0.007552 0.912000
0.018484 0.001865 0.885000
-0.033472 0.015249 0.901000
0.027257 0.032134 0.886000
-0.001932 -0.011717 0.893000
-0.006009 -0.036176 0.898000
-0.008625 0.003382 0.901000
0.026923 0.033631 0.887000
0.027196 0.022602 0.884000
-0.000094 -0.028624 0.893000
-0.010468 -0.022551 0.900000
-0.035732 -0.011706 0.921000
-0.041343 0.001170 0.911000
0.001763 0.028291 0.903000
-0.005564 0.039792 0.886000
-0.033621 0.009729 0.905000
0.019964 0.023747 0.886000
0.023477 -0.005033 0.881000
0.025262 -0.003578 0.880000
0.018120 0.000772 0.885000
0.019919 0.018599 0.884000
-0.024227 -0.001086 0.916000
-0.008309 0.011991 0.907000
-0.015470 0.007919 0.911000
-0.006733 -0.032408 0.896000
0.024788 0.035902 0.889000
0.039147 0.029382 0.891000
-0.032250 -0.001089 0.919000
-0.044209 -0.004102 0.916000
-0.005620 -0.027583 0.895000
0.014240 0.022464 0.893000
-0.022268 -0.007470 0.913000
-0.030569 -0.027040 0.914000
0.009033 -0.008353 0.887000
-0.012334 -0.022206 0.901000
0.007232 -0.016806 0.890000
-0.028218 0.017435 0.899000
-0.028937 0.008285 0.910000
0.011927 -0.003599 0.885000
0.002104 -0.012044 0.890000
0.020857 0.040106 0.893000
0.021519 0.031546 0.890000
-0.020956 -0.020442 0.905000
0.012444 0.029546 0.896000
0.018099 -0.007961 0.884000
-0.025109 -0.036166 0.907000
0.040744 0.011607 0.878000
-0.012361 -0.017052 0.903000
-0.034777 0.008248 0.906000
0.041854 0.029848 0.894000
-0.019030 -0.025943 0.902000
-0.001565 -0.028257 0.893000
0.024816 0.041803 0.890000
-0.009813 0.018731 0.908000
0.015658 0.013964 0.890000
0.027404 0.011982 0.879000
0.016719 -0.014210 0.888000
0.012292 -0.001413 0.885000
0.011927 -0.004327 0.885000
-0.022244 -0.008213 0.912000
-0.015062 0.015758 0.909000
0.000273 -0.027889 0.893000
0.030916 0.004009 0.876000
0.001385 -0.033997 0.899000
-0.021701 -0.037948 0.905000
0.014976 0.044149 0.893000
0.033079 0.001485 0.876000
0.010220 0.040933 0.895000
-0.004911 0.007823 0.900000
-0.010164 0.020927 0.906000
0.018609 0.027548 0.891000
0.008341 0.009579 0.891000
0.038488 0.011220 0.876000
-0.006726 -0.030898 0.895000
-0.033384 -0.002224 0.919000
0.000639 -0.012058 0.891000
-0.004884 -0.012849 0.895000
0.020328 0.022288 0.886000
0.005051 -0.022376 0.893000
0.007658 0.017765 0.897000
0.020986 0.013127 0.883000
0.001388 0.016361 0.901000
0.026193 0.032535 0.887000
0.003271 -0.039987 0.909000
0.027042 -0.001042 0.879000
0.033440 0.001846 0.876000
0.025828 0.032535 0.887000
-0.027620 0.003061 0.916000
0.003260 -0.037990 0.906000
-0.003448 0.022766 0.905000
-0.002682 0.007436 0.898000
-0.033472 0.013024 0.901000
-0.031115 -0.006007 0.919000
0.000273 -0.024949 0.893000
0.019688 0.027883 0.890000
-0.023824 0.005694 0.915000
-0.024362 0.013110 0.907000
-0.020166 -0.025971 0.903000
-0.019051 -0.034520 0.903000
-0.004198 0.018316 0.906000
-0.005620 -0.030162 0.895000
-0.035327 0.011911 0.901000
0.009775 -0.013479 0.888000
-0.024926 -0.008607 0.914000
-0.025998 -0.021351 0.912000
-0.004147 -0.011007 0.895000
0.022415 -0.006491 0.882000
0.006492 -0.012397 0.889000
-0.021869 -0.008213 0.912000
-0.025594 -0.020202 0.911000
-0.024998 0.016026 0.903000
-0.038052 0.001548 0.913000
0.003569 -0.013509 0.890000
0.003984 0.031936 0.901000
0.033554 0.018856 0.879000
0.015292 0.012498 0.890000
0.009852 0.017726 0.895000
0.012656 -0.005420 0.885000
-0.024227 0.003438 0.916000
-0.016802 -0.021488 0.902000
0.019256 0.012821 0.887000
0.017588 0.040933 0.895000
-0.020211 -0.017462 0.905000
0.015934 -0.010520 0.885000
-0.011233 0.023804 0.902000
0.002945 -0.042548 0.924000
0.003242 0.022665 0.901000
0.017104 -0.014958 0.889000
0.038824 0.029047 0.892000
-0.009738 -0.015160 0.901000
-0.025969 -0.023577 0.911000
0.039602 0.032755 0.893000
0.018304 0.038679 0.894000
-0.000464 0.011120 0.897000
-0.007848 -0.026906 0.897000
-0.033275 -0.030869 0.916000
0.027684 0.038420 0.888000
0.018630 0.028680 0.892000
-0.014639 -0.010396 0.906000
-0.007521 0.007098 0.902000
0.021350 0.000407 0.883000
0.001755 0.032975 0.899000
0.023325 0.031511 0.889000
-0.026140 -0.002597 0.917000
0.002836 -0.013143 0.890000
0.012102 0.035896 0.898000
0.021010 0.020419 0.884000
-0.016413 -0.024801 0.901000
-0.013177 0.017610 0.908000
0.001008 -0.026786 0.893000
-0.018227 0.022615 0.899000
-0.024604 -0.002217 0.916000
-0.005627 -0.010650 0.896000
0.013094 0.009934 0.890000
0.002501 0.017845 0.901000
-0.012733 -0.008504 0.903000
-0.026083 0.005318 0.915000
0.017027 0.000408 0.885000
-0.001196 -0.016477 0.892000
-0.028563 -0.036660 0.910000
0.016132 0.039503 0.896000
-0.002279 0.043754 0.885000
-0.001565 -0.026786 0.893000
-0.044538 -0.004097 0.915000
0.025595 -0.002127 0.879000
-0.003422 0.006328 0.898000
-0.011321 0.015010 0.909000
-0.017916 -0.036338 0.902000
0.011968 -0.014210 0.888000
0.022907 0.024869 0.887000
0.034122 0.006165 0.875000
-0.015436 0.016132 0.909000
-0.000096 0.025345 0.904000
-0.003444 0.014555 0.904000
0.003944 -0.020515 0.892000
0.015570 -0.009063 0.885000
-0.034594 -0.009431 0.921000
0.022804 -0.008315 0.883000
0.021200 0.037859 0.892000
-0.003410 -0.022794 0.895000
0.028018 0.036551 0.887000
0.017450 -0.013845 0.888000
0.027591 0.027727 0.885000
0.011668 0.015113 0.893000
-0.013894 0.019435 0.906000
0.041858 0.036427 0.902000
-0.025884 -0.036579 0.908000
-0.022220 -0.011204 0.911000
-0.028405 0.001178 0.917000
-0.008606 -0.022526 0.899000
-0.015538 -0.041380 0.915000
0.021200 0.036757 0.892000
0.039209 0.007254 0.876000
-0.013940 0.002664 0.909000
0.031637 0.001846 0.876000
0.030712 0.042950 0.891000
0.023115 0.010559 0.881000
0.017431 0.008440 0.887000
0.002859 0.014812 0.897000
0.027350 0.039927 0.889000
0.039259 0.040139 0.902000
0.005136 -0.038822 0.908000
-0.006741 -0.022107 0.897000
-0.030703 -0.000710 0.918000
-0.000834 -0.034328 0.898000
-0.041718 0.001170 0.911000
0.014909 -0.015324 0.889000
0.030765 0.024366 0.882000
0.003613 0.020070 0.901000
0.017219 0.041301 0.895000
-0.031288 -0.032271 0.913000
0.023717 0.038140 0.890000
-0.018840 0.027977 0.893000
-0.007571 0.016488 0.908000
0.024816 0.041437 0.890000
-0.044914 -0.003721 0.915000
-0.008986 -0.038480 0.900000
0.017549 0.032388 0.893000
0.029246 0.014893 0.880000
0.024788 0.035536 0.889000
0.015009 0.042406 0.895000
-0.003795 0.007815 0.899000
-0.020412 0.003807 0.914000
-0.003422 0.031460 0.898000
-0.014930 -0.032218 0.901000
-0.015385 -0.014125 0.906000
0.035444 0.020712 0.881000
0.000271 0.041662 0.887000
-0.002682 0.006697 0.898000
-0.028814 -0.002222 0.918000
-0.032863 -0.027823 0.915000
-0.012803 0.003035 0.908000
0.030229 0.002570 0.877000
-0.009662 0.031320 0.894000
-0.003433 0.011170 0.901000
-0.002328 0.025345 0.904000
-0.038591 0.005277 0.908000
0.029936 -0.002127 0.879000
0.017372 -0.004686 0.884000
-0.003821 0.017551 0.905000
0.018891 0.012456 0.887000
0.002836 -0.008015 0.890000
-0.041207 0.003782 0.908000
-0.015046 -0.005187 0.908000
0.019941 0.004415 0.885000
-0.009738 -0.018126 0.901000
0.008688 0.002239 0.889000
0.029475 -0.006608 0.898000
-0.020697 -0.011191 0.910000
-0.022195 0.012030 0.910000
0.021326 -0.001772 0.882000
0.006573 0.025233 0.900000
0.017588 0.041301 0.895000
0.005419 0.008865 0.893000
-0.020036 0.005312 0.914000
-0.018866 -0.000706 0.912000
0.033839 0.012677 0.877000
0.001736 0.041024 0.889000
0.035243 0.013744 0.876000
0.004710 0.016307 0.898000
0.020857 0.039371 0.893000
-0.016672 0.026935 0.895000
-0.032898 -0.026345 0.916000
-0.001204 0.009654 0.898000
-0.008501 0.036227 0.888000
0.027227 0.028455 0.885000
-0.027447 0.018524 0.898000
-0.027650 -0.006748 0.917000
0.029541 0.007993 0.878000
-0.022644 -0.004840 0.913000
-0.020771 0.022565 0.897000
0.025986 0.002217 0.880000
0.020810 0.031215 0.891000
-0.009705 -0.029524 0.898000
-0.031081 -0.010156 0.918000
0.035524 0.023666 0.883000
0.034922 0.015204 0.877000
0.032912 0.040016 0.891000
-0.003008 0.041932 0.885000
-0.031459 -0.000332 0.918000
-0.028563 -0.034787 0.910000
-0.034594 -0.005641 0.921000
0.002903 -0.041575 0.911000
0.034994 0.035496 0.888000
0.025828 0.030345 0.887000
-0.035615 -0.001088 0.918000
-0.007110 -0.009555 0.897000
0.023298 0.027821 0.888000
-0.015095 0.007919 0.911000
-0.003808 -0.037823 0.902000
0.010117 -0.006885 0.886000
0.003585 -0.026816 0.894000
-0.017739 0.003799 0.912000
0.006492 -0.012031 0.889000
0.028223 0.019646 0.882000
0.016078 0.026140 0.893000
-0.017119 -0.042318 0.919000
0.016299 -0.010520 0.885000
0.005085 0.017805 0.899000
0.001739 -0.015358 0.891000
0.001390 0.029744 0.902000
0.015658 0.021656 0.890000
0.010482 -0.003238 0.886000
-0.014930 -0.027768 0.901000
-0.036150 -0.008682 0.922000
-0.036197 -0.030290 0.933000
0.040887 0.034379 0.897000
0.026134 0.025541 0.885000
0.018651 0.033490 0.893000
-0.006816 0.017963 0.907000
-0.014345 0.010169 0.911000
-0.017797 0.025121 0.896000
-0.013104 -0.004787 0.903000
0.008717 0.012159 0.892000
-0.021749 -0.041392 0.907000
-0.005989 -0.014690 0.895000
-0.003042 -0.020216 0.895000
0.026348 -0.004665 0.880000
0.010506 -0.015306 0.888000
-0.009367 -0.003293 0.901000
-0.006733 -0.015813 0.896000
0.000648 0.021972 0.903000
-0.021893 0.009815 0.913000
0.008099 -0.035714 0.905000
0.012770 0.017686 0.893000
-0.031698 -0.027416 0.914000
0.015026 0.039503 0.896000
0.028982 0.022939 0.883000
0.029278 0.045201 0.892000
-0.001954 0.014168 0.903000
-0.017307 0.015010 0.909000
0.007667 0.035896 0.898000
0.025595 -0.001765 0.879000
0.025126 0.034034 0.888000
0.003203 -0.008015 0.890000
-0.014607 -0.019303 0.904000
0.030107 0.026968 0.884000
-0.005683 0.011964 0.905000
-0.025651 0.007561 0.913000
0.040744 0.010884 0.878000
-0.007110 0.029949 0.897000
0.004652 0.043853 0.887000
0.015588 0.002596 0.886000
-0.024068 -0.012315 0.910000
0.040417 0.039069 0.903000
-0.007189 0.013484 0.907000
-0.011656 0.020181 0.906000
0.020283 0.003318 0.884000
0.000639 -0.015725 0.891000
-0.008986 -0.004030 0.900000
0.014559 0.009568 0.890000
-0.033312 0.000423 0.917000
0.024537 -0.004303 0.880000
0.022984 0.035576 0.890000
0.009452 0.042631 0.892000
0.023167 0.018215 0.883000
0.010506 -0.012017 0.888000
-0.048789 -0.002202 0.910000
-0.026026 -0.013859 0.913000
0.001400 -0.040735 0.909000
0.003217 -0.028656 0.894000
-0.007102 -0.013969 0.896000
-0.028651 0.015990 0.901000
-0.036450 -0.004120 0.920000
0.007013 -0.038864 0.909000
-0.023345 0.010169 0.911000
0.020623 -0.001410 0.883000
-0.028028 0.002310 0.917000
0.016851 0.043511 0.895000
0.028489 0.010535 0.879000
-0.005252 -0.029793 0.895000
0.008322 0.003337 0.889000
-0.010456 0.027055 0.899000
-0.004911 -0.036998 0.900000
0.015952 -0.011625 0.886000
-0.021701 -0.019324 0.905000
0.024257 0.018942 0.883000
0.032831 -0.002127 0.879000
0.013035 0.002596 0.886000
0.001749 -0.031671 0.896000
0.040473 0.033972 0.896000
0.025549 0.041803 0.890000
-0.007529 0.025317 0.903000
-0.005996 -0.026139 0.896000
0.020237 -0.006128 0.882000
0.006835 0.046356 0.886000
-0.021118 -0.008213 0.912000
-0.000095 0.011858 0.897000
0.031962 0.035012 0.885000
-0.007857 -0.023610 0.898000
-0.025651 -0.013107 0.913000
-0.015079 0.002667 0.910000
-0.010922 0.019457 0.907000
0.039880 0.030848 0.891000
0.036283 0.010487 0.875000
-0.035499 0.001175 0.915000
0.013749 -0.003599 0.885000
0.036685 0.011941 0.876000
0.034882 0.002207 0.876000
-0.014510 0.025547 0.898000
0.031926 0.030970 0.884000
0.023531 0.018942 0.883000
-0.031356 -0.022551 0.915000
0.025653 0.006208 0.881000
0.025886 0.038829 0.889000
-0.029473 -0.019538 0.915000
0.003613 0.031195 0.901000
0.028619 0.021849 0.883000
0.024312 0.022627 0.885000
0.022077 -0.007588 0.883000
-0.004884 -0.031267 0.895000
0.002109 -0.016844 0.892000
-0.007883 0.001899 0.901000
-0.042468 0.000795 0.911000
0.037237 0.039592 0.898000
0.018526 0.009901 0.887000
-0.032495 -0.019392 0.926000
-0.043645 -0.006013 0.920000
0.024450 0.040704 0.890000
-0.013521 -0.000701 0.906000
-0.014720 0.006419 0.911000
-0.000834 0.010763 0.898000
-0.000095 -0.031635 0.895000
-0.020765 -0.002585 0.913000
-0.036450 -0.027596 0.920000
-0.023798 -0.007102 0.914000
-0.023671 0.022883 0.895000
0.007616 0.011792 0.892000
-0.014446 0.028745 0.894000
-0.025201 0.022934 0.897000
0.008659 0.048179 0.886000
-0.008254 0.003382 0.901000
0.009462 -0.020538 0.893000
-0.011989 -0.000327 0.903000
0.031057 0.017066 0.880000
-0.030325 -0.000332 0.918000
0.012089 0.031425 0.897000
0.029868 0.004014 0.877000
-0.035770 -0.009821 0.922000
-0.031356 0.003435 0.915000
0.014510 -0.014194 0.887000
0.024230 0.005852 0.882000
0.001741 -0.017578 0.892000
-0.004535 0.004855 0.899000
-0.002284 0.040567 0.887000
-0.032863 -0.031966 0.915000
-0.031899 0.007902 0.909000
0.024083 0.036308 0.890000
0.015026 0.040979 0.896000
0.011576 0.001138 0.886000
0.003953 0.009979 0.894000
-0.038378 0.010451 0.903000
0.008416 0.035196 0.899000
0.011363 0.036635 0.898000
0.016024 0.019458 0.890000
0.004394 -0.039987 0.909000
-0.002703 0.023139 0.905000
-0.039493 0.008593 0.903000
0.004673 -0.017925 0.891000
-0.009651 0.031653 0.893000
0.007314 -0.022922 0.900000
-0.017976 -0.017834 0.905000
-0.018824 0.013154 0.910000
0.024083 0.035942 0.890000
0.004282 0.044532 0.886000
-0.034214 0.013024 0.901000
0.031998 0.035781 0.886000
0.008737 0.040519 0.894000
-0.016042 -0.034443 0.901000
-0.003410 -0.020953 0.895000
-0.026690 -0.039656 0.910000
-0.007892 0.000045 0.902000
0.011351 0.026995 0.897000
0.012827 0.035117 0.897000
0.003246 0.024176 0.902000
-0.011949 -0.028478 0.900000
-0.023989 -0.033926 0.907000
-0.004900 0.030352 0.898000
0.024230 0.005126 0.882000
0.005851 -0.035263 0.903000
0.010565 0.013276 0.893000
-0.014188 -0.025172 0.901000
-0.023070 0.000045 0.915000
0.020833 0.038226 0.892000
0.019040 0.039047 0.894000
-0.027198 0.015266 0.902000
-0.000462 -0.009868 0.892000
-0.014314 0.001541 0.909000
0.002487 0.036553 0.896000
0.037511 0.029615 0.887000
0.027747 0.043268 0.890000
-0.010479 -0.004035 0.901000
0.039976 0.011594 0.877000
-0.017350 0.028313 0.892000
-0.013817 -0.029622 0.901000
-0.022595 -0.011204 0.911000
0.024285 0.020055 0.884000
0.040698 0.007623 0.877000
0.016851 0.035407 0.895000
-0.013133 0.020531 0.905000
0.025126 0.032206 0.888000
-0.036411 -0.025675 0.919000
-0.029473 -0.018408 0.915000
-0.022471 -0.038736 0.906000
-0.003049 0.031795 0.897000
0.011927 -0.002142 0.885000
0.020670 0.007693 0.885000
0.034522 0.011581 0.876000
0.009388 -0.007979 0.886000
