-0.035227 0.007893 0.908000
-0.020492 0.015620 0.901000
0.034206 -0.002458 0.868000
-0.001570 0.022540 0.896000
-0.033212 -0.003676 0.904000
0.046691 0.027821 0.888000
-0.035033 -0.007389 0.903000
-0.028238 0.023435 0.888000
0.038576 0.025339 0.878000
0.031961 0.011928 0.875000
-0.036277 -0.023584 0.897000
0.012858 0.041052 0.874000
0.018317 -0.000318 0.877000
0.021229 0.003657 0.878000
0.031742 -0.001745 0.869000
0.004967 -0.014050 0.878000
-0.010086 0.016695 0.899000
0.017776 0.018641 0.886000
-0.016747 0.006705 0.899000
-0.038905 -0.026936 0.898000
0.034564 -0.011389 0.868000
-0.035460 -0.030898 0.895000
-0.020219 -0.021544 0.889000
0.044047 0.023921 0.879000
0.030730 0.023975 0.881000
0.014297 -0.012907 0.874000
0.022339 0.009450 0.879000
-0.001556 0.006988 0.888000
0.030367 0.021800 0.881000
0.012599 0.008021 0.881000
-0.019575 -0.011717 0.893000
0.040245 0.015529 0.875000
-0.004851 0.004069 0.889000
-0.005533 -0.014823 0.881000
0.021763 0.021170 0.885000
0.023900 -0.011057 0.870000
0.019039 -0.001040 0.877000
0.031961 0.010847 0.875000
0.028230 -0.002466 0.871000
-0.001559 0.026784 0.890000
0.020646 0.034972 0.884000
-0.005258 0.014058 0.896000
-0.009586 -0.005432 0.887000
0.004689 0.022489 0.894000
0.000269 0.035819 0.878000
-0.034854 0.005277 0.908000
-0.025737 -0.024865 0.890000
0.013953 -0.004278 0.875000
0.011641 0.027915 0.891000
-0.007110 0.020350 0.897000
-0.016413 0.011540 0.901000
-0.001181 -0.016999 0.881000
0.031420 0.000759 0.870000
0.033173 -0.001388 0.869000
-0.017448 0.000044 0.897000
0.024975 -0.009267 0.870000
0.021952 0.006187 0.878000
-0.003749 0.005526 0.888000
-0.015757 0.027727 0.885000
-0.012521 -0.006900 0.888000
0.026919 0.012648 0.875000
0.050205 0.022439 0.892000
-0.023095 -0.029527 0.887000
-0.023537 0.008230 0.904000
0.027466 0.019624 0.881000
-0.017370 -0.008409 0.893000
0.047422 0.025628 0.888000
-0.025145 -0.007323 0.895000
0.004626 0.033804 0.882000
-0.002266 -0.012633 0.880000
-0.014930 0.011911 0.901000
0.015898 0.009493 0.883000
0.018996 -0.016883 0.875000
-0.013017 0.020350 0.897000
-0.021187 -0.000326 0.899000
-0.018798 -0.015358 0.891000
-0.012183 -0.001055 0.890000
-0.026559 0.020626 0.893000
-0.033509 -0.008123 0.902000
0.019444 0.004023 0.879000
0.039611 0.004693 0.869000
0.038538 -0.010329 0.869000
-0.040935 -0.017775 0.902000
0.040947 -0.002455 0.867000
-0.034878 -0.017716 0.899000
0.004605 0.038710 0.878000
-0.024638 -0.017905 0.890000
-0.026133 -0.016092 0.891000
0.032739 -0.009592 0.867000
0.039253 0.003620 0.869000
-0.041252 0.006779 0.909000
-0.029197 -0.015427 0.895000
0.027134 0.021098 0.882000
0.013593 -0.010041 0.875000
0.034071 0.031662 0.883000
-0.001570 0.017746 0.896000
-0.011817 -0.001055 0.890000
0.032532 0.003269 0.871000
-0.033580 -0.030128 0.894000
-0.040281 -0.012606 0.904000
-0.031653 -0.005895 0.902000
0.019311 -0.013611 0.873000
-0.006635 -0.027213 0.883000
0.023955 -0.013954 0.872000
0.018699 0.000766 0.878000
-0.031337 -0.025684 0.893000
0.018930 -0.011442 0.872000
0.000639 0.026448 0.891000
0.017490 0.027517 0.890000
0.017085 0.022704 0.888000
0.018442 0.035659 0.883000
-0.036974 -0.029827 0.896000
-0.004485 0.005898 0.889000
0.002442 -0.020239 0.880000
-0.029797 -0.003297 0.902000
0.003900 0.033441 0.882000
0.011098 -0.018365 0.877000
-0.030201 -0.028592 0.892000
-0.013177 0.029481 0.883000
0.015206 0.013885 0.885000
0.015085 0.001850 0.878000
0.035635 0.000757 0.868000
0.013624 -0.018365 0.877000
0.037736 -0.000314 0.867000
-0.023905 -0.021934 0.890000
0.034524 -0.004239 0.867000
-0.007752 0.028852 0.886000
-0.012988 0.021409 0.895000
0.020915 0.008374 0.880000
-0.026113 0.013424 0.903000
-0.028460 -0.010270 0.895000
0.020796 -0.002838 0.875000
-0.005969 -0.034833 0.892000
-0.006265 -0.017381 0.882000
-0.038259 0.004909 0.909000
-0.034738 0.010474 0.905000
-0.033138 -0.008494 0.902000
-0.036606 -0.025033 0.896000
-0.008462 -0.010144 0.884000
0.004321 0.020650 0.894000
-0.045340 -0.014658 0.916000
-0.036399 -0.016625 0.900000
0.028880 -0.010687 0.869000
0.014314 0.040018 0.875000
-0.024555 0.024869 0.887000
0.000992 -0.013342 0.879000
0.012888 -0.002120 0.876000
0.040512 0.010104 0.873000
-0.030465 0.021998 0.889000
-0.016467 0.029151 0.884000
0.026109 0.004350 0.872000
-0.031953 -0.010698 0.900000
0.035243 0.016628 0.876000
0.007135 0.036903 0.878000
-0.035499 -0.025033 0.896000
-0.016504 -0.023295 0.886000
0.004278 0.008786 0.885000
-0.002638 0.031662 0.883000
0.017615 0.000766 0.878000
0.024203 0.037754 0.881000
0.010712 -0.010401 0.875000
-0.022390 -0.032119 0.888000
-0.027909 0.014507 0.901000
0.011819 0.000043 0.877000
0.016024 0.029349 0.890000
-0.042002 0.012282 0.901000
-0.023852 -0.028464 0.888000
0.041304 -0.002098 0.867000
-0.038049 -0.010001 0.904000
0.026832 0.036064 0.884000
0.015640 0.023827 0.889000
0.040930 0.033441 0.882000
0.017156 -0.014329 0.873000
-0.024804 -0.006594 0.896000
0.017175 -0.008230 0.874000
0.001736 0.012118 0.889000
-0.030539 0.015266 0.902000
-0.001181 -0.018087 0.881000
0.007208 0.030345 0.887000
-0.025570 0.018135 0.897000
0.024758 0.009767 0.875000
-0.014814 0.000412 0.894000
0.035400 0.005779 0.871000
-0.033285 0.010486 0.906000
-0.033993 -0.001818 0.905000
-0.000095 0.015866 0.894000
-0.017916 0.011553 0.902000
0.027513 -0.004259 0.871000
0.015376 -0.013986 0.874000
0.016096 -0.015425 0.874000
-0.045340 0.011170 0.901000
0.029412 0.029912 0.885000
0.019665 0.026754 0.889000
0.046632 0.015980 0.880000
-0.024943 0.015620 0.901000
-0.012087 -0.027213 0.883000
0.015292 0.024220 0.890000
-0.006265 -0.024278 0.882000
0.031818 0.023975 0.881000
0.017675 0.037029 0.881000
-0.013904 0.029845 0.883000
-0.017638 -0.021154 0.888000
-0.020928 -0.025540 0.888000
-0.044402 -0.018509 0.920000
-0.021317 -0.022276 0.889000
0.003160 -0.008991 0.878000
-0.034623 0.013038 0.902000
0.008698 0.016528 0.890000
0.000269 -0.007925 0.880000
-0.039275 -0.024719 0.898000
-0.012087 -0.025033 0.883000
-0.017963 -0.031317 0.886000
0.032868 0.023948 0.880000
0.027227 0.035740 0.885000
-0.011910 0.007428 0.897000
0.041420 0.023866 0.877000
0.015658 0.029349 0.890000
-0.025737 -0.031825 0.890000
0.033249 0.005062 0.871000
0.029954 -0.011760 0.869000
-0.034723 -0.025373 0.895000
-0.020608 -0.017173 0.890000
-0.035828 -0.026110 0.895000
0.010364 -0.015821 0.876000
-0.025257 0.016695 0.899000
0.020076 -0.002838 0.875000
-0.031443 -0.020238 0.896000
-0.011803 0.025657 0.889000
0.015605 0.017932 0.887000
-0.027966 -0.030760 0.891000
-0.037754 -0.029122 0.897000
-0.021951 0.000785 0.900000
-0.030302 0.006384 0.906000
0.021205 0.002931 0.877000
0.021108 0.043879 0.873000
0.042929 0.003269 0.871000
0.005012 0.008066 0.886000
-0.006300 0.028154 0.887000
-0.017983 -0.023686 0.887000
0.035923 0.016249 0.875000
0.002473 0.013613 0.891000
0.003160 -0.012243 0.878000
0.011072 -0.008240 0.875000
-0.040935 -0.018147 0.902000
0.039254 0.023506 0.877000
-0.011425 -0.004342 0.888000
-0.029599 -0.015813 0.896000
0.003900 -0.022100 0.882000
-0.022591 -0.007331 0.896000
-0.002269 -0.019537 0.881000
-0.003021 0.008460 0.889000
0.013593 -0.008600 0.875000
0.043536 0.018431 0.876000
-0.011936 -0.039177 0.899000
-0.040653 -0.012606 0.904000
-0.021653 0.013796 0.903000
0.026378 0.038117 0.881000
0.030471 0.029878 0.884000
0.021590 0.004018 0.878000
-0.014156 0.008925 0.899000
-0.012115 -0.030553 0.885000
0.011981 0.019071 0.889000
-0.024244 -0.032521 0.889000
-0.005975 0.009600 0.893000
-0.018452 -0.035200 0.892000
-0.016413 0.011170 0.901000
-0.012142 0.027059 0.887000
-0.009554 -0.013055 0.884000
0.046791 0.021849 0.883000
0.017816 0.031110 0.888000
0.049471 0.024275 0.892000
0.013593 -0.004639 0.875000
0.002453 0.032061 0.884000
-0.031407 -0.022426 0.895000
0.014510 0.016472 0.887000
0.004679 0.027212 0.892000
0.007488 -0.013673 0.877000
-0.021069 -0.010627 0.894000
-0.018671 0.027727 0.885000
-0.029197 -0.015059 0.895000
0.038806 0.000043 0.867000
0.013445 0.019802 0.889000
-0.031740 -0.023505 0.894000
-0.019510 -0.017905 0.890000
-0.007031 0.027789 0.887000
0.039524 0.016249 0.875000
-0.020121 0.005607 0.901000
-0.000817 -0.011895 0.879000
0.008256 0.004037 0.882000
0.022027 0.015273 0.881000
-0.022049 0.010463 0.904000
0.025770 0.025541 0.885000
0.027450 -0.007110 0.869000
-0.010363 0.002978 0.891000
-0.019251 -0.006586 0.895000
0.003174 0.033078 0.882000
0.022313 0.005103 0.878000
0.042502 0.023145 0.877000
0.032853 -0.012848 0.870000
0.014510 0.037646 0.887000
-0.022730 -0.028432 0.887000
-0.033580 -0.030864 0.894000
0.018254 -0.015425 0.874000
-0.025342 -0.027032 0.889000
0.028588 0.004703 0.871000
-0.011923 -0.038394 0.898000
-0.026737 0.016325 0.899000
-0.003753 0.007362 0.889000
-0.026836 -0.028162 0.890000
-0.000093 -0.018066 0.880000
-0.016413 0.015620 0.901000
0.039877 -0.001028 0.867000
-0.027631 -0.019781 0.892000
-0.033834 0.022047 0.891000
-0.012872 -0.008718 0.887000
0.009632 -0.008960 0.875000
0.025537 0.040831 0.877000
-0.017718 0.022439 0.892000
0.024454 0.015564 0.877000
0.023272 0.031805 0.887000
0.020483 0.000404 0.877000
0.007257 0.023199 0.893000
-0.032549 -0.021714 0.896000
-0.020538 0.011194 0.903000
-0.003774 0.011819 0.894000
0.027987 0.030311 0.886000
0.006507 0.016180 0.891000
0.045029 0.017730 0.877000
-0.023932 -0.014258 0.891000
-0.002279 0.029912 0.885000
0.041059 0.024949 0.877000
-0.007743 -0.030189 0.885000
0.005370 0.010243 0.885000
-0.032432 0.012681 0.903000
-0.008190 0.023225 0.894000
-0.041398 -0.014094 0.904000
0.034083 0.010835 0.874000
-0.020863 0.004124 0.901000
0.021326 0.014564 0.882000
-0.022692 0.000415 0.900000
0.011249 0.018339 0.889000
-0.023539 -0.020836 0.890000
-0.026514 0.005626 0.904000
0.022237 -0.000317 0.875000
-0.029830 0.013053 0.903000
0.019126 0.036666 0.881000
-0.037712 0.015902 0.896000
0.033211 0.001475 0.870000
-0.017155 0.010057 0.901000
-0.029433 0.021314 0.891000
0.007849 -0.016200 0.877000
0.013233 -0.007159 0.875000
0.009346 0.007667 0.882000
-0.020724 -0.007323 0.895000
0.001354 -0.016237 0.879000
0.029113 0.014105 0.876000
-0.007787 0.002974 0.890000
0.027450 -0.010687 0.869000
-0.029197 -0.013954 0.895000
0.027839 -0.006044 0.870000
-0.014510 0.005958 0.898000
0.002808 -0.020987 0.881000
0.001001 0.008806 0.887000
0.041781 0.023506 0.877000
-0.011399 -0.014178 0.886000
0.007488 -0.016922 0.877000
-0.031811 -0.018763 0.896000
-0.025824 0.020626 0.893000
0.003944 0.016198 0.892000
0.015137 0.007296 0.881000
0.015429 0.038666 0.877000
-0.020538 0.013424 0.903000
-0.013759 -0.041318 0.922000
0.014314 -0.006079 0.875000
0.034278 0.022112 0.879000
-0.025456 0.020626 0.893000
0.051054 0.022121 0.894000
0.008911 -0.009680 0.875000
-0.009252 0.002608 0.890000
-0.025398 0.005626 0.904000
-0.032360 -0.009226 0.901000
-0.042554 0.014443 0.897000
-0.036647 -0.030968 0.897000
0.013460 0.022755 0.890000
-0.006999 -0.018128 0.883000
0.025061 0.000043 0.873000
0.011485 -0.019854 0.879000
0.025799 0.032863 0.886000
-0.043171 -0.019806 0.910000
0.025420 0.000043 0.873000
0.017332 0.008030 0.882000
-0.014462 -0.036792 0.895000
0.002440 0.035136 0.879000
-0.001201 0.019589 0.896000
-0.006386 -0.038807 0.899000
-0.027872 0.024166 0.888000
0.025377 0.023329 0.884000
-0.026279 -0.006594 0.896000
0.045649 0.023277 0.882000
0.015447 0.001489 0.878000
-0.003042 0.012569 0.895000
0.013764 -0.019648 0.886000
-0.001924 0.009923 0.889000
0.023637 0.028154 0.887000
0.016188 0.002214 0.879000
-0.028925 -0.005130 0.898000
0.010174 0.028281 0.891000
0.027435 0.019240 0.880000
-0.034290 -0.007760 0.903000
-0.008098 0.029878 0.884000
0.032815 -0.000672 0.869000
-0.002670 0.011819 0.894000
0.040383 0.026062 0.878000
0.045908 0.029615 0.887000
-0.007717 -0.013388 0.882000
0.023211 -0.007844 0.871000
0.029113 0.013744 0.876000
-0.021022 -0.014641 0.892000
-0.008434 0.031953 0.881000
0.033839 0.018452 0.877000
-0.021269 -0.027337 0.887000
-0.024572 -0.000326 0.901000
-0.015165 -0.001794 0.893000
-0.005942 -0.031753 0.888000
-0.043389 0.013365 0.899000
0.024928 0.037754 0.881000
0.016225 0.007296 0.881000
-0.033175 -0.004787 0.903000
-0.003376 0.029217 0.886000
0.015535 0.009856 0.883000
-0.028492 -0.008069 0.896000
0.047882 0.018215 0.883000
0.020122 0.001126 0.877000
-0.026455 0.014152 0.902000
-0.033547 -0.006274 0.903000
0.008397 0.002998 0.897000
-0.037055 -0.000329 0.907000
-0.011777 -0.007623 0.887000
-0.016728 0.003740 0.898000
0.029562 -0.006745 0.868000
0.014925 0.024953 0.890000
0.037449 0.022423 0.877000
-0.038633 0.000045 0.909000
-0.021975 0.026299 0.886000
0.021132 -0.004633 0.874000
0.018140 0.019371 0.886000
0.004967 -0.017302 0.878000
0.024701 -0.003191 0.873000
0.009430 0.028982 0.890000
-0.031082 0.006391 0.907000
0.030436 0.027301 0.883000
-0.017678 -0.016806 0.890000
-0.008190 0.008507 0.894000
0.000642 0.019199 0.895000
-0.023879 -0.026301 0.889000
-0.001921 0.005892 0.888000
-0.000820 -0.023216 0.883000
-0.012872 -0.014924 0.887000
0.013937 -0.014346 0.874000
-0.037802 0.008257 0.907000
-0.011553 0.009284 0.898000
0.008210 -0.016561 0.877000
0.006766 -0.013673 0.877000
-0.025285 0.025234 0.887000
0.005696 -0.019493 0.879000
-0.027817 -0.004391 0.898000
-0.027600 -0.030760 0.891000
0.029305 -0.002108 0.871000
-0.026866 -0.019025 0.891000
0.016437 0.041723 0.873000
-0.024721 -0.010247 0.893000
-0.003719 -0.015548 0.881000
-0.016486 -0.028732 0.885000
0.042619 0.005427 0.872000
0.012727 0.028982 0.890000
0.010724 -0.014379 0.876000
-0.010007 0.023908 0.892000
0.027807 -0.010329 0.869000
-0.013046 -0.039547 0.899000
0.030775 0.007221 0.872000
-0.024228 0.014523 0.902000
0.047155 0.020395 0.883000
0.034161 0.016628 0.876000
-0.030001 -0.009555 0.897000
-0.036308 0.000045 0.907000
-0.013267 -0.004347 0.889000
-0.027935 -0.028528 0.890000
-0.022074 -0.019737 0.890000
0.039164 0.019851 0.875000
0.027481 -0.012490 0.870000
-0.044994 -0.013050 0.909000
-0.020356 -0.008428 0.895000
0.017273 0.002214 0.879000
0.035806 0.030140 0.881000
0.019577 0.019713 0.885000
0.009687 0.004390 0.880000
0.025290 0.038117 0.881000
0.019851 0.010196 0.881000
0.016372 0.030779 0.889000
-0.016395 0.007823 0.900000
0.036117 0.007213 0.871000
-0.005539 -0.011573 0.882000
-0.043678 0.008984 0.905000
0.020749 -0.006424 0.873000
0.015754 -0.006079 0.875000
-0.018452 -0.035568 0.892000
0.023813 0.038798 0.880000
-0.034470 -0.017327 0.898000
0.047827 0.016379 0.882000
-0.020840 0.016714 0.900000
0.018099 0.015325 0.884000
0.031778 -0.012490 0.870000
-0.038336 -0.013320 0.902000
-0.036892 -0.009619 0.903000
0.011615 0.018705 0.889000
0.001714 -0.011882 0.878000
0.011148 0.006570 0.881000
0.012139 0.041052 0.874000
0.050711 0.015394 0.888000
-0.020910 0.012309 0.903000
-0.005996 0.011845 0.896000
-0.008876 -0.032887 0.889000
0.004244 -0.017302 0.878000
0.015257 0.019780 0.888000
-0.005982 -0.036015 0.894000
0.005328 -0.007184 0.878000
0.047368 0.024504 0.887000
0.047733 0.023774 0.887000
-0.009940 -0.007249 0.886000
-0.001932 0.012173 0.893000
0.010364 -0.006086 0.876000
0.049138 0.017912 0.886000
-0.033543 -0.029359 0.893000
0.027987 0.031769 0.886000
-0.031247 -0.006260 0.901000
0.030486 0.010115 0.874000
-0.030945 0.013053 0.903000
0.018635 0.040738 0.875000
0.002481 0.018442 0.894000
0.019256 0.033265 0.887000
0.016682 0.017548 0.886000
-0.012224 0.004455 0.893000
-0.006733 0.022171 0.896000
0.024975 -0.011415 0.870000
0.028914 0.003624 0.870000
-0.005229 0.009212 0.891000
-0.022173 -0.035647 0.894000
-0.010657 -0.030918 0.885000
-0.010838 0.016343 0.900000
-0.027786 0.017396 0.897000
0.015376 -0.011828 0.874000
0.015970 0.032170 0.887000
-0.005526 0.033727 0.880000
-0.021293 -0.032484 0.888000
-0.007866 -0.039177 0.899000
0.013795 0.017587 0.888000
-0.007094 0.009990 0.895000
-0.019423 0.013053 0.903000
-0.025061 0.021338 0.892000
-0.045088 0.014795 0.896000
0.030800 0.028754 0.883000
-0.028778 0.011592 0.905000
0.043735 0.013082 0.880000
0.045442 0.018112 0.878000
0.007983 0.021338 0.892000
-0.037923 -0.016272 0.901000
-0.020121 0.015620 0.901000
-0.023486 0.024531 0.888000
-0.039100 0.017338 0.894000
-0.027017 -0.005119 0.896000
0.022542 0.025964 0.887000
-0.034956 -0.012193 0.901000
-0.043210 0.010823 0.903000
0.029902 0.017028 0.878000
-0.012843 -0.021811 0.885000
-0.001178 -0.013342 0.879000
-0.014284 -0.027244 0.884000
-0.039668 0.008257 0.907000
-0.014381 -0.009114 0.890000
0.014330 -0.002481 0.876000
-0.008886 0.003707 0.890000
0.039118 -0.004234 0.866000
-0.027569 0.000045 0.902000
-0.023932 -0.015358 0.891000
-0.013999 -0.010201 0.889000
-0.043727 -0.015617 0.906000
0.031742 -0.002461 0.869000
-0.036389 0.004534 0.909000
-0.023121 0.024166 0.888000
-0.028715 -0.001070 0.903000
0.037422 0.002186 0.868000
0.026163 0.029217 0.886000
-0.033543 0.018789 0.893000
0.036811 0.027177 0.879000
0.041042 -0.007826 0.869000
0.032966 0.007229 0.873000
-0.031421 0.010486 0.906000
-0.022024 -0.032484 0.888000
-0.034062 -0.019154 0.897000
-0.021317 -0.022642 0.889000
-0.015376 0.028787 0.884000
0.049503 0.017183 0.886000
0.027073 0.039522 0.880000
0.034005 0.006862 0.872000
-0.001192 0.005532 0.889000
0.034758 0.029448 0.882000
-0.008806 0.031263 0.882000
-0.030201 0.020603 0.892000
0.021590 0.039433 0.878000
0.014707 -0.000679 0.877000
-0.007479 0.021457 0.897000
-0.016267 -0.008042 0.893000
-0.011034 -0.007979 0.886000
0.018505 0.033228 0.886000
-0.014494 0.004105 0.897000
0.010920 0.026110 0.892000
-0.014413 0.023540 0.892000
-0.023173 -0.021202 0.890000
0.007849 -0.005010 0.877000
0.024730 0.003281 0.874000
0.048718 0.018256 0.885000
-0.004802 0.033003 0.880000
-0.032440 -0.027889 0.893000
-0.019423 0.011938 0.903000
-0.033509 0.014152 0.902000
-0.012169 0.025657 0.889000
0.028914 -0.012490 0.870000
-0.027355 0.018462 0.895000
0.011602 0.016125 0.888000
-0.010754 0.006292 0.893000
-0.007118 0.015198 0.898000
0.020716 0.032535 0.887000
0.029919 -0.008174 0.868000
-0.033138 0.019502 0.892000
0.027544 -0.001751 0.872000
-0.035601 0.004529 0.908000
-0.029132 -0.023846 0.893000
-0.038948 -0.022156 0.899000
-0.004455 0.030935 0.883000
0.001353 -0.011520 0.878000
-0.038633 0.006405 0.909000
-0.038259 0.001916 0.909000
0.019191 0.015689 0.884000
-0.009575 -0.006885 0.886000
0.030311 -0.003534 0.869000
0.023813 0.038436 0.880000
0.015394 -0.006799 0.875000
-0.019575 0.021729 0.893000
0.043746 -0.003550 0.873000
-0.025713 0.014152 0.902000
0.026109 -0.000675 0.872000
-0.013061 0.012639 0.900000
0.004621 -0.020987 0.881000
0.037866 0.006488 0.870000
-0.037468 -0.019566 0.899000
0.000273 0.026110 0.892000
-0.001906 -0.009022 0.881000
0.008698 0.016161 0.890000
0.021777 -0.011070 0.871000
-0.018617 0.016714 0.900000
0.017854 0.043829 0.872000
0.007548 0.009503 0.884000
-0.026191 0.020259 0.893000
-0.010657 -0.015983 0.885000
0.018593 0.044238 0.873000
0.039611 0.005050 0.869000
0.049447 0.015342 0.885000
-0.026084 0.000416 0.902000
0.039520 0.000043 0.867000
-0.015283 0.010416 0.900000
0.016969 0.008756 0.882000
0.023921 0.036064 0.884000
0.006405 -0.012590 0.877000
0.051307 0.018768 0.892000
0.023705 0.005451 0.876000
-0.017350 -0.009868 0.892000
0.007849 -0.017644 0.877000
-0.033948 -0.030496 0.894000
0.022726 0.038436 0.880000
0.007119 -0.010052 0.876000
-0.018988 0.005601 0.900000
-0.026866 -0.016825 0.891000
0.042815 0.021315 0.876000
-0.007354 -0.014114 0.882000
0.013263 -0.018005 0.877000
0.012961 0.007658 0.881000
0.012584 0.005476 0.880000
-0.041492 0.014089 0.898000
0.012333 0.017587 0.888000
-0.007866 0.016695 0.899000
-0.012320 0.017454 0.900000
-0.027017 -0.005487 0.896000
0.016151 -0.001761 0.877000
0.009643 -0.013657 0.876000
-0.025026 0.006742 0.904000
-0.023486 -0.031388 0.888000
-0.035499 -0.031671 0.896000
0.042912 0.013414 0.878000
-0.026514 0.004509 0.904000
-0.014930 0.015249 0.901000
-0.043775 -0.016754 0.907000
0.031062 0.001833 0.870000
0.034603 0.000401 0.869000
-0.010790 0.007789 0.896000
-0.037838 -0.020676 0.899000
-0.013952 -0.031682 0.886000
0.015223 0.033228 0.886000
-0.001930 0.025743 0.892000
0.002846 0.016951 0.893000
-0.033361 -0.016588 0.898000
-0.035227 0.004529 0.908000
-0.031478 -0.016938 0.897000
0.017836 0.028218 0.889000
0.019356 -0.016523 0.875000
0.041608 0.031227 0.881000
-0.014526 0.008185 0.899000
-0.010398 0.022489 0.894000
0.001743 0.015848 0.893000
-0.030336 -0.016551 0.896000
0.018442 0.012400 0.883000
0.002075 -0.011882 0.878000
0.032943 0.027633 0.882000
-0.044374 0.009346 0.904000
0.002849 0.018810 0.894000
0.031062 0.000043 0.870000
-0.023513 -0.025203 0.889000
-0.030201 -0.027124 0.892000
-0.023121 -0.032119 0.888000
-0.038536 -0.023980 0.898000
0.013460 0.022022 0.890000
0.043126 0.007246 0.875000
-0.009200 -0.030553 0.885000
0.018952 -0.008940 0.873000
-0.000093 -0.019900 0.881000
0.041012 0.022758 0.876000
0.008191 0.038938 0.875000
0.021034 0.020806 0.885000
0.020749 0.044238 0.873000
0.020725 -0.011083 0.872000
-0.039252 0.009367 0.906000
0.008921 -0.013297 0.876000
0.038048 -0.004234 0.866000
0.003949 0.017686 0.893000
-0.023355 -0.004386 0.897000
-0.019764 0.027727 0.885000
-0.036252 -0.033472 0.915000
-0.011209 0.013750 0.900000
-0.012197 0.001878 0.891000
-0.012916 -0.000689 0.890000
0.040234 -0.001385 0.867000
0.048774 0.018641 0.886000
0.015772 -0.001759 0.876000
-0.007046 0.004069 0.889000
0.016663 0.033555 0.885000
-0.021317 -0.021910 0.889000
-0.010633 -0.027213 0.883000
0.029412 0.032826 0.885000
0.022852 -0.011429 0.871000
-0.033468 0.022414 0.891000
0.020483 0.001487 0.877000
-0.029086 -0.000327 0.903000
-0.043019 0.012995 0.899000
-0.016616 -0.010236 0.892000
-0.028249 0.015232 0.900000
0.013354 0.010220 0.883000
0.032137 -0.000673 0.870000
-0.019186 0.022439 0.892000
-0.026499 -0.021592 0.891000
-0.019358 0.005230 0.900000
-0.036318 -0.021392 0.898000
-0.006658 -0.030952 0.886000
-0.013572 -0.021811 0.885000
0.048300 0.017508 0.884000
-0.004895 0.019242 0.897000
-0.005223 -0.033656 0.890000
0.015292 0.024587 0.890000
0.015376 0.040692 0.874000
0.019941 0.020077 0.885000
0.011641 0.027181 0.891000
-0.009273 0.006652 0.892000
0.023272 0.028519 0.887000
-0.023932 -0.034061 0.891000
0.021927 0.002570 0.877000
-0.008117 0.028487 0.886000
0.011654 0.023908 0.892000
0.021738 0.019327 0.884000
0.031637 0.013744 0.876000
0.012961 0.007296 0.881000
0.027134 0.020735 0.882000
-0.018390 -0.033619 0.889000
-0.017021 -0.036751 0.894000
0.004239 0.037583 0.877000
-0.015165 -0.035608 0.893000
0.017956 -0.000318 0.877000
0.009282 -0.010773 0.876000
0.004668 0.028250 0.890000
-0.034316 -0.027552 0.894000
0.020576 0.010196 0.881000
-0.017857 0.004485 0.899000
-0.013312 0.001880 0.892000
-0.030370 -0.014354 0.897000
-0.012858 -0.019283 0.886000
0.021467 0.043160 0.873000
0.039524 0.017330 0.875000
0.029305 -0.001749 0.871000
-0.016907 -0.019327 0.888000
-0.032180 -0.019870 0.896000
-0.018166 -0.003275 0.896000
0.033344 0.030208 0.883000
0.025809 -0.015425 0.874000
0.000630 0.035819 0.878000
-0.018861 -0.008051 0.894000
-0.012292 0.009654 0.898000
-0.009929 -0.009791 0.885000
-0.036228 -0.005170 0.905000
0.038671 0.010092 0.872000
0.017916 -0.018701 0.893000
-0.017292 -0.018617 0.889000
-0.006620 0.033040 0.881000
-0.024299 -0.013891 0.891000
-0.009985 0.002608 0.890000
0.005722 0.032752 0.883000
0.015482 0.004390 0.880000
0.033492 -0.002458 0.868000
-0.035327 -0.032960 0.901000
0.037767 0.019513 0.876000
0.011445 -0.015821 0.876000
0.020076 -0.004278 0.875000
0.004282 0.009890 0.886000
-0.015989 0.004110 0.898000
-0.015029 -0.023268 0.885000
-0.017448 0.000413 0.897000
0.041656 0.032715 0.882000
-0.039425 0.004914 0.910000
-0.016006 0.007445 0.899000
-0.006999 -0.016674 0.883000
0.027839 0.002908 0.870000
0.026049 -0.008551 0.870000
0.023451 0.017429 0.880000
-0.042702 0.007519 0.908000
0.018233 -0.011455 0.873000
0.035766 0.026121 0.880000
0.000271 0.031005 0.885000
-0.022781 -0.018983 0.889000
-0.004824 -0.027608 0.884000
-0.036722 0.006772 0.908000
-0.022025 0.012681 0.903000
-0.010997 -0.028304 0.883000
0.031565 0.009756 0.874000
-0.025766 -0.016092 0.891000
0.005370 0.031369 0.885000
0.020351 0.032900 0.887000
-0.025824 -0.011350 0.893000
0.034522 0.016628 0.876000
0.015826 0.037669 0.879000
0.000269 -0.020987 0.881000
0.037379 -0.009592 0.867000
-0.024970 0.001901 0.902000
-0.037181 -0.014047 0.901000
-0.017136 0.008194 0.900000
0.049138 0.017548 0.886000
0.031565 0.009036 0.874000
-0.003018 0.028186 0.888000
0.010724 -0.011134 0.876000
-0.013664 0.000044 0.891000
0.016796 -0.013970 0.873000
0.009441 0.028281 0.891000
0.022262 0.040785 0.876000
0.022288 0.004014 0.877000
0.038896 -0.010329 0.869000
0.016493 -0.017623 0.876000
0.040337 0.023866 0.877000
0.034395 0.030174 0.882000
0.013640 0.037987 0.878000
-0.031082 0.006018 0.907000
-0.034138 -0.015866 0.899000
0.040234 -0.006737 0.867000
-0.010270 -0.022852 0.883000
0.007513 0.035176 0.880000
-0.033658 0.000418 0.906000
-0.015497 -0.034428 0.891000
0.018338 0.001489 0.878000
-0.012128 -0.013084 0.886000
0.007127 -0.006093 0.877000
-0.037712 -0.026876 0.896000
0.010737 -0.018005 0.877000
0.034763 0.010822 0.873000
-0.034106 0.004903 0.908000
0.012305 0.032134 0.886000
0.007362 0.006757 0.906000
-0.022781 -0.025569 0.889000
-0.014125 -0.038351 0.897000
-0.012563 -0.034428 0.891000
-0.015917 -0.036383 0.894000
-0.020910 0.011194 0.903000
-0.017797 -0.002537 0.896000
-0.020288 -0.013907 0.892000
0.034640 0.022836 0.879000
0.001741 0.026110 0.892000
0.034364 0.007580 0.872000
-0.042459 0.015884 0.895000
-0.016869 -0.023659 0.886000
0.024285 0.022238 0.884000
-0.005264 0.021088 0.897000
-0.016285 -0.004739 0.894000
0.015862 0.006570 0.881000
0.024038 0.041819 0.875000
0.040605 0.013368 0.875000
-0.017448 -0.000694 0.897000
0.001714 0.037264 0.878000
0.035993 -0.010675 0.868000
0.013593 -0.010761 0.875000
-0.011109 0.004817 0.892000
0.023036 0.013053 0.878000
-0.024583 -0.028464 0.888000
0.042745 -0.007217 0.882000
0.044821 0.024310 0.880000
0.006133 0.028616 0.890000
-0.024948 -0.029560 0.888000
-0.013618 -0.010555 0.888000
-0.025399 -0.024159 0.891000
-0.011399 -0.016001 0.886000
0.015605 0.018297 0.887000
-0.026543 0.007494 0.905000
-0.021461 -0.009165 0.895000
0.002113 0.018074 0.894000
0.007488 -0.013312 0.877000
-0.017896 0.015620 0.901000
0.032906 0.026151 0.881000
-0.016213 -0.013143 0.890000
-0.028797 -0.013202 0.894000
-0.026103 0.022755 0.890000
0.042912 0.011969 0.878000
-0.020632 -0.015725 0.891000
-0.028778 0.005632 0.905000
-0.034684 -0.026816 0.894000
0.022313 0.006548 0.878000
0.015034 -0.010761 0.875000
-0.010282 -0.021059 0.884000
-0.021707 -0.017539 0.890000
0.014428 0.008756 0.882000
-0.041677 -0.021117 0.902000
0.027967 0.010835 0.874000
0.025098 0.029250 0.887000
-0.023852 -0.029926 0.888000
-0.044100 -0.013752 0.906000
0.049138 0.018277 0.886000
0.001356 -0.007563 0.880000
-0.012549 0.025319 0.890000
0.013278 0.042685 0.878000
0.018463 0.014233 0.884000
-0.011022 -0.019626 0.885000
0.046480 0.023693 0.884000
0.006037 0.038982 0.876000
0.027373 0.017389 0.878000
0.041923 0.028657 0.880000
0.022161 -0.013954 0.872000
-0.038378 -0.011477 0.903000
-0.017963 -0.024389 0.886000
0.026318 0.018494 0.879000
-0.037181 0.013024 0.901000
0.025420 0.005792 0.873000
0.029608 0.019964 0.880000
-0.003787 0.021088 0.897000
-0.026827 0.000416 0.902000
-0.029834 -0.027124 0.892000
-0.041631 0.012282 0.901000
0.000273 0.013643 0.893000
0.028327 0.010115 0.874000
0.025566 0.040517 0.878000
0.023237 -0.007135 0.872000
-0.013920 -0.027244 0.884000
-0.014316 -0.020742 0.886000
-0.027631 -0.019414 0.892000
-0.029086 -0.001442 0.903000
-0.016964 -0.013891 0.891000
0.007582 0.013932 0.888000
-0.020817 -0.000326 0.899000
0.046217 0.016324 0.879000
-0.029360 0.014861 0.900000
0.008649 0.012064 0.885000
-0.032694 -0.011809 0.900000
0.024010 -0.000676 0.874000
0.022907 0.032900 0.887000
-0.006628 -0.015203 0.882000
0.043224 0.015564 0.877000
-0.029599 -0.011388 0.896000
0.044358 0.022448 0.878000
0.002481 0.024329 0.894000
0.022726 0.016342 0.880000
0.035882 0.012633 0.874000
-0.033138 0.013038 0.902000
0.039026 0.031192 0.880000
0.032868 0.022499 0.880000
0.011275 0.028648 0.891000
-0.012279 -0.037982 0.897000
-0.000094 0.008815 0.888000
0.041325 0.018050 0.875000
-0.024147 -0.002546 0.899000
0.028424 0.015925 0.877000
-0.002635 -0.021737 0.882000
0.026528 0.009756 0.874000
0.041805 0.004340 0.870000
0.013218 0.041771 0.874000
-0.023909 0.012695 0.904000
-0.013587 -0.021107 0.886000
-0.026499 -0.024893 0.891000
-0.017916 0.013781 0.902000
-0.018431 -0.013891 0.891000
-0.023114 0.003757 0.902000
0.015754 -0.015803 0.875000
-0.045774 0.016252 0.895000
0.041561 0.029743 0.880000
-0.000094 0.007345 0.887000
0.028914 0.001117 0.870000
0.033927 0.001475 0.870000
0.018785 0.036345 0.882000
0.027513 0.003269 0.871000
-0.017021 -0.006579 0.894000
-0.000461 0.011779 0.891000
0.010399 0.002214 0.879000
-0.015445 -0.017865 0.888000
0.019941 0.018256 0.885000
-0.008163 0.006645 0.891000
-0.020701 -0.010994 0.894000
-0.025713 0.001530 0.902000
-0.027198 0.014523 0.902000
-0.007054 0.005172 0.890000
-0.010293 -0.009791 0.885000
0.016206 0.005114 0.880000
0.038400 0.014792 0.874000
0.001360 -0.022489 0.883000
-0.010633 -0.022489 0.883000
-0.030636 -0.023873 0.894000
-0.018798 -0.015725 0.891000
-0.026055 0.014878 0.901000
-0.014510 0.019264 0.898000
-0.027569 -0.000698 0.902000
-0.008462 -0.019240 0.884000
-0.019294 -0.002540 0.897000
0.015588 0.016089 0.886000
-0.038450 0.015902 0.896000
0.037465 0.004335 0.869000
0.042830 0.000758 0.869000
-0.014109 0.004101 0.896000
0.000269 -0.010086 0.879000
-0.024638 -0.022301 0.890000
0.032180 0.023975 0.881000
-0.012183 -0.000322 0.890000
0.023732 0.040831 0.877000
0.043188 -0.001030 0.869000
0.046217 0.016685 0.879000
0.022152 0.024476 0.886000
-0.015900 -0.005101 0.893000
0.004316 0.017686 0.893000
0.042830 -0.001388 0.869000
-0.007362 -0.019218 0.883000
-0.011724 -0.028304 0.883000
-0.016395 0.016714 0.900000
0.033631 0.025788 0.881000
-0.014896 -0.039177 0.899000
0.011793 -0.012561 0.875000
-0.034723 -0.026478 0.895000
-0.008976 0.016695 0.899000
-0.006635 0.030571 0.883000
0.022649 0.004375 0.877000
-0.011936 0.012625 0.899000
-0.015671 0.012282 0.901000
-0.014015 -0.004352 0.890000
0.022700 0.015962 0.879000
-0.011566 0.011145 0.899000
-0.000818 0.033403 0.881000
-0.011737 -0.029791 0.884000
0.023928 -0.011787 0.871000
0.001739 0.026815 0.891000
-0.020470 0.016714 0.900000
0.014707 0.039027 0.877000
-0.024626 0.013424 0.903000
-0.032803 -0.004044 0.903000
-0.026279 0.018114 0.896000
0.008571 -0.016922 0.877000
-0.037098 -0.018826 0.899000
-0.021163 -0.002173 0.898000
0.010896 0.029349 0.890000
-0.010351 -0.033656 0.890000
0.024730 0.000403 0.874000
-0.015148 -0.006197 0.892000
0.032777 -0.010675 0.868000
-0.014543 0.009675 0.900000
0.035441 0.007939 0.872000
-0.019165 -0.035161 0.891000
-0.016231 -0.012791 0.891000
-0.029491 0.002277 0.904000
-0.007796 0.007012 0.891000
0.015916 0.012414 0.884000
-0.032918 -0.021714 0.896000
-0.010645 -0.020695 0.884000
0.039434 0.011541 0.873000
0.009293 -0.003205 0.877000
-0.015775 -0.031682 0.886000
0.006419 -0.019131 0.879000
0.001009 0.025065 0.894000
-0.022049 0.010091 0.904000
-0.007387 -0.030952 0.886000
-0.033175 0.012309 0.903000
0.019191 0.016416 0.884000
0.001003 0.010277 0.888000
0.007849 -0.015839 0.877000
0.038312 0.010451 0.872000
0.034167 -0.008165 0.867000
-0.013192 -0.023242 0.884000
0.014825 0.012050 0.884000
0.001367 -0.023321 0.887000
0.016206 0.004028 0.880000
0.020305 0.034647 0.885000
-0.000461 0.026815 0.891000
0.012250 0.008393 0.882000
0.037692 -0.002452 0.866000
0.043635 0.024255 0.878000
0.039884 0.020571 0.875000
-0.011502 0.022489 0.894000
-0.034623 -0.010350 0.902000
-0.026426 -0.002181 0.901000
-0.027940 -0.000327 0.902000
-0.027294 -0.011717 0.893000
-0.022591 -0.007700 0.896000
0.005774 0.027915 0.891000
-0.019122 -0.018983 0.889000
-0.006718 0.009611 0.894000
-0.003008 0.030276 0.885000
0.039474 -0.004591 0.866000
0.005419 0.025772 0.893000
0.032719 0.013383 0.876000
-0.030602 -0.024214 0.893000
-0.036763 0.006031 0.909000
0.037379 -0.000671 0.867000
-0.004142 0.023961 0.894000
0.038449 0.000043 0.867000
0.040684 0.003262 0.869000
-0.003042 0.023251 0.895000
0.025750 -0.004264 0.872000
-0.025428 -0.012071 0.892000
-0.009221 -0.031718 0.887000
-0.002632 -0.016999 0.881000
0.025566 0.017389 0.878000
0.029379 0.036427 0.884000
-0.011059 -0.032850 0.888000
-0.038905 0.014828 0.898000
0.018058 0.035982 0.882000
-0.034745 -0.034980 0.925000
0.029954 -0.011045 0.869000
-0.038463 0.010102 0.905000
-0.038493 -0.026537 0.897000
0.036076 0.003982 0.870000
0.009282 -0.014379 0.876000
0.026288 0.018112 0.878000
0.023894 0.020395 0.883000
-0.006999 -0.010496 0.883000
-0.021210 0.002267 0.900000
-0.034031 0.009740 0.906000
0.026827 0.006503 0.872000
-0.017638 -0.019692 0.888000
0.008668 0.013917 0.887000
-0.040474 -0.022922 0.900000
-0.035948 -0.019544 0.898000
0.038405 -0.004591 0.866000
-0.040708 0.014812 0.897000
-0.018756 -0.020080 0.889000
0.035444 0.027964 0.881000
0.020506 0.003657 0.878000
-0.038707 -0.015548 0.902000
-0.011184 0.011132 0.898000
0.021787 0.024476 0.886000
-0.047723 0.014812 0.897000
0.019104 0.007287 0.880000
-0.031302 -0.027124 0.892000
0.039660 0.026423 0.878000
-0.024920 0.024869 0.887000
0.001354 -0.015151 0.879000
0.021836 0.028917 0.888000
-0.007437 -0.034466 0.892000
0.030881 0.011568 0.875000
-0.024654 0.013067 0.904000
-0.025313 -0.000697 0.901000
-0.026886 0.013067 0.904000
0.001732 0.009536 0.887000
-0.012465 -0.030155 0.884000
-0.010778 0.021778 0.895000
-0.004082 -0.014098 0.881000
-0.016635 -0.007307 0.893000
0.010737 -0.018365 0.877000
-0.041770 -0.013350 0.904000
0.024286 -0.006410 0.871000
-0.019531 -0.014625 0.891000
-0.014747 -0.012777 0.890000
0.025779 -0.001394 0.873000
0.037130 0.024616 0.878000
-0.030235 -0.000327 0.904000
-0.001939 0.017008 0.896000
-0.014863 0.003367 0.897000
-0.028603 0.023069 0.888000
0.037724 0.016970 0.875000
0.007143 0.035860 0.879000
-0.015953 0.000782 0.896000
-0.041306 -0.019632 0.902000
0.029272 -0.012848 0.870000
0.022205 -0.017795 0.903000
-0.031317 -0.002557 0.903000
-0.038664 0.012653 0.901000
0.020844 0.040110 0.877000
0.029834 0.013744 0.876000
-0.011764 0.028123 0.886000
0.007119 0.039343 0.876000
0.021738 0.018963 0.884000
0.036283 0.015529 0.875000
-0.033249 -0.024268 0.895000
0.007983 0.020236 0.892000
0.036159 0.009374 0.872000
-0.032622 -0.016588 0.898000
-0.013046 0.009295 0.899000
-0.022768 0.013424 0.903000
0.028684 0.033555 0.885000
0.002849 0.024697 0.894000
0.027892 0.037477 0.883000
-0.036763 0.004909 0.909000
0.017895 -0.015425 0.874000
0.028554 0.021437 0.881000
-0.029151 0.004887 0.905000
-0.034700 0.011207 0.904000
-0.016042 0.014507 0.901000
0.024426 0.042588 0.876000
0.043126 0.007606 0.875000
-0.008816 -0.015220 0.883000
0.024786 0.011941 0.876000
0.004239 0.038305 0.877000
-0.041955 0.013009 0.900000
0.023291 0.042131 0.874000
0.022262 0.001485 0.876000
0.040234 -0.006023 0.867000
0.039877 0.000400 0.867000
0.010518 0.016143 0.889000
-0.019773 0.014523 0.902000
-0.016431 0.013781 0.902000
0.012208 0.002938 0.879000
-0.039008 0.006779 0.909000
0.022077 0.036023 0.883000
0.000640 0.026110 0.892000
-0.020516 0.027393 0.886000
-0.031829 0.009004 0.907000
0.024649 0.036064 0.884000
-0.020197 -0.022982 0.888000
-0.019358 0.005601 0.900000
-0.011764 -0.031682 0.886000
0.031098 -0.013221 0.871000
-0.024638 -0.023766 0.890000
0.037150 0.005414 0.870000
-0.027847 0.016325 0.899000
0.029676 0.023640 0.882000
0.000636 0.006980 0.887000
0.016437 0.043520 0.873000
-0.036148 -0.008132 0.903000
-0.037911 0.018768 0.892000
-0.001545 -0.022100 0.882000
0.012361 0.020923 0.890000
-0.036851 -0.012949 0.902000
-0.023539 -0.016806 0.890000
0.019577 0.019349 0.885000
0.036919 0.011900 0.873000
-0.005633 0.015181 0.897000
-0.006371 -0.037613 0.897000
0.029776 0.031369 0.885000
-0.004445 -0.015548 0.881000
0.035441 0.007580 0.872000
-0.008462 -0.010871 0.884000
0.019126 0.009471 0.881000
-0.000463 0.022515 0.895000
0.024649 0.035700 0.884000
-0.014664 -0.023997 0.885000
0.012873 -0.006079 0.875000
0.036707 0.001115 0.868000
-0.016504 -0.030952 0.886000
0.036517 0.009733 0.872000
-0.042981 -0.011888 0.906000
-0.009608 -0.001420 0.889000
0.000992 -0.008639 0.879000
-0.023883 0.013053 0.903000
-0.030001 -0.012139 0.897000
0.019148 0.010571 0.882000
-0.016831 0.028059 0.884000
0.003896 0.033766 0.881000
0.027513 0.004703 0.871000
-0.016304 -0.001798 0.895000
-0.003049 0.018135 0.897000
0.017915 -0.016883 0.875000
0.045132 0.021388 0.879000
-0.039425 0.004165 0.910000
0.012513 -0.015443 0.875000
-0.027909 -0.002922 0.901000
-0.037428 -0.002195 0.907000
0.020600 0.013112 0.882000
-0.043727 -0.011888 0.906000
-0.016249 -0.035200 0.892000
-0.003399 0.010691 0.892000
-0.015882 -0.007666 0.892000
-0.003753 0.027486 0.889000
-0.036156 0.017706 0.894000
0.008571 -0.015839 0.877000
-0.011579 -0.039591 0.900000
-0.025004 -0.020469 0.890000
0.030057 0.006503 0.872000
0.017411 0.017183 0.886000
0.020366 0.043470 0.872000
0.030634 -0.009603 0.868000
-0.034956 -0.012935 0.901000
0.000269 -0.012257 0.879000
0.003935 0.013964 0.890000
-0.019208 -0.009880 0.893000
-0.029599 -0.012863 0.896000
0.034842 0.015529 0.875000
0.006419 0.036221 0.879000
0.044719 0.015221 0.878000
-0.003004 -0.025425 0.884000
-0.007717 -0.023915 0.882000
0.039344 0.007571 0.871000
-0.026250 -0.007323 0.895000
0.011432 -0.005359 0.875000
-0.023459 0.001899 0.901000
-0.018105 -0.010247 0.893000
-0.025766 -0.024159 0.891000
0.018827 0.014961 0.884000
0.041246 0.031590 0.881000
-0.037718 0.010102 0.905000
0.036266 -0.003878 0.866000
-0.015935 -0.001798 0.895000
-0.037055 -0.001448 0.907000
-0.017331 -0.013158 0.891000
-0.018044 -0.016806 0.890000
0.010435 0.008030 0.882000
-0.026142 0.013067 0.904000
-0.015793 0.026329 0.887000
0.007840 -0.010773 0.876000
0.000272 0.028552 0.888000
-0.014030 0.024247 0.891000
0.015862 0.007296 0.881000
0.003931 0.013582 0.889000
-0.003757 0.008469 0.890000
-0.011084 0.024953 0.890000
-0.012814 0.030571 0.883000
-0.014141 -0.038764 0.898000
0.002830 0.012470 0.888000
-0.031282 0.014152 0.902000
0.036979 -0.004234 0.866000
0.006797 -0.020987 0.881000
-0.009996 0.003711 0.891000
0.043126 0.019130 0.875000
0.017997 0.038030 0.879000
0.035522 0.012633 0.874000
-0.041260 -0.021464 0.901000
0.040637 -0.007817 0.868000
-0.020655 -0.035568 0.892000
0.016625 0.010583 0.883000
0.024314 -0.013954 0.872000
-0.000831 0.014026 0.894000
-0.011134 -0.036383 0.894000
0.014145 0.031805 0.887000
0.003944 0.026845 0.892000
-0.024544 0.016343 0.900000
-0.004867 0.025376 0.892000
0.025750 0.001120 0.872000
-0.015828 -0.015690 0.889000
-0.025513 -0.006586 0.895000
-0.036389 0.004909 0.909000
-0.015080 0.025628 0.888000
-0.006272 -0.026123 0.883000
-0.028249 0.015602 0.900000
-0.018692 -0.027306 0.886000
-0.036974 -0.030195 0.896000
0.029080 0.011928 0.875000
-0.036116 0.018421 0.893000
-0.004450 -0.023915 0.882000
-0.013431 0.017084 0.900000
-0.015428 -0.020765 0.887000
0.021566 0.039749 0.877000
-0.019400 0.026998 0.885000
0.037449 0.022062 0.877000
-0.036722 0.001540 0.908000
0.009819 0.025009 0.892000
-0.008896 0.006278 0.891000
-0.014664 -0.030918 0.885000
-0.034994 -0.009237 0.902000
-0.044987 0.016970 0.894000
-0.030602 -0.031197 0.893000
-0.033472 -0.011451 0.901000
0.024871 0.039477 0.879000
-0.011159 -0.037202 0.896000
-0.024299 -0.034061 0.891000
-0.031688 -0.002929 0.903000
0.004972 0.035498 0.879000
0.007488 -0.006093 0.877000
-0.043306 -0.015227 0.905000
0.001720 -0.021350 0.881000
-0.034031 0.001163 0.906000
-0.038548 0.008257 0.907000
-0.012306 0.018175 0.899000
-0.017214 -0.026911 0.885000
-0.029632 -0.008078 0.897000
-0.015131 -0.034794 0.891000
0.037982 0.032678 0.881000
-0.008172 0.007387 0.892000
-0.040923 0.005663 0.910000
0.042830 -0.003534 0.869000
0.005370 0.009514 0.885000
-0.014764 -0.007290 0.891000
0.007505 -0.019854 0.879000
0.028165 -0.006753 0.869000
0.011072 -0.007159 0.875000
-0.043808 0.012268 0.900000
-0.028732 -0.026022 0.892000
0.040107 0.009733 0.872000
-0.024749 -0.009155 0.894000
-0.019898 -0.034794 0.891000
0.011602 0.015394 0.888000
0.011445 -0.002841 0.876000
-0.031351 -0.000327 0.904000
0.026199 0.012288 0.875000
-0.019553 -0.012806 0.892000
0.005702 0.034814 0.880000
-0.010645 -0.029791 0.884000
-0.032180 -0.033146 0.896000
-0.014913 0.017825 0.900000
0.010908 0.027548 0.891000
0.002801 -0.008278 0.879000
0.018891 0.022313 0.887000
-0.010694 0.026724 0.888000
-0.001570 0.022171 0.896000
-0.023537 0.011207 0.904000
0.018526 0.020853 0.887000
0.009013 0.012428 0.885000
-0.004862 0.009212 0.891000
-0.030773 -0.012522 0.898000
-0.016089 -0.040691 0.925000
0.015952 0.032863 0.886000
-0.020197 -0.023347 0.888000
-0.023199 -0.014991 0.891000
0.011060 0.039972 0.874000
-0.008816 -0.021035 0.883000
-0.018756 -0.033984 0.889000
-0.032467 -0.001816 0.904000
-0.023121 -0.031388 0.888000
-0.025853 -0.008787 0.894000
-0.012945 0.002247 0.892000
-0.021903 -0.003282 0.898000
-0.006506 -0.040295 0.916000
0.007488 -0.015117 0.877000
0.011846 0.003299 0.879000
-0.004889 0.003732 0.896000
0.010712 -0.010041 0.875000
0.022649 0.040110 0.877000
0.035676 0.001474 0.869000
0.033685 0.009745 0.873000
-0.029834 -0.031162 0.892000
-0.020562 -0.024809 0.888000
0.026771 0.020372 0.882000
-0.025061 -0.013173 0.892000
0.038620 0.027539 0.879000
0.021492 0.042131 0.874000
-0.022781 -0.025203 0.889000
0.009643 -0.011134 0.876000
-0.022024 -0.024809 0.888000
0.028949 0.024003 0.882000
0.035594 -0.003526 0.867000
0.016989 0.010946 0.883000
-0.007708 0.033040 0.881000
-0.024174 -0.000696 0.900000
-0.025026 0.012695 0.904000
0.030555 0.013383 0.876000
-0.009705 0.019264 0.898000
-0.002994 -0.009747 0.881000
0.040429 0.028986 0.879000
-0.036439 0.013395 0.901000
-0.009294 0.023225 0.894000
-0.019729 0.003378 0.900000
-0.017837 0.018524 0.898000
0.031818 0.025426 0.881000
0.024673 -0.014313 0.872000
0.043896 0.017349 0.876000
0.041089 0.005414 0.870000
-0.033655 -0.020976 0.896000
0.019665 0.030413 0.889000
0.001368 0.010643 0.888000
-0.019057 -0.031317 0.886000
-0.029830 -0.001070 0.903000
-0.032131 0.000417 0.905000
-0.023905 -0.023400 0.890000
0.011275 0.020947 0.891000
-0.025285 -0.002549 0.900000
0.038627 0.008288 0.871000
0.036308 -0.003169 0.867000
0.045442 0.018835 0.878000
-0.001185 -0.023970 0.884000
0.024367 0.029250 0.887000
0.039923 -0.007817 0.868000
-0.037055 -0.004808 0.907000
0.049049 0.024981 0.891000
-0.006265 -0.025730 0.882000
0.025478 0.011207 0.875000
0.038937 0.027146 0.878000
0.020773 -0.004274 0.874000
0.008727 0.024669 0.893000
-0.028397 -0.017598 0.893000
-0.012465 -0.023242 0.884000
-0.019597 -0.008419 0.894000
-0.022247 -0.004386 0.897000
-0.001911 -0.023216 0.883000
0.022339 0.010535 0.879000
-0.022074 -0.034023 0.890000
-0.010742 0.004450 0.892000
-0.044548 0.012268 0.900000
0.019851 0.008746 0.881000
-0.043710 0.014089 0.898000
-0.035170 -0.021369 0.897000
0.031961 0.012288 0.875000
0.021852 -0.003554 0.874000
-0.034662 0.011938 0.903000
0.034643 0.002908 0.870000
0.011819 -0.018365 0.877000
-0.037510 -0.017365 0.900000
-0.018390 -0.020080 0.889000
-0.018819 -0.013907 0.892000
-0.020879 -0.037360 0.918000
0.034167 -0.004239 0.867000
-0.008826 -0.018512 0.884000
-0.023011 -0.002912 0.898000
-0.019831 -0.024078 0.888000
-0.039865 -0.014450 0.903000
-0.003028 0.026081 0.891000
0.012153 -0.014722 0.875000
0.027186 0.007221 0.872000
0.012167 -0.001759 0.876000
0.027165 0.024393 0.883000
0.038040 0.014792 0.874000
-0.007717 -0.021374 0.882000
0.030991 -0.006388 0.868000
-0.024255 0.013796 0.903000
0.006889 0.023199 0.893000
-0.008135 -0.007631 0.888000
-0.001182 -0.022100 0.882000
-0.026927 -0.012820 0.893000
-0.018328 -0.025483 0.886000
-0.025342 0.001158 0.902000
-0.039625 0.008994 0.906000
0.015068 0.000043 0.877000
0.022152 0.023382 0.886000
-0.012210 0.002614 0.892000
-0.006628 -0.024278 0.882000
0.005029 0.028950 0.889000
-0.037218 0.018421 0.893000
-0.000093 -0.015893 0.880000
0.026437 -0.013580 0.871000
-0.008896 0.004811 0.891000
-0.029499 0.019891 0.893000
0.040947 -0.002812 0.867000
-0.035828 -0.030162 0.895000
0.013339 0.009482 0.882000
0.020740 0.029648 0.888000
-0.009196 -0.041273 0.921000
0.028980 -0.014313 0.872000
-0.023173 -0.015707 0.890000
0.010117 0.031769 0.886000
0.024975 -0.012132 0.870000
0.015640 0.021998 0.889000
-0.021389 0.022072 0.892000
-0.010657 -0.011977 0.885000
-0.002305 0.004833 0.895000
-0.001565 0.025037 0.893000
0.050516 0.020580 0.891000
-0.013602 0.026694 0.887000
-0.020447 0.001524 0.899000
-0.024626 0.005248 0.903000
-0.019510 -0.018271 0.890000
0.045025 0.028059 0.884000
-0.008520 0.004073 0.890000
-0.026499 -0.025626 0.891000
0.029988 0.003982 0.870000
0.031027 -0.003176 0.869000
-0.006265 -0.022463 0.882000
0.023948 0.023356 0.885000
-0.003414 0.022540 0.896000
-0.007039 0.027090 0.888000
-0.003749 0.005161 0.888000
0.003949 0.025037 0.893000
0.017195 0.040738 0.875000
0.027154 0.001118 0.871000
-0.011084 -0.000322 0.890000
-0.006400 0.003011 0.901000
-0.005264 0.014812 0.897000
-0.024721 0.020994 0.893000
-0.037098 -0.018456 0.899000
0.005832 -0.022551 0.900000
0.016391 0.025319 0.890000
-0.014015 0.024587 0.890000
-0.003774 0.023961 0.894000
-0.022692 -0.000326 0.900000
0.005057 0.021385 0.894000
-0.006635 -0.017764 0.883000
-0.011527 0.021433 0.896000
0.014363 0.002212 0.878000
-0.009684 0.008526 0.896000
-0.018735 -0.033215 0.888000
0.013460 0.028616 0.890000
0.017470 0.025291 0.889000
0.026734 -0.010329 0.869000
0.025434 0.027029 0.886000
0.040521 0.031590 0.881000
0.036392 0.002189 0.869000
0.020397 0.028218 0.889000
0.016354 0.020876 0.888000
0.022567 0.028552 0.888000
0.021541 0.000764 0.876000
-0.011360 0.029845 0.883000
-0.020219 -0.019714 0.889000
0.023611 0.033957 0.886000
0.022491 0.022627 0.885000
-0.012916 0.024953 0.890000
-0.003418 0.018504 0.897000
-0.008836 -0.009063 0.885000
-0.009963 -0.032484 0.888000
0.029766 0.010475 0.874000
-0.024228 0.004128 0.902000
0.045856 0.019218 0.879000
0.028523 -0.011402 0.869000
-0.009169 -0.024641 0.882000
0.023531 0.019669 0.883000
0.038804 0.015889 0.875000
-0.025201 0.018135 0.897000
0.009720 0.009493 0.883000
-0.028064 0.007503 0.906000
0.032173 0.003269 0.871000
-0.015900 -0.006939 0.893000
-0.005252 -0.036424 0.895000
0.037150 0.006130 0.870000
0.019213 0.034283 0.885000
-0.003711 0.034051 0.879000
-0.014172 0.016343 0.900000
-0.022322 0.001897 0.900000
0.026741 0.038479 0.881000
0.033955 0.025035 0.880000
-0.015935 -0.036792 0.895000
-0.021317 0.024193 0.889000
-0.012648 0.020350 0.897000
0.015517 0.008030 0.882000
0.028914 0.004340 0.870000
0.022907 0.027789 0.887000
-0.023251 -0.010615 0.893000
-0.042886 -0.017443 0.904000
0.050149 0.021680 0.891000
0.024732 0.028885 0.887000
-0.006371 0.014443 0.897000
0.004600 -0.011146 0.877000
0.046270 0.014893 0.880000
-0.039231 0.015550 0.897000
0.010015 -0.002844 0.877000
-0.002287 0.007719 0.888000
-0.000456 -0.022100 0.882000
0.038092 0.000043 0.867000
0.007371 -0.022353 0.907000
0.011287 0.024642 0.892000
0.025750 0.003273 0.872000
-0.022743 0.004500 0.902000
-0.041389 0.005300 0.912000
0.014925 0.024220 0.890000
-0.024721 -0.011350 0.893000
0.014510 0.034726 0.887000
0.036876 0.010092 0.872000
0.004321 0.023593 0.894000
0.012656 0.012792 0.885000
0.036665 -0.000314 0.867000
-0.003353 -0.012633 0.880000
0.015394 -0.007159 0.875000
0.011287 0.024275 0.892000
0.008668 0.013552 0.887000
0.022545 -0.005347 0.873000
-0.021659 0.024531 0.888000
0.013953 -0.007159 0.875000
0.012194 0.001127 0.878000
0.017776 0.017548 0.886000
0.000269 -0.017342 0.880000
0.036750 0.003977 0.869000
0.036643 0.016249 0.875000
-0.009532 -0.024641 0.882000
0.020483 0.040110 0.877000
0.020099 -0.002120 0.876000
-0.019641 0.019958 0.896000
0.016587 0.036666 0.881000
0.037823 0.004335 0.869000
-0.033732 0.006398 0.908000
0.010376 -0.018005 0.877000
-0.004450 -0.022100 0.882000
-0.004460 -0.026517 0.884000
0.019017 0.040064 0.876000
-0.020678 -0.012085 0.893000
-0.019809 -0.025146 0.887000
-0.010075 -0.038394 0.898000
-0.004082 -0.016274 0.881000
0.026199 0.011568 0.875000
0.005767 0.014696 0.890000
0.018038 0.008021 0.881000
-0.009929 -0.009063 0.885000
0.013953 -0.014722 0.875000
0.006766 -0.014395 0.877000
0.017655 0.004752 0.880000
0.043884 0.030571 0.883000
0.013655 0.003661 0.879000
-0.015046 0.027029 0.886000
-0.019036 0.028091 0.885000
-0.018227 0.003375 0.899000
0.001376 0.014746 0.893000
