0.008571 -0.023058 0.877000
-0.021220 0.026899 0.870000
-0.011121 -0.039650 0.893000
0.019511 -0.041340 0.882000
-0.019400 -0.014891 0.885000
0.020915 -0.019538 0.865000
0.008667 0.016154 0.851000
0.017174 0.007793 0.856000
-0.026053 0.023118 0.876000
0.011429 0.022379 0.848000
0.002467 -0.029960 0.889000
-0.042717 0.025261 0.863000
-0.022238 -0.001045 0.882000
-0.016176 -0.020423 0.888000
0.023344 -0.038175 0.876000
-0.041083 0.013944 0.866000
-0.004119 -0.022276 0.889000
-0.022878 0.037069 0.865000
0.002071 -0.014739 0.876000
-0.017963 -0.023659 0.886000
-0.009211 -0.011261 0.886000
0.029698 -0.032617 0.872000
-0.038633 0.027163 0.867000
-0.024723 -0.022412 0.880000
-0.003690 -0.004633 0.874000
-0.008529 -0.019759 0.891000
-0.006761 0.029182 0.853000
-0.018799 0.018029 0.874000
-0.018692 -0.023659 0.886000
-0.027197 0.001850 0.878000
0.009240 -0.015390 0.872000
-0.013282 -0.017905 0.890000
-0.028938 0.010139 0.876000
-0.003989 0.014217 0.861000
-0.017042 0.043831 0.858000
-0.009348 0.019624 0.865000
0.013666 0.002159 0.857000
0.022261 -0.016277 0.862000
0.013555 0.021033 0.850000
0.011861 0.008126 0.854000
-0.003028 -0.025626 0.891000
0.003437 0.007450 0.857000
-0.001134 0.038344 0.846000
-0.011745 0.026528 0.858000
-0.015080 -0.012017 0.888000
0.019090 -0.014520 0.863000
0.002342 0.035127 0.844000
0.017273 -0.035049 0.879000
0.036876 -0.017184 0.872000
-0.006279 -0.011599 0.884000
-0.021366 0.019152 0.876000
-0.013896 0.029775 0.860000
0.012814 -0.018240 0.871000
-0.030345 0.006886 0.875000
-0.011365 0.034921 0.856000
-0.030241 0.033421 0.872000
-0.042411 0.020312 0.864000
0.030229 -0.038218 0.877000
-0.010822 0.051904 0.869000
-0.031426 -0.010761 0.875000
0.031276 -0.016709 0.866000
0.007901 0.030958 0.844000
0.003896 -0.026064 0.881000
-0.003929 0.036689 0.848000
0.001736 -0.029228 0.889000
-0.014365 -0.014958 0.889000
-0.005929 -0.015272 0.886000
0.017854 -0.028669 0.872000
0.008728 0.002864 0.857000
0.004910 -0.009960 0.868000
0.027197 -0.011652 0.861000
-0.024723 -0.012633 0.880000
0.002345 0.038298 0.845000
0.004079 0.033042 0.844000
-0.016864 0.025022 0.867000
0.007553 0.035127 0.844000
0.007343 -0.001727 0.860000
-0.018455 0.042066 0.858000
0.000962 0.024589 0.852000
0.039479 -0.016504 0.874000
0.009798 0.000042 0.858000
-0.026024 0.024532 0.875000
0.003485 -0.009972 0.869000
0.021907 -0.016632 0.862000
-0.041178 0.013261 0.868000
-0.015648 0.045650 0.859000
0.005340 -0.025672 0.880000
-0.014731 -0.022642 0.889000
-0.009940 -0.009437 0.886000
-0.020268 0.040394 0.860000
0.009323 0.023747 0.847000
-0.036576 0.025795 0.869000
0.010411 -0.030381 0.880000
-0.004840 -0.018575 0.887000
0.017628 -0.008108 0.861000
-0.012819 0.031508 0.859000
-0.030671 0.012274 0.874000
-0.027011 0.032344 0.872000
-0.008527 0.027458 0.854000
0.008258 0.035516 0.845000
0.004616 -0.024223 0.880000
-0.003032 -0.027858 0.892000
-0.021073 0.034892 0.864000
0.002722 0.019023 0.854000
0.007723 -0.006351 0.863000
-0.009392 0.007554 0.869000
-0.031750 0.006158 0.874000
-0.028249 0.002570 0.877000
0.011941 -0.038246 0.886000
-0.010308 0.041615 0.856000
0.035759 -0.019315 0.871000
-0.011843 -0.026022 0.892000
0.027615 -0.018072 0.863000
0.013158 -0.017145 0.870000
0.023736 -0.020938 0.864000
-0.005875 -0.009352 0.878000
0.016642 -0.013486 0.865000
0.019732 -0.004559 0.860000
-0.010130 0.005420 0.871000
0.014101 -0.008827 0.862000
0.013937 0.013017 0.852000
0.028720 -0.038131 0.875000
0.010871 -0.039428 0.888000
0.003851 -0.013221 0.871000
0.016841 0.002511 0.857000
0.014965 -0.024334 0.871000
0.009683 0.022728 0.848000
-0.010308 0.029637 0.856000
-0.038633 0.021096 0.867000
-0.001937 -0.033845 0.895000
-0.022238 -0.009758 0.882000
-0.019378 0.001135 0.884000
0.011184 0.004622 0.856000
-0.007454 -0.027184 0.894000
-0.027527 0.007984 0.877000
-0.003001 -0.014857 0.883000
-0.020833 -0.011235 0.884000
0.018865 -0.022132 0.869000
-0.005217 -0.020446 0.889000
0.010127 0.005327 0.856000
-0.032432 0.019805 0.873000
0.021552 -0.016277 0.862000
0.018444 -0.017779 0.866000
-0.001141 0.027362 0.851000
0.008626 0.024096 0.847000
0.020440 -0.002435 0.860000
0.005395 -0.033619 0.889000
0.003437 0.007802 0.857000
-0.013648 -0.032557 0.890000
0.030955 -0.023152 0.867000
-0.021537 -0.006498 0.883000
-0.019251 0.035521 0.862000
-0.007560 0.013200 0.864000
-0.013173 0.029033 0.859000
0.002023 0.016601 0.856000
-0.015739 -0.000684 0.884000
0.009301 0.033777 0.845000
0.019024 -0.005975 0.860000
0.001652 0.039736 0.846000
-0.018328 -0.012355 0.886000
0.003790 0.006744 0.857000
0.008954 0.033429 0.845000
-0.009424 0.003273 0.872000
-0.029298 0.011220 0.876000
-0.020470 -0.001412 0.884000
0.017018 -0.015284 0.866000
0.012541 -0.029916 0.877000
-0.013297 -0.021959 0.891000
-0.030311 0.025583 0.874000
0.002467 -0.030325 0.889000
-0.020833 -0.010871 0.884000
-0.028249 0.017730 0.877000
-0.021390 0.017008 0.877000
0.017234 -0.032443 0.877000
-0.006703 -0.022718 0.892000
0.017751 -0.018156 0.867000
0.030172 -0.015978 0.865000
-0.002542 0.025611 0.851000
0.002111 -0.035608 0.893000
0.004621 -0.020987 0.881000
0.029339 -0.032258 0.872000
-0.001558 -0.024837 0.889000
-0.009716 0.017864 0.866000
-0.022851 0.038448 0.864000
0.012931 0.006376 0.855000
0.013220 0.015103 0.851000
-0.022991 -0.032665 0.883000
-0.022912 0.010909 0.880000
0.012008 -0.043596 0.891000
0.003772 0.019000 0.853000
-0.030345 0.002924 0.875000
-0.023503 0.022732 0.875000
0.021852 -0.033051 0.874000
-0.039657 0.021072 0.866000
-0.029298 -0.012215 0.876000
0.021172 -0.003856 0.861000
0.039839 -0.013267 0.874000
0.006851 -0.033946 0.888000
-0.005420 0.017447 0.863000
-0.006410 0.030937 0.853000
0.003565 -0.031789 0.889000
0.006964 0.003570 0.857000
-0.026143 0.004385 0.879000
-0.011718 0.034569 0.856000
0.005823 0.028212 0.845000
0.023596 -0.033335 0.872000
-0.019605 0.037295 0.862000
-0.013252 -0.009459 0.888000
-0.005123 -0.002472 0.873000
-0.023664 -0.002857 0.881000
-0.002926 0.016344 0.861000
-0.011193 0.052322 0.870000
0.005475 0.038298 0.845000
0.003385 0.035127 0.844000
-0.010754 -0.039283 0.893000
0.019732 -0.004205 0.860000
0.011792 0.018911 0.849000
-0.022238 -0.016655 0.882000
0.007607 0.018584 0.850000
-0.021146 0.030731 0.867000
0.006354 -0.013564 0.870000
0.014422 -0.003851 0.860000
0.020440 -0.001727 0.860000
-0.000093 -0.015548 0.881000
0.004464 0.021758 0.851000
0.026519 -0.018406 0.862000
-0.030345 0.005805 0.875000
-0.000094 -0.031162 0.892000
-0.016176 -0.023713 0.888000
-0.025399 0.046379 0.866000
0.002083 -0.017724 0.881000
-0.022825 0.039824 0.863000
-0.028249 -0.017644 0.877000
0.014101 -0.008117 0.862000
-0.025419 -0.013704 0.879000
0.008326 0.015121 0.852000
-0.028577 0.013744 0.876000
-0.016085 0.002588 0.883000
-0.017639 0.022602 0.870000
-0.013173 0.030801 0.859000
0.017977 -0.033925 0.878000
0.004432 0.029951 0.845000
0.011060 -0.024058 0.874000
0.012579 0.005321 0.855000
0.026049 -0.031468 0.870000
0.029426 -0.015960 0.864000
-0.013188 0.025174 0.860000
-0.004525 -0.036136 0.897000
0.016738 -0.022158 0.870000
0.024035 -0.017342 0.862000
-0.000441 0.025290 0.852000
0.014254 0.022082 0.850000
-0.013526 0.032569 0.859000
0.005683 -0.017283 0.877000
0.038715 -0.012533 0.873000
-0.028249 -0.010063 0.877000
0.028326 -0.014876 0.863000
-0.027570 0.040366 0.867000
-0.025086 0.000768 0.880000
0.007562 0.028560 0.845000
-0.008194 0.024704 0.856000
-0.012563 -0.027827 0.891000
0.012127 0.027266 0.848000
0.012255 0.002864 0.857000
-0.031822 -0.011134 0.876000
-0.014250 0.046765 0.860000
-0.000090 0.030093 0.849000
-0.015010 0.047994 0.863000
-0.014923 0.044185 0.858000
0.021172 -0.001021 0.861000
-0.017300 0.021194 0.871000
-0.014250 0.027297 0.860000
-0.030345 0.013728 0.875000
0.018444 -0.018135 0.866000
-0.028938 0.022397 0.876000
-0.022188 0.012720 0.880000
0.028198 -0.031468 0.870000
-0.028938 0.000043 0.876000
0.003037 0.036863 0.844000
-0.005982 -0.027184 0.894000
-0.017020 0.014449 0.875000
-0.029985 -0.001757 0.875000
0.022545 -0.033013 0.873000
-0.015508 0.051665 0.871000
-0.001915 0.008057 0.885000
-0.015167 0.016552 0.872000
0.007308 0.005327 0.856000
0.007562 0.029256 0.845000
-0.007054 -0.020103 0.890000
-0.015376 -0.001048 0.884000
0.015120 -0.033640 0.880000
0.009144 -0.008127 0.863000
-0.018671 -0.001049 0.885000
-0.011843 -0.035935 0.892000
-0.040370 0.018577 0.866000
-0.005848 -0.004633 0.874000
-0.022396 0.050764 0.874000
-0.005614 -0.028656 0.894000
-0.014976 0.030164 0.861000
0.029460 -0.020962 0.865000
-0.012380 0.004380 0.878000
0.007102 -0.006792 0.874000
-0.009604 0.030341 0.856000
0.003174 -0.020648 0.882000
0.011847 0.009872 0.853000
-0.015544 0.015134 0.873000
-0.014553 0.039548 0.857000
0.012916 0.008478 0.854000
0.013906 -0.025080 0.872000
-0.018692 -0.015637 0.886000
0.009081 0.003217 0.857000
-0.020833 -0.001776 0.884000
0.011419 -0.025137 0.874000
0.022415 -0.042429 0.882000
0.039119 -0.017943 0.874000
-0.003787 -0.035767 0.897000
0.008697 0.012344 0.854000
0.005631 -0.012118 0.869000
-0.039657 0.024636 0.866000
0.027583 -0.013794 0.862000
-0.011895 0.017211 0.869000
-0.027602 0.038626 0.868000
-0.029659 -0.011855 0.876000
0.005383 -0.030987 0.887000
-0.012879 0.023130 0.863000
0.037594 -0.013236 0.872000
-0.011000 0.034881 0.855000
0.012292 -0.037110 0.885000
-0.006357 -0.030898 0.895000
-0.029659 -0.000678 0.876000
0.023653 -0.008108 0.861000
-0.016176 -0.043449 0.888000
0.012167 -0.029161 0.876000
0.015930 -0.013842 0.865000
-0.021900 -0.011949 0.883000
-0.014944 0.005476 0.880000
-0.026949 0.034418 0.870000
0.023763 -0.023454 0.865000
0.018422 -0.016334 0.865000
0.030137 -0.014182 0.864000
-0.033113 0.030191 0.872000
0.034961 -0.008541 0.869000
-0.032073 -0.003550 0.873000
0.013826 -0.013874 0.867000
-0.009783 0.003632 0.872000
0.003521 -0.016580 0.878000
-0.014941 0.035397 0.859000
0.010506 -0.038697 0.888000
-0.026836 -0.002486 0.878000
-0.025086 -0.007925 0.880000
-0.022964 -0.027909 0.882000
0.026550 -0.020559 0.863000
0.010340 -0.018303 0.874000
-0.030671 0.020188 0.874000
0.022389 -0.042018 0.881000
-0.019764 -0.028004 0.885000
-0.014015 -0.020103 0.890000
-0.033472 0.002914 0.872000
0.025245 -0.027077 0.867000
-0.017082 0.036146 0.860000
-0.000090 0.022889 0.854000
-0.011489 -0.039650 0.893000
0.004490 0.008145 0.856000
0.023317 -0.037411 0.875000
-0.021537 -0.025760 0.883000
-0.034150 0.001835 0.871000
-0.009413 0.003628 0.871000
-0.031390 -0.006072 0.874000
-0.023328 -0.031902 0.882000
0.014271 0.016154 0.851000
-0.036933 0.023649 0.869000
-0.017578 0.048930 0.867000
-0.032791 0.001840 0.873000
-0.011392 0.042772 0.858000
-0.008646 0.016795 0.866000
-0.005193 -0.014162 0.885000
-0.008846 -0.010896 0.886000
-0.007824 0.033082 0.854000
-0.035222 -0.005079 0.889000
0.013035 -0.039340 0.886000
-0.016825 0.048461 0.865000
0.014914 -0.015676 0.868000
-0.012858 -0.006155 0.886000
-0.020331 0.014498 0.878000
0.011930 -0.002786 0.859000
0.028035 -0.025235 0.865000
0.016117 0.004975 0.856000
0.036834 -0.009995 0.871000
-0.012563 -0.029294 0.891000
0.015623 -0.043449 0.888000
-0.020331 0.014137 0.878000
-0.024723 -0.026034 0.880000
-0.010344 0.043529 0.859000
0.011523 0.007432 0.855000
-0.020833 -0.037432 0.884000
-0.016564 0.021886 0.870000
0.010080 0.013367 0.852000
-0.032432 0.023758 0.873000
0.026936 -0.023427 0.864000
-0.014740 0.050416 0.868000
0.019755 -0.010943 0.861000
-0.020790 0.030731 0.867000
-0.000456 -0.015548 0.881000
-0.026143 0.037868 0.867000
-0.002974 -0.009320 0.875000
-0.017517 0.029914 0.864000
0.030172 -0.021318 0.865000
0.031027 -0.028213 0.869000
0.011954 -0.040114 0.887000
-0.008946 -0.040890 0.896000
-0.016689 0.044185 0.858000
-0.007822 -0.026449 0.894000
0.009433 0.002864 0.857000
-0.024723 -0.014444 0.880000
-0.017261 0.024006 0.869000
-0.009294 -0.033440 0.894000
-0.019787 0.025824 0.870000
-0.039301 0.012161 0.866000
-0.015330 0.029101 0.861000
-0.010685 0.042419 0.858000
-0.021900 -0.023579 0.883000
-0.003749 -0.021154 0.888000
-0.004293 0.025961 0.851000
-0.028577 0.011581 0.876000
0.026857 -0.035529 0.873000
-0.013434 0.007615 0.876000
0.000968 0.015562 0.857000
0.004133 0.011655 0.855000
0.011861 0.008478 0.854000
-0.025217 0.030191 0.872000
-0.027895 0.041389 0.866000
0.000260 0.028729 0.850000
0.003385 0.034084 0.844000
-0.025781 0.001129 0.879000
-0.030276 0.031662 0.873000
0.015324 -0.021108 0.871000
0.021881 -0.013069 0.861000
0.004853 0.004633 0.858000
-0.016176 -0.037967 0.888000
0.009798 -0.000664 0.858000
-0.018102 0.042066 0.858000
-0.002277 -0.017057 0.884000
-0.015684 0.029455 0.861000
-0.023754 0.028722 0.871000
-0.014200 0.041311 0.857000
0.012356 -0.011337 0.864000
0.019801 -0.015231 0.863000
-0.010633 -0.005408 0.883000
-0.016336 0.039241 0.858000
-0.012169 -0.013128 0.889000
-0.013297 -0.033327 0.891000
-0.003038 -0.029760 0.894000
-0.025419 0.005470 0.879000
0.028681 -0.017007 0.863000
0.004474 0.017947 0.853000
-0.008520 -0.017905 0.890000
-0.017963 -0.010167 0.886000
0.010026 -0.029589 0.878000
-0.003330 -0.006432 0.874000
-0.022140 0.036670 0.864000
0.011072 -0.021565 0.875000
-0.009221 -0.012734 0.887000
-0.019787 0.024750 0.870000
0.008606 0.035516 0.845000
-0.025159 0.032986 0.870000
-0.017598 -0.005061 0.886000
-0.033472 0.007221 0.872000
0.011210 -0.000664 0.858000
0.004658 -0.031022 0.888000
-0.025781 0.006917 0.879000
0.021527 -0.013069 0.861000
-0.024361 -0.009736 0.880000
0.023184 -0.028961 0.870000
-0.011425 -0.011652 0.888000
-0.044240 0.021404 0.865000
-0.017142 0.032721 0.863000
0.014825 -0.038523 0.884000
-0.023449 0.025195 0.873000
-0.021537 -0.017401 0.883000
-0.015597 0.010860 0.876000
-0.008025 -0.004283 0.876000
-0.017102 0.034417 0.861000
0.001374 -0.033365 0.892000
0.022468 -0.028245 0.870000
0.011590 -0.005267 0.860000
-0.026143 -0.020578 0.879000
0.002801 -0.016237 0.879000
-0.017395 0.039947 0.858000
-0.027888 0.011233 0.877000
-0.014681 -0.004332 0.886000
0.040067 -0.018046 0.879000
-0.024026 -0.019537 0.881000
-0.032073 -0.007862 0.873000
-0.025419 0.004385 0.879000
0.020553 -0.040160 0.880000
0.021856 -0.011638 0.860000
-0.029298 -0.006807 0.876000
0.012155 0.018234 0.850000
-0.008190 -0.026081 0.894000
0.017097 -0.022874 0.870000
0.009488 -0.006698 0.862000
-0.015097 -0.034716 0.889000
-0.024026 -0.015911 0.881000
0.017878 0.010259 0.856000
-0.025781 0.003299 0.879000
-0.027983 -0.021326 0.880000
-0.028111 -0.021787 0.884000
-0.021415 0.016305 0.878000
-0.012115 -0.005420 0.885000
0.012470 -0.018979 0.872000
-0.003635 0.015635 0.861000
0.009649 0.034473 0.845000
0.001704 -0.013251 0.873000
-0.002676 -0.034252 0.896000
0.011034 -0.016466 0.872000
-0.016176 -0.020789 0.888000
0.031669 -0.017799 0.867000
-0.009403 0.005414 0.870000
-0.019184 0.040347 0.859000
0.027197 -0.010589 0.861000
-0.032754 0.034138 0.872000
0.000260 0.025611 0.851000
-0.006650 -0.013434 0.885000
0.001652 0.039388 0.846000
0.016469 0.003918 0.856000
0.020464 -0.006336 0.861000
-0.034150 0.010081 0.871000
0.004079 0.036863 0.844000
0.017941 -0.003493 0.859000
0.025514 -0.023427 0.864000
-0.023301 -0.009384 0.881000
0.014858 -0.041892 0.886000
0.010352 -0.023726 0.875000
-0.027527 -0.008620 0.877000
0.028133 -0.029609 0.868000
-0.019764 -0.022540 0.885000
0.030416 -0.031181 0.872000
-0.022964 -0.025730 0.882000
0.008606 0.029256 0.845000
-0.022213 0.010196 0.881000
-0.005123 -0.001035 0.873000
-0.010429 0.019290 0.866000
-0.025000 0.020257 0.877000
-0.022163 0.014876 0.879000
-0.001142 0.024939 0.852000
-0.019273 0.046928 0.863000
-0.019983 0.046573 0.863000
-0.017618 -0.022591 0.887000
-0.025114 -0.027152 0.881000
-0.009076 0.000762 0.873000
-0.035543 0.009353 0.870000
0.030346 -0.029677 0.870000
-0.032791 0.004714 0.873000
-0.018328 -0.013084 0.886000
0.017273 -0.034687 0.879000
0.001673 0.014857 0.857000
0.010369 0.024445 0.847000
0.009060 0.009544 0.855000
0.001370 -0.028862 0.889000
-0.037248 0.025765 0.868000
-0.013648 -0.021202 0.890000
-0.015080 -0.009093 0.888000
-0.001893 -0.010761 0.875000
-0.013542 0.031545 0.860000
0.004458 0.023482 0.850000
-0.021000 0.044339 0.861000
-0.004994 0.028413 0.851000
0.015060 0.004270 0.856000
-0.026083 0.019174 0.877000
-0.033472 0.010810 0.872000
-0.022238 -0.019922 0.882000
-0.004520 -0.033883 0.896000
-0.008568 -0.038634 0.895000
-0.030345 -0.009320 0.875000
0.009720 -0.031211 0.883000
-0.007446 0.036469 0.851000
-0.022601 -0.031176 0.882000
-0.015080 -0.012383 0.888000
0.000962 0.024238 0.852000
0.004229 -0.015082 0.875000
0.002365 0.023186 0.852000
-0.005350 0.029498 0.852000
-0.012281 0.011873 0.871000
-0.011498 0.021072 0.866000
0.010418 0.015804 0.851000
0.008636 0.021332 0.848000
-0.025419 -0.009001 0.879000
0.026079 -0.032938 0.871000
0.025071 -0.014132 0.861000
0.010357 0.026853 0.846000
0.029036 -0.010968 0.863000
-0.024361 -0.008287 0.880000
0.021369 -0.025351 0.869000
0.010541 -0.007045 0.861000
-0.025875 0.032986 0.870000
-0.010375 -0.022718 0.892000
-0.017811 0.035834 0.861000
0.002459 -0.026212 0.886000
0.014965 -0.021825 0.871000
-0.011121 -0.040386 0.893000
-0.033472 0.020500 0.872000
-0.042327 0.014482 0.877000
0.003048 0.028628 0.847000
-0.001194 -0.028560 0.891000
-0.015463 -0.016421 0.889000
-0.010316 -0.011273 0.887000
-0.025429 0.036441 0.867000
0.020794 -0.009514 0.860000
0.026581 -0.022716 0.864000
-0.038320 0.008617 0.868000
0.026642 -0.026333 0.866000
-0.006293 -0.014907 0.886000
-0.021439 0.014153 0.879000
0.026874 -0.016277 0.862000
-0.027527 -0.005010 0.877000
-0.023301 -0.023526 0.881000
-0.026414 0.022397 0.876000
-0.008165 0.040416 0.853000
-0.004988 0.035026 0.850000
-0.014731 -0.038009 0.889000
0.037551 -0.008561 0.871000
-0.017963 -0.035328 0.886000
-0.003783 -0.032777 0.896000
-0.009065 0.002196 0.872000
0.016661 -0.015997 0.866000
0.000961 0.025961 0.851000
-0.025159 0.032628 0.870000
-0.010477 0.007204 0.870000
0.033096 -0.011019 0.867000
-0.005234 -0.024554 0.892000
-0.013252 -0.009824 0.888000
0.011589 -0.039019 0.887000
0.018295 -0.002786 0.859000
-0.025693 0.023118 0.876000
0.019709 0.000042 0.859000
-0.014731 -0.025569 0.889000
-0.022470 0.038759 0.863000
0.018192 -0.027202 0.871000
-0.031030 -0.001755 0.874000
-0.029232 0.029900 0.874000
-0.010363 -0.019759 0.891000
0.020237 -0.042066 0.882000
-0.001924 -0.024471 0.889000
-0.008280 0.017132 0.865000
-0.020886 0.025854 0.871000
-0.027888 -0.013673 0.877000
0.014129 -0.041163 0.886000
0.012770 -0.014604 0.868000
0.009301 0.030647 0.845000
-0.020106 -0.012691 0.884000
-0.019891 0.041761 0.859000
0.011432 -0.022645 0.875000
0.001722 -0.018833 0.882000
0.016380 -0.025739 0.870000
0.010908 -0.042862 0.891000
-0.041700 0.026358 0.864000
-0.004644 0.028063 0.851000
0.039479 -0.012187 0.874000
-0.009608 -0.015324 0.889000
-0.015312 0.033315 0.860000
0.012667 -0.007045 0.861000
0.023397 -0.040791 0.878000
-0.001505 0.012770 0.859000
-0.023664 -0.002495 0.881000
0.001345 -0.012892 0.873000
-0.043756 0.016780 0.884000
-0.007379 -0.011612 0.885000
-0.018418 0.018727 0.873000
0.011509 0.008478 0.854000
-0.034509 0.031590 0.871000
-0.022238 0.005852 0.882000
-0.025696 0.043427 0.864000
-0.028120 0.030225 0.873000
-0.012466 0.025144 0.859000
0.035759 -0.017523 0.871000
-0.027197 -0.001041 0.878000
-0.016786 0.030945 0.863000
0.028293 -0.013439 0.862000
-0.019093 0.050590 0.871000
0.001376 -0.034505 0.893000
-0.002676 -0.033146 0.896000
0.006058 -0.020216 0.879000
0.007679 0.000749 0.858000
-0.006130 0.012474 0.863000
0.013345 -0.001725 0.859000
-0.001930 -0.028592 0.892000
-0.015254 0.009789 0.877000
0.011523 0.006025 0.855000
-0.033831 0.007939 0.872000
0.032063 -0.025679 0.868000
-0.001184 -0.017401 0.883000
-0.032754 0.011169 0.872000
-0.017253 -0.014559 0.887000
-0.014015 -0.015707 0.890000
0.010492 0.002511 0.857000
0.014862 -0.012418 0.865000
0.005128 0.030299 0.845000
0.019024 -0.007391 0.860000
-0.027197 -0.002486 0.878000
0.012270 -0.000311 0.858000
0.023353 -0.018783 0.863000
-0.004283 0.039178 0.849000
-0.019400 -0.025454 0.885000
0.010352 -0.026967 0.875000
-0.029298 -0.005725 0.876000
0.022135 -0.028994 0.871000
-0.000091 0.014168 0.858000
0.035319 -0.009256 0.869000
-0.013282 -0.015707 0.890000
-0.030706 -0.006079 0.875000
0.006332 -0.009592 0.867000
-0.013388 0.053221 0.873000
-0.006137 0.009644 0.864000
-0.016888 -0.012369 0.887000
-0.035902 0.024750 0.870000
0.015875 -0.008827 0.862000
-0.020766 0.032478 0.866000
-0.037963 0.029338 0.868000
-0.017963 -0.022201 0.886000
0.010920 -0.009548 0.863000
-0.008539 -0.021250 0.892000
0.000635 -0.021811 0.885000
-0.027197 -0.003570 0.878000
-0.012939 0.050357 0.867000
-0.012084 0.041311 0.857000
-0.028643 -0.018748 0.878000
0.015664 -0.019293 0.870000
-0.027729 0.031626 0.872000
-0.010657 -0.007970 0.885000
-0.038276 0.012889 0.867000
-0.013896 0.030483 0.860000
-0.008537 0.030306 0.855000
-0.013664 -0.028927 0.891000
-0.026836 0.007993 0.878000
0.011249 -0.041668 0.889000
0.002002 0.030371 0.847000
-0.026836 -0.017302 0.878000
0.007308 0.005679 0.856000
-0.012183 -0.015707 0.890000
-0.033831 0.021577 0.872000
0.028262 -0.033335 0.872000
-0.023395 0.029081 0.871000
0.011958 -0.006336 0.861000
0.025899 -0.024523 0.865000
0.004427 0.037211 0.844000
-0.016001 0.036458 0.859000
0.013329 -0.000664 0.858000
0.001343 -0.011442 0.872000
0.004485 0.013415 0.855000
0.002779 -0.012518 0.872000
0.036128 -0.022050 0.880000
-0.024361 -0.017342 0.880000
-0.010282 -0.007233 0.884000
-0.019057 -0.042257 0.886000
-0.028545 0.026333 0.875000
0.014690 0.005321 0.855000
0.004448 0.025869 0.848000
-0.007104 0.034758 0.852000
0.015535 -0.038480 0.883000
-0.037248 0.023979 0.868000
-0.019400 -0.017440 0.885000
0.015358 0.019703 0.853000
0.013547 -0.021132 0.872000
0.002021 0.018693 0.855000
0.013531 -0.018957 0.871000
-0.033472 0.004709 0.872000
-0.040370 0.018934 0.866000
0.000963 0.022862 0.853000
0.012844 -0.024749 0.873000
-0.017281 0.021886 0.870000
-0.003045 -0.034252 0.896000
-0.027527 0.001126 0.877000
-0.037605 0.013976 0.868000
0.014607 -0.020391 0.871000
0.021983 -0.020250 0.865000
0.003221 -0.036056 0.895000
0.005540 0.013415 0.855000
-0.000786 0.034862 0.846000
-0.031750 0.008317 0.874000
-0.029466 -0.019781 0.892000
0.015746 0.007432 0.855000
0.026642 -0.027402 0.866000
0.017731 -0.016709 0.866000
0.028293 -0.012730 0.862000
-0.029625 0.008326 0.875000
-0.001854 0.021559 0.857000
-0.004994 0.029113 0.851000
-0.031390 0.014072 0.874000
-0.013700 0.017231 0.870000
-0.017963 -0.037881 0.886000
0.026980 -0.040384 0.877000
0.024745 -0.017342 0.862000
-0.019400 -0.039295 0.885000
0.006867 0.028908 0.845000
-0.027991 0.037240 0.869000
-0.017598 -0.008343 0.886000
-0.022912 0.012720 0.880000
-0.004884 -0.029425 0.895000
0.008385 0.000042 0.858000
-0.004644 0.027712 0.851000
-0.011718 0.035626 0.856000
0.002061 -0.011801 0.872000
-0.033113 -0.004623 0.872000
-0.022166 0.035645 0.865000
0.021369 -0.026424 0.869000
-0.010661 0.040911 0.856000
-0.010972 -0.001770 0.881000
0.008921 -0.019787 0.876000
-0.032754 0.024448 0.872000
-0.032073 0.028788 0.873000
-0.028023 0.036567 0.870000
0.025691 -0.032184 0.870000
-0.029917 0.032022 0.873000
-0.011489 -0.041121 0.893000
0.026519 -0.016277 0.862000
-0.016176 -0.038697 0.888000
0.018887 -0.024664 0.870000
-0.026053 0.022397 0.876000
-0.015811 -0.014210 0.888000
-0.003049 -0.036505 0.897000
-0.020470 -0.014874 0.884000
-0.024801 0.031912 0.870000
0.017214 0.000749 0.858000
0.003080 0.009555 0.856000
-0.029985 0.016609 0.875000
-0.027527 0.013760 0.877000
0.023759 -0.040430 0.878000
-0.019385 0.027909 0.868000
-0.022964 -0.025367 0.882000
0.009511 -0.009914 0.864000
-0.019924 0.017710 0.876000
-0.029985 0.010847 0.875000
-0.030345 0.035336 0.875000
-0.020423 0.007667 0.882000
-0.026504 -0.016237 0.879000
0.014288 0.012666 0.852000
0.003044 0.039388 0.846000
0.001316 0.020780 0.854000
-0.000464 -0.036096 0.896000
0.022468 -0.029319 0.870000
0.012844 -0.026905 0.873000
0.024831 -0.023810 0.865000
-0.031750 0.005439 0.874000
-0.011538 0.016853 0.869000
-0.001531 -0.009310 0.874000
0.019603 -0.025739 0.870000
-0.037605 0.022193 0.868000
-0.019318 0.031728 0.865000
-0.025390 0.016305 0.878000
-0.005775 0.012474 0.863000
0.012484 -0.023312 0.873000
0.021295 -0.022056 0.866000
0.000262 0.017679 0.857000
-0.033831 0.001479 0.872000
-0.021900 -0.017401 0.883000
-0.008826 -0.008325 0.884000
0.024035 -0.016987 0.862000
-0.017790 0.037208 0.860000
0.020440 -0.001019 0.860000
0.014965 -0.024693 0.871000
0.002814 -0.021762 0.883000
0.013547 -0.020773 0.872000
-0.006130 0.018158 0.863000
0.000615 0.014504 0.857000
-0.002882 0.037387 0.848000
-0.042816 0.017844 0.865000
-0.022294 0.028331 0.870000
-0.000090 0.024939 0.852000
0.015341 -0.028669 0.872000
0.005310 -0.015443 0.875000
0.002026 0.016268 0.857000
-0.009013 0.051428 0.867000
0.000626 -0.010006 0.872000
0.021902 -0.036372 0.876000
-0.006395 0.036118 0.851000
0.017194 0.002159 0.857000
0.000271 -0.021447 0.885000
-0.015445 -0.011286 0.888000
-0.012197 0.022116 0.865000
-0.014906 0.038137 0.857000
-0.024389 -0.027152 0.881000
0.009992 -0.019764 0.875000
-0.014944 0.005114 0.880000
0.019400 -0.034609 0.877000
-0.022163 0.014515 0.879000
-0.012480 0.046765 0.860000
0.025809 -0.018761 0.862000
-0.042717 0.022065 0.863000
0.032728 -0.036833 0.896000
-0.014604 0.033669 0.860000
0.008182 -0.016144 0.874000
-0.013388 0.013338 0.873000
-0.007735 -0.009416 0.884000
0.025809 -0.018406 0.862000
-0.037849 0.002585 0.882000
-0.017935 0.026449 0.867000
-0.021173 -0.022125 0.883000
-0.028577 0.010860 0.876000
-0.032432 0.000043 0.873000
-0.002205 0.022590 0.856000
-0.017395 0.039241 0.858000
0.015682 -0.027202 0.871000
0.008678 -0.036139 0.888000
0.003048 0.029674 0.847000
0.018317 -0.032804 0.877000
-0.028217 0.021315 0.876000
0.020818 -0.004210 0.861000
-0.038633 0.023594 0.867000
0.020109 -0.012006 0.861000
-0.023999 0.011271 0.880000
-0.013763 0.011914 0.874000
-0.011463 -0.018659 0.891000
0.027061 -0.029252 0.868000
0.029104 -0.022030 0.865000
-0.027824 0.024892 0.875000
-0.018562 0.033431 0.863000
-0.012625 0.016514 0.870000
0.023873 -0.029643 0.869000
-0.023301 -0.025701 0.881000
-0.029985 0.012288 0.875000
0.016060 0.015490 0.853000
0.028748 -0.023810 0.865000
0.005892 0.011303 0.855000
-0.015828 -0.025569 0.889000
-0.033472 0.031985 0.872000
0.005188 0.010599 0.855000
-0.029625 0.009767 0.875000
-0.012267 0.015440 0.870000
-0.002530 0.036297 0.847000
-0.015445 -0.012748 0.888000
-0.013936 -0.004327 0.885000
-0.006500 0.009655 0.865000
0.013698 -0.001372 0.859000
-0.019400 -0.034924 0.885000
0.020511 -0.016652 0.863000
-0.022860 0.017028 0.878000
-0.015463 -0.039839 0.889000
-0.026805 0.019896 0.877000
-0.012112 0.024791 0.859000
-0.009968 0.025439 0.857000
0.015592 -0.014214 0.866000
-0.035185 0.005056 0.870000
-0.011051 0.024084 0.859000
0.020133 -0.014858 0.862000
-0.009963 -0.012748 0.888000
0.004808 0.022432 0.850000
-0.034102 -0.006107 0.879000
-0.028152 0.028102 0.874000
-0.031390 0.002561 0.874000
-0.000798 0.017013 0.859000
-0.038006 0.006481 0.869000
-0.007102 -0.036465 0.896000
0.036834 -0.009278 0.871000
-0.000788 0.032152 0.848000
-0.038633 0.016458 0.867000
0.007505 -0.028537 0.879000
-0.012930 -0.041762 0.891000
-0.007824 0.032028 0.854000
-0.007805 0.039317 0.852000
-0.016176 -0.010921 0.888000
-0.034867 0.007930 0.871000
-0.041036 0.018556 0.865000
0.040605 -0.013642 0.875000
0.028326 -0.018428 0.863000
-0.012858 -0.006885 0.886000
-0.031030 0.016950 0.874000
-0.006080 0.023647 0.856000
-0.019937 0.037960 0.861000
-0.012084 0.034257 0.857000
-0.010673 0.025439 0.857000
0.015025 0.007775 0.854000
-0.029780 0.041890 0.869000
0.017415 -0.019606 0.868000
-0.023301 0.005120 0.881000
-0.005602 -0.024187 0.892000
-0.010657 -0.008334 0.885000
-0.015046 -0.003968 0.886000
0.005899 0.007089 0.856000
0.005540 0.008136 0.855000
-0.018334 0.049758 0.869000
0.024745 -0.018761 0.862000
-0.018460 0.016609 0.875000
-0.022601 -0.021737 0.882000
-0.012436 -0.001772 0.882000
-0.033831 0.011169 0.872000
0.011262 -0.007763 0.862000
0.008688 -0.037643 0.889000
0.033849 -0.010317 0.868000
0.022339 -0.041200 0.879000
-0.016888 -0.009448 0.887000
-0.042411 0.018534 0.864000
-0.032432 -0.002113 0.873000
-0.006848 0.011778 0.864000
0.006171 0.029256 0.845000
0.031745 -0.035049 0.879000
0.039479 -0.015425 0.874000
-0.013747 0.012978 0.873000
-0.029298 -0.013297 0.876000
0.009070 0.003565 0.856000
-0.014847 -0.028352 0.896000
-0.011000 0.035936 0.855000
-0.008135 -0.015672 0.888000
0.016431 0.015156 0.854000
-0.011817 -0.016074 0.890000
-0.018692 -0.010531 0.886000
0.026488 -0.009171 0.861000
0.003900 -0.022826 0.882000
-0.004133 -0.026389 0.892000
-0.001839 0.030129 0.850000
0.000606 0.036907 0.845000
0.012900 0.010926 0.853000
0.000269 -0.015911 0.881000
0.018296 -0.031685 0.876000
-0.014830 -0.027952 0.895000
-0.012267 0.015798 0.870000
-0.010648 0.035936 0.855000
0.020740 -0.043083 0.888000
-0.018328 -0.017460 0.886000
-0.026024 0.024892 0.875000
-0.014381 -0.024499 0.890000
0.015394 0.005673 0.855000
-0.017852 0.032365 0.863000
0.001302 0.036907 0.845000
0.010032 0.020983 0.848000
0.025543 -0.024523 0.865000
0.033453 -0.008521 0.867000
-0.007778 -0.016787 0.889000
0.025839 -0.020203 0.863000
0.024815 -0.040023 0.877000
-0.006425 0.024323 0.855000
-0.033151 -0.006424 0.873000
-0.020106 0.001499 0.884000
0.005816 0.031653 0.844000
-0.019400 -0.015255 0.885000
-0.012408 0.001130 0.880000
0.036076 -0.010699 0.870000
-0.015721 0.047994 0.863000
-0.002673 -0.031635 0.895000
-0.033831 0.010092 0.872000
-0.011039 0.025115 0.858000
0.022918 -0.012346 0.860000
0.029954 -0.029643 0.869000
0.017555 -0.030568 0.875000
0.017526 0.007793 0.856000
0.024390 -0.018406 0.862000
0.008268 0.026853 0.846000
0.003206 -0.033327 0.891000
0.012682 -0.009182 0.862000
-0.016176 -0.037601 0.888000
0.036792 -0.007835 0.870000
0.010895 -0.005982 0.861000
0.025100 -0.017342 0.862000
-0.014910 0.007271 0.878000
-0.013495 0.035668 0.857000
0.006867 0.028560 0.845000
0.019355 -0.000665 0.859000
0.012141 0.022406 0.849000
0.008258 0.027517 0.845000
0.026734 -0.031074 0.869000
0.024008 -0.008108 0.861000
-0.010308 0.027875 0.856000
0.021229 -0.038984 0.878000
0.016782 0.013399 0.854000
-0.016336 0.044538 0.858000
0.003860 -0.014329 0.873000
-0.017059 0.012316 0.877000
0.008434 -0.006706 0.863000
0.020701 -0.027919 0.871000
-0.021578 0.027257 0.870000
-0.021173 -0.006861 0.883000
0.012652 -0.005621 0.860000
-0.003364 -0.014130 0.883000
0.010151 0.000749 0.858000
0.006419 -0.021663 0.879000
0.011302 -0.012418 0.865000
-0.011800 0.023103 0.862000
0.001657 0.028346 0.849000
0.005012 -0.030223 0.886000
-0.022886 0.014876 0.879000
0.011764 0.027233 0.847000
-0.008208 -0.039415 0.896000
-0.005176 -0.011210 0.882000
-0.008876 -0.016056 0.889000
-0.007279 -0.001753 0.873000
-0.019400 -0.012341 0.885000
-0.026836 -0.002125 0.878000
-0.009230 0.035191 0.854000
0.033096 -0.011376 0.867000
-0.010030 -0.029024 0.894000
-0.010308 0.033160 0.856000
-0.013252 -0.010921 0.888000
-0.027888 0.004014 0.877000
-0.019924 0.016628 0.876000
-0.030345 0.019130 0.875000
-0.006279 -0.012327 0.884000
-0.017760 0.053043 0.876000
0.003537 -0.022463 0.882000
-0.009727 0.016458 0.867000
0.010009 0.025808 0.846000
-0.022550 0.011271 0.880000
-0.006208 -0.004274 0.874000
-0.005407 0.019887 0.861000
-0.022238 -0.003587 0.882000
-0.007471 -0.035358 0.896000
0.017195 -0.030568 0.875000
-0.038276 0.015744 0.867000
-0.008357 0.000402 0.873000
-0.023972 0.014876 0.879000
-0.013558 0.024494 0.861000
-0.032791 0.005433 0.873000
-0.017253 -0.043400 0.887000
-0.007897 0.020975 0.862000
-0.004655 0.024267 0.853000
-0.022991 -0.033028 0.883000
0.004443 0.026885 0.847000
-0.015739 0.048405 0.864000
-0.034867 0.006137 0.871000
-0.001507 0.009953 0.860000
-0.016542 -0.019692 0.888000
0.022564 -0.011284 0.860000
-0.013403 0.011554 0.874000
0.010129 -0.036829 0.887000
-0.017769 0.045297 0.859000
-0.029985 -0.005719 0.875000
-0.004495 -0.024159 0.891000
-0.011418 0.045349 0.860000
0.015394 0.006025 0.855000
-0.005344 0.027712 0.851000
0.008571 -0.025946 0.877000
0.016041 -0.022183 0.871000
0.015826 -0.033602 0.879000
0.013006 -0.003497 0.860000
-0.013158 0.034297 0.858000
0.016796 -0.029420 0.873000
0.024774 -0.021269 0.863000
-0.029985 0.008326 0.875000
0.006588 0.014453 0.854000
-0.021776 0.016305 0.878000
-0.038276 0.020740 0.867000
0.007565 -0.032046 0.886000
-0.013602 -0.007988 0.887000
-0.028249 -0.015117 0.877000
-0.022601 -0.019922 0.882000
-0.020106 -0.006869 0.884000
-0.040014 0.024280 0.866000
-0.006410 0.033044 0.853000
-0.012210 -0.039973 0.892000
-0.028938 0.005812 0.876000
0.026377 -0.030716 0.869000
-0.023972 0.016324 0.879000
-0.000813 -0.011841 0.875000
-0.000786 0.037995 0.846000
-0.019385 0.027194 0.868000
-0.024715 0.036441 0.867000
-0.003580 0.035642 0.848000
-0.032791 0.020524 0.873000
-0.037248 0.029695 0.868000
0.010003 -0.021589 0.876000
-0.020106 -0.030883 0.884000
-0.023535 0.044442 0.863000
0.018316 -0.005621 0.860000
0.007910 0.036907 0.845000
0.013619 0.007775 0.854000
-0.025781 -0.006107 0.879000
-0.029659 -0.006086 0.876000
-0.019184 0.041408 0.859000
0.015502 -0.006691 0.861000
-0.015097 -0.018251 0.889000
0.013874 -0.017503 0.870000
-0.013648 -0.035488 0.890000
-0.001488 0.040926 0.849000
-0.006343 -0.024949 0.893000
-0.037963 0.020764 0.868000
0.026650 -0.040791 0.878000
-0.032395 0.030908 0.872000
-0.020261 0.051902 0.875000
-0.011121 -0.035240 0.893000
-0.016717 0.009439 0.878000
-0.021659 -0.038332 0.888000
-0.005688 0.036776 0.850000
0.006044 -0.017644 0.877000
0.025275 -0.028895 0.868000
-0.025964 0.048550 0.873000
-0.025517 0.032628 0.870000
-0.007970 0.005056 0.870000
-0.020291 0.045048 0.861000
0.023024 -0.020938 0.864000
0.014199 -0.015676 0.868000
0.004786 0.028246 0.846000
-0.009370 0.015387 0.867000
0.006557 0.019633 0.850000
-0.007924 0.014283 0.865000
0.008258 0.028908 0.845000
-0.031030 0.010835 0.874000
-0.037571 0.001499 0.884000
-0.017253 -0.020765 0.887000
-0.028938 0.001485 0.876000
0.006766 -0.005732 0.877000
0.011550 0.002864 0.857000
-0.005570 -0.016384 0.887000
0.037997 -0.015407 0.873000
0.004780 0.030299 0.845000
-0.009446 0.000763 0.874000
0.010908 -0.008472 0.862000
0.026765 -0.032184 0.870000
-0.010661 0.033512 0.856000
-0.034509 0.025854 0.871000
-0.013848 0.035668 0.857000
0.019333 0.004986 0.858000
-0.037963 0.028266 0.868000
0.007571 0.037995 0.846000
-0.035902 0.010785 0.870000
0.016998 -0.014554 0.865000
0.001320 0.015562 0.857000
-0.005070 0.008933 0.864000
-0.038990 0.019312 0.867000
-0.028610 -0.013312 0.877000
-0.039392 0.009331 0.868000
0.004258 -0.023163 0.881000
-0.036218 0.003977 0.869000
-0.015202 0.052922 0.874000
-0.032432 -0.000676 0.873000
0.033096 -0.013160 0.867000
-0.027197 0.011607 0.878000
-0.044905 0.026423 0.878000
0.014759 -0.003140 0.859000
0.015376 0.009532 0.854000
0.013937 0.012315 0.852000
0.023461 -0.025293 0.867000
-0.023610 0.015238 0.879000
-0.018993 0.004768 0.883000
0.017608 -0.006683 0.860000
0.005134 0.028594 0.846000
-0.020493 -0.039295 0.885000
0.005182 0.015508 0.854000
-0.021173 0.001497 0.883000
-0.008424 -0.005389 0.880000
-0.004409 -0.006792 0.874000
0.013314 0.001453 0.857000
0.014506 -0.012774 0.865000
0.005279 -0.012490 0.870000
0.030528 -0.014910 0.865000
-0.029298 0.015547 0.876000
-0.018993 0.004405 0.883000
0.015709 0.015841 0.853000
0.019024 -0.003143 0.860000
-0.038276 0.012175 0.867000
-0.009117 -0.002483 0.877000
0.008708 0.006025 0.855000
-0.036218 0.026510 0.869000
0.021105 -0.043083 0.888000
-0.021173 -0.008315 0.883000
-0.025057 0.011620 0.879000
-0.022964 0.004037 0.882000
0.038356 -0.013970 0.873000
-0.008156 0.038966 0.852000
-0.012142 -0.008718 0.887000
-0.025487 0.034379 0.869000
-0.022601 -0.023552 0.882000
-0.001839 0.030828 0.850000
0.012613 -0.032628 0.882000
0.017194 0.002864 0.857000
0.014607 -0.025051 0.871000
-0.022601 -0.000682 0.882000
-0.005058 0.013524 0.862000
0.023955 -0.033335 0.872000
-0.007463 0.027426 0.853000
-0.042055 0.022446 0.864000
0.004500 0.004280 0.858000
0.007351 -0.003501 0.861000
0.002798 -0.015857 0.878000
-0.031354 0.032022 0.873000
0.035718 -0.011774 0.870000
0.016802 0.009544 0.855000
-0.028773 0.034816 0.871000
-0.012916 -0.014608 0.890000
-0.023535 0.043376 0.863000
-0.005775 0.017092 0.863000
-0.014587 0.034690 0.859000
-0.018799 0.018749 0.874000
-0.029659 -0.014379 0.876000
-0.026504 -0.018407 0.879000
-0.028249 0.005097 0.877000
-0.021900 -0.014857 0.883000
0.014254 0.022432 0.850000
-0.026836 0.017750 0.878000
0.007901 0.029916 0.844000
0.012155 0.016835 0.850000
-0.001196 -0.030061 0.892000
-0.030345 -0.003558 0.875000
0.011917 0.001455 0.858000
-0.023301 0.008021 0.881000
-0.011039 0.042772 0.858000
0.008463 -0.011007 0.866000
-0.011365 0.040558 0.856000
-0.023301 -0.018812 0.881000
-0.000787 0.033508 0.847000
-0.011759 0.043529 0.859000
-0.013841 0.004747 0.879000
-0.012819 0.044236 0.859000
0.022726 -0.041609 0.880000
-0.031030 0.011195 0.874000
-0.039346 0.012889 0.867000
-0.000444 0.010295 0.859000
0.025929 -0.026689 0.866000
0.005292 -0.014313 0.872000
0.032420 -0.008174 0.868000
-0.036218 0.029014 0.869000
0.006376 -0.015048 0.873000
-0.024334 0.014153 0.879000
-0.014731 -0.039839 0.889000
-0.002539 0.029079 0.850000
0.024701 -0.035169 0.873000
-0.020833 -0.008688 0.884000
0.001306 0.030058 0.848000
-0.039301 0.023211 0.866000
0.023651 -0.035569 0.874000
-0.033430 -0.009846 0.890000
0.006596 0.010247 0.855000
-0.023664 -0.001770 0.881000
-0.009230 0.034840 0.854000
0.024815 -0.040384 0.877000
-0.029625 0.025613 0.875000
-0.022115 0.045508 0.863000
-0.019608 0.013414 0.878000
0.012476 0.025520 0.848000
-0.005989 -0.030162 0.895000
0.025514 -0.022005 0.864000
-0.034296 -0.006505 0.884000
-0.022115 0.038048 0.863000
-0.032791 -0.001394 0.873000
-0.010095 0.009331 0.868000
0.011132 0.011965 0.852000
0.001323 0.008174 0.859000
-0.020106 -0.018876 0.884000
-0.015597 0.011581 0.876000
-0.024583 0.024892 0.875000
0.011671 -0.012789 0.866000
-0.003242 0.030514 0.851000
-0.019764 -0.033103 0.885000
-0.017983 -0.042305 0.887000
-0.025332 0.023118 0.876000
-0.026805 0.018452 0.877000
-0.011392 0.025468 0.858000
-0.014638 0.047938 0.862000
0.007607 0.019633 0.850000
-0.004455 -0.012676 0.883000
-0.022652 0.029763 0.870000
-0.031030 -0.003554 0.874000
-0.034150 0.007213 0.871000
0.008962 -0.030018 0.880000
-0.026474 0.009078 0.878000
0.038671 -0.008212 0.872000
-0.026683 0.030225 0.873000
-0.009738 0.051845 0.868000
-0.000463 -0.033808 0.894000
-0.003334 -0.005359 0.875000
-0.013983 -0.010921 0.888000
-0.021900 -0.021035 0.883000
0.005650 -0.014672 0.872000
-0.011525 0.017548 0.868000
-0.011047 -0.009448 0.887000
-0.029951 0.028461 0.874000
-0.029882 0.033780 0.872000
-0.014200 0.041664 0.857000
-0.034509 0.008647 0.871000
-0.011121 -0.037813 0.893000
0.012946 0.004975 0.856000
-0.026474 0.006548 0.878000
-0.017963 -0.014543 0.886000
0.007200 -0.031682 0.886000
0.013718 -0.036662 0.883000
-0.000091 0.013108 0.858000
-0.017253 -0.036463 0.887000
-0.004059 -0.009691 0.876000
-0.011000 0.036288 0.855000
-0.008280 0.014639 0.865000
-0.015259 0.042017 0.857000
-0.021488 0.009109 0.881000
0.002417 -0.010712 0.871000
0.001671 0.018363 0.856000
-0.011180 0.010058 0.869000
-0.009640 -0.020882 0.892000
0.030311 -0.029286 0.869000
0.003088 0.006046 0.858000
-0.006410 0.027075 0.853000
0.002709 0.025581 0.850000
0.004616 -0.025310 0.880000
-0.012281 0.013666 0.871000
0.006719 -0.014655 0.871000
0.008932 -0.028111 0.877000
0.005340 -0.023137 0.880000
-0.004644 0.031915 0.851000
-0.017618 -0.042305 0.887000
-0.018313 0.025765 0.868000
0.011432 -0.022285 0.875000
0.037193 -0.008202 0.871000
0.013354 -0.035572 0.883000
-0.015271 0.007993 0.878000
0.020630 -0.022821 0.868000
-0.009996 -0.018292 0.891000
-0.028545 0.025253 0.875000
-0.007612 0.002908 0.870000
-0.004900 -0.037655 0.898000
0.018952 -0.029780 0.873000
-0.004096 -0.014510 0.884000
-0.001184 -0.016311 0.883000
0.005122 0.030958 0.844000
-0.010417 0.049885 0.865000
-0.025781 -0.011534 0.879000
0.024928 -0.042018 0.881000
0.037997 -0.019000 0.873000
-0.015615 0.009428 0.877000
-0.027590 -0.021302 0.879000
0.024390 -0.017697 0.862000
-0.020692 0.015221 0.878000
0.007505 -0.028175 0.879000
-0.027888 -0.017283 0.877000
-0.004510 -0.028288 0.894000
0.019961 -0.025739 0.870000
-0.020106 -0.029791 0.884000
-0.016542 -0.015672 0.888000
-0.022238 -0.004313 0.882000
0.008571 -0.022336 0.877000
-0.021537 -0.008679 0.883000
-0.015684 0.028038 0.861000
-0.034867 0.005779 0.871000
0.031240 -0.010638 0.865000
-0.032073 -0.002472 0.873000
-0.025130 0.047612 0.869000
-0.028251 0.042101 0.866000
-0.034425 0.020641 0.878000
-0.010030 -0.033440 0.894000
0.008954 0.030995 0.845000
-0.020810 0.000770 0.883000
-0.010501 0.004709 0.872000
-0.021029 0.017369 0.877000
0.012613 -0.033717 0.882000
-0.011378 0.030024 0.857000
-0.013267 -0.014226 0.889000
-0.020763 0.009471 0.881000
-0.011335 -0.001407 0.881000
-0.011538 0.010415 0.869000
-0.022217 0.047860 0.867000
0.012490 0.021707 0.849000
-0.028938 0.009057 0.876000
-0.015455 0.022907 0.868000
0.038356 -0.017922 0.873000
0.015189 -0.039979 0.884000
0.015324 -0.020749 0.871000
-0.022238 -0.014840 0.882000
-0.029625 0.007246 0.875000
-0.015722 0.000770 0.883000
-0.012916 -0.016440 0.890000
-0.028872 0.028821 0.874000
-0.019036 -0.013434 0.885000
0.002776 -0.011787 0.871000
0.006875 0.027201 0.846000
-0.020716 0.014153 0.879000
0.024418 -0.020203 0.863000
-0.011476 -0.027491 0.892000
-0.029659 -0.012215 0.876000
-0.024715 0.035727 0.867000
-0.008537 0.030658 0.855000
0.020464 -0.003856 0.861000
-0.007462 -0.028688 0.895000
-0.030311 0.026663 0.874000
-0.012834 0.046411 0.860000
-0.027197 0.006548 0.878000
-0.016622 0.017290 0.873000
-0.044189 0.023868 0.864000
-0.004288 0.033627 0.850000
-0.027888 -0.005732 0.877000
-0.004693 0.020572 0.860000
0.004249 0.002576 0.879000
0.011617 -0.008117 0.862000
0.023299 -0.015550 0.861000
-0.014349 -0.010190 0.888000
0.016098 0.007784 0.855000
-0.030706 -0.012201 0.875000
0.011590 -0.004559 0.860000
0.025779 -0.036247 0.873000
0.003433 0.012021 0.856000
-0.024026 0.005483 0.881000
0.016880 -0.002786 0.859000
0.001317 0.019749 0.855000
-0.010095 0.010046 0.868000
-0.015393 -0.002506 0.885000
-0.012466 0.044590 0.859000
0.015095 -0.000311 0.858000
-0.006761 0.032341 0.853000
-0.001152 0.017013 0.859000
-0.011644 0.003292 0.877000
-0.025029 0.018473 0.878000
-0.022601 0.001133 0.882000
0.004469 0.020381 0.852000
0.013970 0.007423 0.854000
-0.026143 -0.021663 0.879000
0.001663 0.023537 0.852000
0.003781 0.015878 0.855000
0.011793 -0.028047 0.875000
-0.009956 0.031046 0.856000
-0.027290 -0.023163 0.881000
-0.021900 -0.009769 0.883000
-0.013618 -0.010555 0.888000
0.026765 -0.031468 0.870000
0.033530 -0.007468 0.869000
-0.033792 0.033024 0.871000
0.025455 -0.016987 0.862000
-0.013864 0.044185 0.858000
-0.025781 0.004747 0.879000
0.029373 -0.035169 0.873000
-0.023315 0.032910 0.868000
0.003732 0.033042 0.844000
-0.014015 -0.021202 0.890000
0.010819 0.006376 0.855000
-0.024361 -0.018428 0.880000
-0.015330 0.026266 0.861000
0.021517 -0.034530 0.875000
-0.017059 0.011233 0.877000
0.003537 -0.023552 0.882000
-0.028545 0.025613 0.875000
-0.017253 -0.039019 0.887000
0.026488 -0.011652 0.861000
-0.003231 0.035991 0.848000
-0.037334 0.004340 0.870000
0.034246 -0.018198 0.869000
-0.001833 0.034554 0.847000
0.008041 -0.000665 0.859000
0.013682 0.000042 0.858000
-0.005969 -0.024554 0.892000
-0.020268 0.042518 0.860000
-0.007840 -0.036465 0.896000
-0.011759 0.044590 0.859000
0.015137 -0.035129 0.881000
-0.036933 0.011846 0.869000
-0.019318 0.032440 0.865000
-0.018307 -0.003235 0.885000
0.009752 0.010235 0.854000
-0.001919 -0.021495 0.887000
-0.008163 -0.020492 0.891000
-0.014548 0.007632 0.878000
-0.023222 0.016666 0.878000
0.027092 -0.031074 0.869000
-0.016317 0.043075 0.857000
0.016488 0.002864 0.857000
-0.011777 -0.009813 0.887000
0.003120 0.005752 0.867000
-0.011412 -0.009813 0.887000
-0.004693 0.020218 0.860000
0.027123 -0.031826 0.870000
-0.021173 -0.010496 0.883000
-0.029985 0.006165 0.875000
-0.020291 0.045402 0.861000
-0.017537 0.027100 0.865000
0.013937 0.014770 0.852000
-0.018692 -0.024389 0.886000
-0.034150 0.028364 0.871000
0.018004 -0.011310 0.862000
-0.001568 -0.033477 0.895000
-0.023664 0.008383 0.881000
-0.006745 0.037169 0.851000
-0.008163 -0.019025 0.891000
0.033492 -0.014247 0.868000
-0.031750 -0.008590 0.874000
0.031312 -0.036413 0.877000
-0.015630 0.038534 0.858000
-0.029298 0.004009 0.876000
-0.044391 0.019851 0.875000
0.003891 -0.019515 0.880000
0.011472 -0.029950 0.878000
-0.036218 0.006839 0.869000
-0.014791 0.051665 0.871000
0.030091 -0.033013 0.873000
0.000271 -0.025146 0.887000
-0.030345 0.008326 0.875000
-0.011121 -0.031932 0.893000
-0.017983 -0.043400 0.887000
0.016192 -0.005621 0.860000
-0.016176 -0.018596 0.888000
0.028980 -0.033693 0.872000
0.020191 -0.040522 0.880000
0.005017 -0.030987 0.887000
0.008571 -0.025585 0.877000
-0.013648 -0.018638 0.890000
-0.007304 -0.005004 0.876000
0.004774 0.032348 0.844000
-0.011937 0.006862 0.872000
-0.006286 -0.013434 0.885000
0.006368 -0.004264 0.872000
0.014656 0.011628 0.853000
-0.040324 0.026744 0.865000
-0.039301 0.016439 0.866000
-0.006144 0.008943 0.865000
-0.019878 0.019468 0.874000
-0.033510 -0.004987 0.873000
-0.034867 0.021911 0.871000
0.025333 -0.031110 0.870000
0.014707 0.003565 0.856000
0.022261 -0.005279 0.862000
0.016450 0.006376 0.855000
-0.025332 0.022397 0.876000
-0.011142 0.020716 0.866000
-0.016411 0.005483 0.881000
0.003052 0.026917 0.848000
-0.007096 0.037169 0.851000
0.015875 -0.009537 0.862000
-0.013511 0.043125 0.858000
0.004133 0.010247 0.855000
-0.018830 0.044236 0.859000
0.004927 -0.013938 0.871000
-0.021173 -0.009405 0.883000
0.024758 -0.038131 0.875000
-0.041392 0.018556 0.865000
0.012125 -0.025468 0.873000
0.022752 -0.042018 0.881000
-0.011476 -0.021250 0.892000
-0.015202 0.013353 0.874000
0.006527 0.026853 0.846000
-0.029659 -0.008249 0.876000
-0.005058 0.014234 0.862000
-0.038990 0.017528 0.867000
0.019334 -0.030533 0.874000
-0.020238 0.020188 0.874000
-0.005551 -0.012691 0.884000
0.013203 -0.027264 0.873000
0.019019 -0.043693 0.893000
-0.030706 -0.005719 0.875000
-0.009651 -0.023111 0.893000
-0.017517 0.047694 0.864000
-0.033869 -0.005347 0.873000
-0.018224 0.006933 0.881000
-0.011458 0.048704 0.863000
0.015552 -0.039979 0.884000
0.026348 -0.041609 0.880000
-0.004764 -0.001753 0.873000
-0.022756 0.023785 0.874000
-0.022964 -0.004676 0.882000
0.008275 -0.031246 0.884000
-0.028938 0.008696 0.876000
0.030172 -0.020606 0.865000
0.003167 -0.017704 0.880000
-0.012422 0.038797 0.856000
-0.003593 0.030514 0.851000
0.013082 -0.012418 0.865000
-0.024026 -0.006483 0.881000
0.008248 0.032348 0.844000
0.017836 -0.043498 0.889000
-0.005058 0.014943 0.862000
-0.022626 0.031160 0.869000
-0.041748 0.028168 0.865000
-0.027228 -0.021663 0.879000
-0.023664 -0.028240 0.881000
-0.001505 0.017720 0.859000
0.018757 -0.015604 0.864000
-0.011103 0.049060 0.863000
-0.007943 0.007893 0.867000
-0.026082 0.044901 0.865000
-0.022756 0.023065 0.874000
-0.022238 -0.009032 0.882000
0.005823 0.028908 0.845000
0.004495 0.006039 0.857000
-0.025086 0.003665 0.880000
-0.006201 -0.002831 0.873000
0.010834 -0.034560 0.885000
0.027123 -0.032184 0.870000
0.006237 0.014102 0.854000
-0.004152 -0.032039 0.896000
-0.022904 0.047091 0.866000
-0.020470 -0.031974 0.884000
0.022236 -0.007045 0.861000
-0.011830 -0.020492 0.891000
-0.028249 0.008706 0.877000
-0.015202 0.014072 0.874000
0.024917 -0.028180 0.868000
-0.039259 0.007589 0.873000
0.002381 0.007811 0.858000
-0.027856 0.023839 0.876000
-0.004288 0.033977 0.850000
-0.040060 0.011462 0.867000
-0.042411 0.019245 0.864000
0.030919 -0.022056 0.866000
0.006696 -0.012461 0.868000
-0.011843 -0.028225 0.892000
-0.013648 -0.038052 0.890000
-0.001930 -0.028225 0.892000
0.016920 -0.007045 0.861000
-0.030706 0.007606 0.875000
-0.008175 0.041167 0.854000
0.036434 -0.009625 0.870000
-0.002554 0.023268 0.855000
-0.004988 0.039924 0.850000
0.008444 -0.009203 0.864000
-0.021537 -0.004681 0.883000
0.012579 0.006376 0.855000
-0.019362 0.028590 0.867000
0.022494 -0.030070 0.871000
-0.020739 0.011271 0.880000
0.004297 -0.032521 0.889000
-0.023301 -0.021350 0.881000
0.011779 -0.022619 0.874000
-0.032073 -0.004628 0.873000
0.007985 0.013734 0.853000
-0.001570 -0.035727 0.896000
0.012564 0.008478 0.854000
0.011779 -0.025137 0.874000
0.005858 0.021732 0.850000
