-0.005188 -0.008688 0.884000
0.021452 0.026881 0.858000
-0.004424 0.028198 0.877000
-0.008906 -0.012806 0.892000
-0.007813 -0.016863 0.893000
-0.015971 -0.008447 0.897000
-0.006711 -0.020171 0.893000
-0.031893 -0.010921 0.888000
0.000987 0.011914 0.874000
-0.013710 -0.002532 0.894000
-0.010212 0.049551 0.878000
-0.005514 0.034373 0.878000
-0.009951 -0.001416 0.887000
-0.025898 0.017125 0.883000
-0.001182 -0.012662 0.882000
-0.020492 -0.014418 0.901000
0.020062 0.035044 0.859000
0.016267 0.013911 0.864000
-0.023589 -0.032397 0.906000
0.000987 0.024504 0.874000
0.012327 0.033747 0.862000
-0.009835 -0.042278 0.910000
-0.027998 -0.009134 0.892000
-0.006229 0.052021 0.877000
-0.000814 0.022758 0.876000
-0.015463 0.021632 0.889000
-0.016304 0.000413 0.895000
-0.014030 0.008479 0.891000
-0.012945 0.001145 0.892000
0.002805 -0.015893 0.880000
-0.026776 0.004064 0.888000
-0.015567 0.001149 0.895000
-0.032036 -0.019414 0.892000
0.002054 0.031160 0.869000
-0.020446 0.032025 0.883000
0.008228 -0.018046 0.879000
0.004210 0.048797 0.871000
-0.021951 -0.014032 0.900000
0.016661 0.007171 0.866000
0.005676 -0.012576 0.876000
0.018614 -0.018662 0.874000
0.002779 0.012963 0.872000
-0.031786 0.029574 0.875000
-0.000093 0.024532 0.875000
0.001363 -0.027275 0.885000
0.007750 0.036755 0.866000
0.008610 -0.026064 0.881000
-0.024255 -0.027086 0.903000
0.006449 -0.025760 0.883000
-0.011437 0.008460 0.889000
0.017254 -0.033203 0.878000
-0.005526 0.010909 0.880000
0.000636 -0.032411 0.886000
0.014862 0.017132 0.865000
0.009218 0.000043 0.870000
0.012755 0.041080 0.867000
-0.002246 0.031626 0.872000
0.007437 0.015816 0.871000
0.018980 0.030412 0.858000
0.013485 0.002544 0.868000
0.016262 -0.039206 0.883000
-0.003380 -0.015654 0.887000
-0.027778 0.008421 0.885000
-0.006244 0.053949 0.879000
-0.000810 0.039163 0.872000
-0.019444 -0.026000 0.904000
-0.027856 0.027805 0.876000
0.018422 0.007519 0.865000
0.025377 -0.028700 0.884000
0.015857 0.026975 0.861000
-0.018756 0.019071 0.889000
0.010984 0.005759 0.868000
-0.028301 -0.006550 0.890000
-0.001197 -0.040753 0.893000
0.004191 0.029304 0.867000
0.007176 -0.033028 0.883000
0.015051 -0.026637 0.876000
-0.027294 -0.009880 0.893000
0.009367 -0.040342 0.884000
0.011644 0.038804 0.864000
0.009511 0.023868 0.864000
-0.023537 -0.028605 0.904000
-0.003732 0.009503 0.884000
-0.013526 0.042516 0.882000
-0.002620 0.014121 0.877000
-0.004495 -0.022326 0.891000
-0.029632 -0.026168 0.897000
-0.017817 -0.003648 0.897000
0.009165 0.030304 0.865000
0.011698 0.041841 0.868000
-0.035262 -0.021934 0.890000
-0.011412 0.017932 0.887000
0.012055 0.002544 0.868000
-0.013740 -0.012125 0.896000
0.021805 0.030412 0.858000
-0.026162 -0.004362 0.892000
-0.001174 0.051601 0.876000
-0.009128 0.044853 0.878000
-0.015012 0.036064 0.884000
0.011846 0.050693 0.879000
0.017254 0.027651 0.860000
0.011472 -0.023446 0.878000
0.005702 -0.017704 0.880000
-0.035262 -0.023033 0.890000
0.019046 0.019179 0.861000
-0.002611 0.027382 0.874000
-0.029665 -0.028415 0.898000
0.001726 -0.017784 0.884000
0.012194 -0.026337 0.878000
0.025869 0.022090 0.864000
-0.011196 -0.031777 0.899000
-0.025171 0.018942 0.883000
-0.008836 0.014614 0.885000
0.020963 -0.034080 0.882000
0.014896 0.006823 0.867000
0.019488 -0.035129 0.881000
0.013469 0.011462 0.867000
-0.028732 -0.011337 0.892000
-0.003062 -0.047052 0.901000
0.015592 0.009666 0.866000
-0.024572 -0.021093 0.901000
0.021752 0.001833 0.870000
0.014774 -0.037667 0.881000
-0.009294 -0.015778 0.894000
0.005267 0.037197 0.868000
0.001373 -0.042495 0.891000
-0.008462 0.004774 0.884000
0.019334 -0.010029 0.874000
0.002773 0.036209 0.870000
-0.007379 -0.003599 0.885000
0.019581 0.000758 0.869000
0.007119 0.050159 0.876000
0.001340 0.032270 0.870000
0.021295 0.007171 0.866000
-0.024244 0.006996 0.889000
-0.008190 -0.019825 0.894000
-0.005895 0.006208 0.881000
0.016531 -0.033564 0.878000
0.010639 0.012204 0.869000
0.003199 -0.041302 0.889000
-0.006959 0.037626 0.878000
0.005975 0.038582 0.867000
0.019716 -0.023365 0.875000
-0.016121 0.032462 0.885000
0.009197 0.008617 0.868000
0.012873 -0.014722 0.875000
-0.002256 0.014826 0.876000
0.008952 -0.018407 0.879000
0.007911 -0.036340 0.884000
-0.020724 0.000781 0.895000
0.014657 -0.013626 0.874000
0.006383 -0.007151 0.874000
0.009261 0.048246 0.874000
0.002453 -0.027972 0.884000
-0.003749 -0.027367 0.888000
-0.019051 -0.022998 0.903000
-0.032180 -0.029458 0.896000
0.007929 -0.043716 0.886000
-0.000810 0.039881 0.872000
0.013324 -0.037667 0.881000
-0.006999 0.002224 0.883000
0.006743 -0.008230 0.874000
0.004553 0.031838 0.868000
0.016900 0.029775 0.860000
-0.031443 -0.029089 0.896000
0.017895 -0.023339 0.874000
0.011161 -0.038073 0.882000
-0.014664 0.033555 0.885000
-0.033392 -0.016421 0.889000
-0.006733 -0.034990 0.896000
0.010106 -0.041481 0.885000
0.003860 0.020524 0.873000
-0.019380 -0.014789 0.901000
-0.002290 -0.021178 0.889000
0.014101 0.030909 0.862000
-0.005129 0.046447 0.874000
0.006106 0.054743 0.886000
-0.025513 -0.009165 0.895000
-0.020197 0.020146 0.888000
0.014506 0.016420 0.865000
-0.000810 0.032703 0.872000
0.007786 0.018663 0.870000
0.010026 -0.020916 0.878000
0.023975 -0.033870 0.886000
0.001718 -0.013720 0.880000
-0.009294 -0.025713 0.894000
-0.031108 -0.029122 0.897000
0.011685 0.016814 0.867000
-0.032001 -0.018659 0.891000
-0.009200 0.002229 0.885000
-0.001173 0.025613 0.875000
0.007167 -0.029361 0.882000
0.015218 0.012859 0.865000
-0.033242 -0.006877 0.885000
-0.025257 0.012078 0.886000
-0.020928 0.018684 0.888000
-0.019356 0.034569 0.883000
-0.000452 0.035256 0.873000
0.006681 0.038181 0.866000
-0.018307 0.031369 0.885000
0.005650 0.016552 0.872000
0.002057 0.039431 0.870000
0.007768 0.041484 0.868000
-0.011425 0.014298 0.888000
-0.011790 0.015394 0.888000
-0.015497 0.015079 0.891000
-0.025570 -0.015831 0.897000
-0.000814 0.015547 0.876000
-0.030776 0.018813 0.877000
0.014793 0.031582 0.861000
-0.030866 -0.013509 0.890000
-0.012115 0.026270 0.885000
0.002412 0.043320 0.869000
-0.019014 0.032061 0.884000
-0.034974 -0.027858 0.892000
-0.028015 0.015998 0.881000
0.009314 -0.019493 0.879000
-0.027107 -0.024746 0.899000
-0.023777 -0.014756 0.899000
0.020987 0.004330 0.868000
0.031269 -0.021471 0.886000
-0.028806 0.010220 0.883000
-0.026896 -0.006931 0.892000
-0.015148 0.010324 0.892000
0.009250 -0.008580 0.873000
0.011941 -0.044080 0.886000
0.005612 0.025706 0.866000
0.013578 -0.012187 0.874000
-0.031108 -0.029491 0.897000
-0.003686 0.044957 0.873000
-0.028507 0.006600 0.885000
0.011954 -0.044495 0.887000
-0.000829 -0.037036 0.892000
-0.027228 0.023197 0.879000
-0.005176 0.004400 0.882000
0.007548 -0.035249 0.884000
0.020559 0.008231 0.865000
0.017874 -0.010018 0.873000
0.009676 -0.020216 0.879000
0.009992 -0.014002 0.875000
0.015394 -0.024446 0.875000
0.019709 0.024791 0.859000
0.018273 0.030412 0.858000
-0.005129 0.047527 0.874000
-0.008126 -0.008718 0.887000
0.020392 0.031118 0.858000
0.014456 0.037295 0.862000
0.016188 -0.033964 0.879000
0.008144 0.001475 0.870000
-0.019787 0.025935 0.886000
0.026286 0.023567 0.866000
0.006828 -0.034924 0.885000
0.017983 0.021305 0.861000
0.006851 -0.045276 0.888000
0.006071 -0.019900 0.881000
0.026134 -0.028732 0.885000
-0.019072 -0.024884 0.904000
-0.005252 -0.035319 0.895000
-0.002300 -0.036343 0.893000
0.002770 0.031875 0.869000
-0.002605 0.047059 0.872000
0.011954 -0.044860 0.887000
-0.017214 0.031369 0.885000
-0.028675 0.019580 0.879000
-0.014109 -0.008069 0.896000
0.009003 0.053164 0.884000
0.005689 -0.015857 0.878000
0.024956 -0.026457 0.882000
0.014828 0.024196 0.863000
0.015857 0.036897 0.861000
0.025770 -0.029461 0.885000
0.012111 -0.007853 0.872000
-0.029022 -0.033701 0.901000
0.008629 -0.033392 0.883000
-0.022909 -0.001796 0.894000
0.019356 -0.011121 0.875000
-0.015739 0.036427 0.884000
0.009878 0.023184 0.865000
-0.027477 -0.025486 0.899000
-0.001176 0.020618 0.877000
-0.017002 0.009233 0.893000
0.007777 0.007554 0.869000
-0.009951 0.002234 0.887000
0.013937 -0.017583 0.874000
-0.029466 -0.013173 0.892000
-0.012128 0.021923 0.886000
0.005292 0.048853 0.872000
-0.000461 0.009212 0.891000
0.003497 0.011528 0.872000
-0.023909 -0.028977 0.904000
-0.007337 0.029019 0.880000
-0.009895 0.032352 0.882000
-0.016042 -0.022947 0.901000
-0.010328 0.001140 0.888000
-0.008386 0.048717 0.876000
-0.023017 0.022238 0.884000
-0.034490 -0.020446 0.889000
0.011941 -0.043351 0.886000
-0.021976 -0.015531 0.901000
-0.025513 -0.009533 0.895000
0.007822 0.049325 0.874000
-0.020632 0.011412 0.891000
0.015857 0.028392 0.861000
0.010447 -0.038480 0.883000
-0.030831 -0.009103 0.889000
0.019755 0.019533 0.861000
0.016211 0.037252 0.861000
0.014875 -0.042305 0.887000
-0.003334 0.034256 0.875000
-0.001173 0.012648 0.875000
-0.005895 0.007658 0.881000
0.011354 0.001116 0.869000
-0.028152 0.032058 0.874000
-0.016964 0.014346 0.891000
0.030379 -0.030428 0.892000
0.004547 0.025735 0.867000
-0.014141 -0.016218 0.898000
0.003497 0.049212 0.872000
0.020109 0.019179 0.861000
0.013593 -0.020845 0.875000
0.020654 0.001116 0.869000
-0.021537 0.029118 0.883000
-0.027569 -0.003619 0.890000
0.013112 0.013246 0.867000
-0.022188 0.034814 0.880000
0.015464 -0.035411 0.879000
-0.028249 -0.029219 0.900000
-0.029800 -0.012424 0.891000
-0.027920 0.024255 0.878000
0.018692 0.017761 0.861000
-0.029165 -0.016882 0.894000
0.017435 -0.001745 0.869000
-0.026191 -0.007674 0.893000
0.020915 0.009299 0.865000
0.020576 -0.032591 0.881000
-0.015602 -0.008816 0.897000
0.019068 0.037650 0.862000
-0.023539 0.032279 0.890000
0.014845 0.019601 0.864000
-0.024278 0.035778 0.877000
0.004637 -0.033793 0.884000
-0.011803 0.011753 0.889000
-0.032440 -0.000320 0.883000
0.020915 -0.029656 0.880000
-0.025143 0.022550 0.882000
0.016585 0.022039 0.862000
0.014489 0.021735 0.864000
0.011072 -0.013642 0.875000
0.004933 0.021218 0.872000
-0.013679 0.006652 0.892000
-0.008025 0.049077 0.876000
0.027350 -0.032887 0.889000
0.014879 0.013231 0.866000
-0.009895 0.029811 0.882000
-0.023195 0.038666 0.877000
0.009579 -0.049069 0.904000
-0.004435 0.024644 0.879000
0.006858 0.055660 0.889000
-0.016964 0.015079 0.891000
-0.017117 -0.011796 0.899000
0.022752 -0.027877 0.881000
-0.032766 0.000770 0.882000
-0.029132 -0.015760 0.893000
0.002054 0.028298 0.869000
0.002090 -0.027972 0.884000
0.031919 -0.026816 0.894000
-0.035628 -0.022667 0.890000
0.013263 -0.026668 0.877000
-0.033834 -0.023426 0.891000
0.021123 0.033630 0.859000
0.015790 -0.028833 0.877000
0.004547 0.029304 0.867000
-0.006575 0.046861 0.875000
0.000271 -0.022956 0.887000
0.000639 -0.035488 0.890000
-0.005595 -0.019025 0.891000
-0.035896 -0.035007 0.906000
0.018295 0.034337 0.859000
-0.006999 0.003314 0.883000
-0.001188 -0.029494 0.886000
-0.014681 0.029217 0.886000
-0.008414 0.039116 0.879000
0.017588 0.032922 0.859000
-0.015300 -0.024431 0.901000
0.003935 -0.045012 0.890000
-0.030600 0.032703 0.872000
-0.028577 0.027445 0.876000
0.011873 -0.035492 0.881000
0.002068 0.020571 0.875000
0.007102 -0.011108 0.874000
-0.014880 -0.013261 0.898000
0.012696 0.037338 0.863000
-0.022627 0.024757 0.883000
-0.005862 0.042227 0.876000
-0.008816 0.023666 0.883000
-0.026103 0.000044 0.890000
0.002415 0.033344 0.870000
0.016305 0.007171 0.866000
0.016700 0.002186 0.868000
0.010798 -0.037347 0.882000
-0.003741 -0.014543 0.886000
0.000268 0.010847 0.875000
-0.028905 0.028494 0.875000
0.013842 0.003258 0.868000
0.007394 0.023924 0.866000
-0.029034 -0.008015 0.890000
-0.030241 0.031267 0.872000
0.011289 0.038804 0.864000
0.000269 -0.013735 0.881000
-0.023583 0.035096 0.878000
0.004652 -0.037194 0.887000
0.015484 0.033669 0.860000
0.007200 -0.040069 0.886000
-0.024832 -0.014354 0.897000
-0.004878 -0.033808 0.894000
-0.010972 0.038842 0.881000
0.005261 0.026092 0.867000
-0.000095 -0.046318 0.894000
0.001359 0.053770 0.882000
-0.023088 -0.019610 0.901000
-0.015198 -0.002166 0.895000
-0.033430 0.018726 0.890000
-0.033505 -0.024554 0.892000
-0.009705 -0.029893 0.898000
-0.029533 0.008039 0.883000
-0.008043 0.041239 0.878000
-0.025026 -0.031209 0.904000
-0.009586 -0.005432 0.887000
0.010060 -0.032591 0.881000
0.007813 -0.006065 0.873000
-0.019838 -0.029381 0.905000
0.010376 -0.016561 0.877000
0.023790 0.011449 0.866000
0.006463 -0.034560 0.885000
-0.008453 0.006222 0.883000
0.015736 -0.017224 0.874000
-0.016042 -0.020351 0.901000
0.010269 0.008617 0.868000
-0.007700 0.033727 0.880000
0.008840 0.008260 0.868000
-0.022074 0.011033 0.890000
-0.004050 0.050045 0.874000
-0.001190 -0.024809 0.888000
0.023272 0.034377 0.860000
0.010072 -0.033354 0.882000
-0.027558 0.024616 0.878000
-0.025303 0.036777 0.875000
0.023424 -0.024558 0.879000
-0.029591 0.029181 0.874000
-0.035668 -0.024526 0.891000
-0.027971 -0.034148 0.903000
0.012222 0.051113 0.880000
-0.019294 -0.004017 0.897000
0.007078 0.003269 0.871000
0.003940 -0.046529 0.891000
-0.015971 -0.006232 0.897000
-0.004780 0.030690 0.876000
0.003878 0.051299 0.877000
-0.002984 0.024616 0.878000
-0.005602 -0.030795 0.892000
0.020133 0.015298 0.862000
-0.019290 0.042420 0.880000
0.012356 0.024580 0.864000
-0.014526 -0.018826 0.899000
0.002412 0.044036 0.869000
0.023477 -0.026789 0.881000
0.004239 -0.011507 0.877000
-0.012620 -0.011743 0.895000
-0.010444 -0.030632 0.898000
0.007078 0.045212 0.871000
-0.004068 0.011969 0.878000
-0.000094 -0.029096 0.885000
-0.007110 -0.035767 0.897000
-0.010718 -0.002520 0.890000
-0.000813 0.013728 0.875000
-0.022364 0.017932 0.887000
0.007822 -0.011108 0.874000
-0.022272 -0.010304 0.898000
0.008962 -0.024586 0.880000
-0.031426 0.022732 0.875000
0.022511 0.029706 0.858000
-0.009792 -0.042838 0.906000
0.018713 0.017072 0.862000
0.014297 -0.018303 0.874000
-0.019707 -0.010316 0.899000
-0.014863 -0.009185 0.897000
-0.004485 -0.027764 0.889000
0.009208 0.020072 0.869000
-0.014462 -0.002166 0.895000
0.019603 -0.001389 0.870000
0.020796 -0.022645 0.875000
0.017956 -0.028833 0.877000
0.011986 0.032010 0.863000
-0.021173 0.030571 0.883000
0.008860 0.014008 0.870000
-0.006658 -0.009437 0.886000
-0.008916 -0.025316 0.893000
0.009176 0.040319 0.866000
0.015628 0.001829 0.868000
-0.015300 -0.026285 0.901000
0.002766 0.026837 0.868000
-0.025285 -0.022922 0.900000
-0.003783 -0.044209 0.896000
-0.008916 -0.013187 0.893000
-0.019641 0.000413 0.896000
0.022415 -0.030813 0.882000
-0.001937 -0.044160 0.895000
-0.018085 0.012894 0.892000
-0.000821 -0.015601 0.884000
-0.019315 -0.005500 0.898000
-0.009543 0.026210 0.883000
-0.015549 0.002620 0.894000
-0.021197 0.028423 0.884000
-0.019057 0.026299 0.886000
-0.021140 -0.003648 0.897000
0.002412 0.031160 0.869000
-0.006703 -0.017945 0.892000
-0.023751 -0.011783 0.898000
-0.018882 0.003728 0.895000
-0.000094 -0.016329 0.884000
0.002448 -0.017018 0.882000
0.015574 0.039917 0.865000
-0.025245 0.042082 0.873000
-0.033242 -0.007241 0.885000
0.010822 -0.041434 0.884000
0.005017 -0.039019 0.887000
-0.012238 -0.005843 0.894000
0.011698 0.011475 0.868000
0.006113 -0.043035 0.887000
-0.028773 0.011660 0.882000
-0.015515 0.008855 0.892000
-0.004101 -0.013434 0.885000
-0.026683 0.038489 0.873000
-0.029490 0.035892 0.871000
0.014607 -0.005334 0.871000
0.020506 -0.027782 0.878000
-0.012959 0.000412 0.893000
0.009314 -0.019854 0.879000
-0.019707 -0.008096 0.899000
0.017731 0.006459 0.866000
-0.022576 0.031953 0.881000
-0.026767 -0.024774 0.900000
0.012028 0.018934 0.866000
-0.021140 -0.004386 0.897000
-0.005276 -0.045837 0.899000
0.002453 -0.031246 0.884000
-0.018348 -0.032361 0.905000
-0.005158 0.025730 0.879000
-0.003025 -0.021202 0.890000
-0.004796 0.011620 0.879000
-0.015654 -0.017736 0.900000
-0.032618 0.018473 0.878000
0.000269 -0.013373 0.881000
-0.007023 -0.009073 0.886000
-0.027050 0.010243 0.885000
0.020133 0.037295 0.862000
-0.014780 0.009589 0.892000
-0.028079 0.012037 0.883000
-0.021022 0.009222 0.892000
0.003860 0.015493 0.873000
-0.006364 -0.033146 0.896000
-0.029985 0.026693 0.875000
-0.003338 0.051962 0.876000
-0.013999 0.019436 0.889000
-0.013572 0.030641 0.885000
0.018316 0.024820 0.860000
-0.014349 0.023069 0.888000
-0.013386 -0.017308 0.897000
-0.006322 -0.026330 0.890000
0.016188 -0.035049 0.879000
-0.025869 0.019283 0.882000
-0.033530 -0.001410 0.883000
0.009054 -0.047523 0.889000
-0.022448 0.042948 0.876000
0.010577 0.029202 0.864000
-0.032692 0.007287 0.880000
-0.009850 0.045214 0.878000
-0.023936 -0.030871 0.905000
-0.033167 -0.002864 0.883000
0.010060 0.051896 0.881000
-0.010316 0.012821 0.887000
-0.007673 0.052021 0.877000
0.014896 0.007893 0.867000
0.005292 0.019424 0.872000
-0.013952 0.030311 0.886000
-0.015428 0.025964 0.887000
-0.026737 -0.022526 0.899000
-0.007700 0.033365 0.880000
0.006030 -0.009320 0.875000
0.015502 0.027329 0.861000
0.001347 0.009756 0.874000
-0.001900 0.019919 0.878000
-0.033430 -0.018271 0.890000
0.025129 0.018868 0.863000
-0.009138 0.042010 0.879000
-0.034201 -0.023426 0.891000
-0.008916 -0.027522 0.893000
-0.016430 0.042153 0.882000
-0.020539 0.022678 0.887000
0.021099 0.029000 0.858000
-0.034451 -0.017134 0.888000
-0.017409 0.004096 0.895000
-0.014252 0.042153 0.882000
0.019738 -0.012936 0.876000
0.021827 -0.000676 0.873000
0.014540 0.009321 0.867000
0.013778 0.023157 0.864000
0.010222 0.033470 0.864000
-0.022653 0.029878 0.884000
-0.019380 -0.015160 0.901000
-0.001939 -0.046422 0.896000
0.001716 -0.011172 0.879000
0.008502 0.002191 0.870000
0.008522 -0.004982 0.872000
0.016939 0.020620 0.862000
0.021881 0.018824 0.861000
-0.002673 -0.043791 0.895000
0.005982 0.033267 0.868000
-0.019787 0.025205 0.886000
0.011022 -0.005334 0.871000
-0.032766 0.002948 0.882000
0.019648 -0.004982 0.872000
0.013762 0.026682 0.863000
-0.001545 -0.011573 0.882000
-0.017409 0.003359 0.895000
-0.033618 -0.032372 0.895000
-0.008615 -0.043295 0.900000
-0.025770 -0.031581 0.904000
0.009566 0.001474 0.869000
0.006317 0.027100 0.865000
-0.001919 -0.028797 0.887000
-0.019030 -0.017775 0.902000
0.010984 0.004330 0.868000
-0.006696 -0.016092 0.891000
-0.010790 -0.019501 0.896000
-0.013710 -0.004003 0.894000
-0.010409 -0.019111 0.895000
0.010281 0.013277 0.869000
0.017690 0.012133 0.864000
-0.000456 -0.014840 0.882000
0.010639 0.012919 0.869000
-0.019751 -0.015901 0.901000
-0.002981 0.011233 0.877000
-0.019143 0.017260 0.890000
0.023736 0.014623 0.864000
0.018401 0.011422 0.864000
-0.028905 0.027413 0.875000
-0.008548 -0.015025 0.893000
0.011927 -0.042209 0.885000
0.015893 0.020644 0.863000
0.003481 0.029338 0.868000
-0.021509 -0.005124 0.897000
0.005676 -0.013297 0.876000
-0.017155 -0.017756 0.901000
0.007151 -0.019153 0.880000
0.003561 -0.036870 0.888000
-0.001174 0.024560 0.876000
-0.020739 0.037349 0.880000
0.014879 0.012518 0.866000
0.013112 0.011819 0.867000
-0.007062 -0.028193 0.891000
-0.024067 -0.009913 0.896000
-0.023251 0.001147 0.893000
0.010305 -0.003542 0.871000
0.018529 -0.002464 0.870000
0.022590 0.018115 0.861000
0.010529 -0.047576 0.890000
-0.002261 0.019919 0.878000
0.012584 -0.034365 0.880000
-0.011072 0.008094 0.889000
0.009855 0.027748 0.863000
-0.004419 0.028887 0.876000
0.000990 0.051660 0.877000
-0.024381 -0.006211 0.894000
-0.013357 -0.006218 0.895000
0.011900 -0.040297 0.883000
0.021805 0.025821 0.858000
-0.034335 -0.001413 0.885000
0.021222 0.014250 0.863000
0.010639 0.012561 0.869000
0.016531 -0.031396 0.878000
-0.012197 0.003711 0.891000
-0.020197 0.020876 0.888000
0.010269 0.017191 0.868000
0.002465 -0.034677 0.888000
-0.005146 0.032168 0.877000
0.006354 0.013292 0.870000
-0.002261 0.018473 0.878000
0.004258 -0.017361 0.881000
-0.036075 -0.025655 0.892000
-0.012210 0.000778 0.892000
-0.032808 -0.024949 0.893000
-0.003414 -0.043840 0.896000
-0.031895 0.031121 0.878000
-0.025708 0.003703 0.889000
0.010049 -0.028207 0.880000
0.003569 -0.045012 0.890000
-0.016983 0.012894 0.892000
-0.006999 0.001861 0.883000
-0.020979 -0.030532 0.906000
-0.011883 -0.011007 0.895000
0.015857 0.029101 0.861000
0.014965 -0.004976 0.871000
-0.027729 0.041675 0.872000
0.008135 0.006839 0.869000
0.023353 0.016026 0.863000
-0.022371 -0.019632 0.902000
-0.022717 -0.018497 0.901000
-0.012465 0.030606 0.884000
0.001345 0.012619 0.873000
-0.016598 0.014713 0.891000
0.008600 0.051837 0.880000
-0.009565 0.009878 0.885000
-0.021975 0.020829 0.886000
-0.004435 0.010173 0.879000
0.009314 -0.021663 0.879000
-0.020904 0.021583 0.887000
-0.007078 -0.030462 0.893000
-0.001895 0.013023 0.876000
0.021369 0.001831 0.869000
-0.024195 0.042490 0.874000
-0.011059 0.010643 0.888000
-0.002981 0.012316 0.877000
-0.015480 0.018359 0.890000
0.007437 0.001477 0.871000
-0.014880 -0.015479 0.898000
-0.018777 0.018359 0.890000
0.002415 0.035492 0.870000
-0.014284 0.036791 0.884000
0.025653 -0.020625 0.881000
-0.023698 -0.009175 0.896000
0.014297 -0.017583 0.874000
-0.000809 0.028722 0.871000
0.018254 -0.017583 0.874000
-0.004077 0.018515 0.880000
-0.025004 0.002242 0.890000
0.006317 0.028524 0.865000
-0.003757 -0.018638 0.890000
-0.020151 0.025205 0.886000
-0.007997 -0.046978 0.914000
0.017895 -0.011108 0.874000
0.002785 0.017310 0.874000
-0.018452 0.011425 0.892000
-0.023191 -0.030499 0.905000
-0.022322 -0.014402 0.900000
-0.028365 -0.011337 0.892000
0.022158 0.030765 0.858000
0.004200 0.035094 0.869000
-0.029400 -0.009480 0.890000
-0.013541 0.038567 0.883000
-0.022112 0.041914 0.877000
-0.008730 -0.046500 0.912000
-0.018308 -0.024485 0.903000
0.006689 0.032872 0.867000
-0.032918 -0.032777 0.896000
0.002801 -0.014790 0.879000
0.000624 0.045161 0.870000
-0.032367 0.005120 0.881000
-0.012306 -0.026226 0.899000
-0.016213 0.016528 0.890000
0.004191 0.028233 0.867000
-0.000094 -0.020765 0.887000
-0.006293 -0.011261 0.886000
0.000983 0.039477 0.871000
-0.006279 -0.001776 0.884000
0.025013 -0.028700 0.884000
-0.010328 -0.002515 0.888000
-0.033543 -0.026786 0.893000
-0.007805 -0.028959 0.892000
-0.028708 0.018153 0.880000
-0.004147 -0.036792 0.895000
-0.004490 -0.030726 0.890000
-0.009076 -0.045973 0.909000
0.009566 0.016138 0.869000
0.016623 0.039159 0.864000
-0.030397 -0.004337 0.887000
0.002068 0.019130 0.875000
0.014134 0.039515 0.864000
0.015628 0.002901 0.868000
-0.007700 0.031916 0.880000
-0.021439 0.038392 0.879000
0.009522 0.030660 0.865000
-0.025342 -0.027428 0.902000
-0.028872 0.030979 0.874000
-0.026683 0.039567 0.873000
0.020392 0.027234 0.858000
-0.006251 0.028657 0.880000
-0.030565 0.037326 0.871000
-0.008089 0.005858 0.883000
0.014134 0.021023 0.864000
0.002094 -0.033505 0.886000
0.003138 0.010451 0.872000
-0.032729 0.006208 0.881000
0.014573 -0.000672 0.869000
-0.011777 0.018297 0.887000
-0.025274 0.042490 0.874000
-0.010433 -0.025430 0.897000
-0.023771 0.017892 0.885000
0.021805 0.026528 0.858000
-0.004050 0.041771 0.874000
-0.028029 -0.012820 0.893000
-0.011910 -0.019154 0.897000
0.008294 -0.044080 0.886000
0.013407 0.028813 0.863000
0.007445 -0.001751 0.872000
0.012413 0.010403 0.868000
-0.007857 -0.036916 0.898000
-0.009673 -0.021689 0.895000
-0.016672 0.001518 0.895000
-0.001538 0.019919 0.878000
0.014982 -0.008212 0.872000
-0.019531 0.012512 0.891000
-0.007665 0.045833 0.876000
-0.009304 -0.022058 0.895000
-0.031605 0.036987 0.880000
-0.004124 -0.019370 0.890000
-0.001919 -0.026241 0.887000
0.005650 0.015835 0.872000
-0.007304 0.047996 0.876000
-0.014078 -0.000324 0.894000
0.008688 -0.047157 0.889000
-0.009906 0.029481 0.883000
-0.030959 0.033421 0.872000
-0.005520 0.029348 0.879000
-0.003686 0.029507 0.873000
-0.028635 -0.003981 0.889000
0.017535 -0.015425 0.874000
-0.029054 -0.034481 0.902000
-0.011963 -0.034072 0.901000
-0.006733 -0.032408 0.896000
-0.021245 0.022653 0.886000
-0.006703 -0.022351 0.892000
0.015201 0.019601 0.864000
-0.023011 -0.011413 0.898000
-0.013003 -0.011388 0.896000
-0.003711 0.022112 0.879000
0.020392 0.025821 0.858000
-0.015097 0.021632 0.889000
-0.003330 0.042490 0.874000
-0.006748 -0.039872 0.898000
-0.033932 -0.001412 0.884000
-0.026776 0.002602 0.888000
0.007786 0.043370 0.870000
-0.024693 -0.001057 0.892000
-0.016430 0.041790 0.882000
-0.032841 0.021874 0.884000
0.009577 0.000401 0.870000
0.027319 -0.031388 0.888000
0.011341 0.007545 0.868000
-0.023017 0.022602 0.884000
-0.011096 -0.001423 0.891000
-0.004414 0.051182 0.875000
-0.024067 -0.009544 0.896000
-0.024920 0.011361 0.887000
0.007394 0.036755 0.866000
-0.006265 0.018557 0.882000
-0.018493 0.005931 0.894000
-0.001168 0.030873 0.871000
-0.006575 0.048301 0.875000
0.022891 0.024437 0.859000
-0.006590 0.041192 0.877000
-0.000451 0.042345 0.871000
-0.025342 0.004435 0.889000
0.005650 0.018347 0.872000
-0.035868 -0.013969 0.896000
-0.033492 0.003674 0.882000
0.001365 -0.025483 0.886000
0.001376 -0.046266 0.893000
-0.016103 0.037155 0.884000
0.017274 0.022722 0.861000
-0.030449 0.016305 0.878000
-0.030054 0.021701 0.877000
-0.002256 0.013383 0.876000
-0.013832 -0.033739 0.902000
0.004995 -0.029394 0.883000
-0.005507 0.035417 0.877000
-0.014156 -0.021786 0.899000
0.019716 -0.016523 0.875000
0.008881 -0.005340 0.872000
-0.021878 -0.006970 0.897000
-0.024610 0.006996 0.889000
-0.015131 0.013613 0.891000
0.002833 -0.037643 0.889000
0.010106 -0.042209 0.885000
-0.016522 -0.033926 0.907000
0.020122 -0.026668 0.877000
-0.023011 -0.012152 0.898000
0.004249 -0.016598 0.879000
-0.023195 0.039749 0.877000
-0.035182 -0.015672 0.888000
-0.008926 -0.018354 0.894000
-0.013618 0.021242 0.888000
-0.005888 0.009460 0.880000
-0.031857 -0.006893 0.887000
-0.030741 0.020234 0.876000
0.010269 0.008974 0.868000
-0.020010 -0.001800 0.896000
-0.034374 -0.010896 0.886000
-0.010363 -0.007290 0.891000
-0.032004 0.006208 0.881000
0.001706 0.022346 0.874000
-0.002248 0.033100 0.873000
-0.029698 -0.030667 0.899000
-0.032585 -0.033921 0.897000
-0.023529 0.039703 0.876000
0.008600 -0.024223 0.880000
-0.018286 0.034972 0.884000
0.019334 -0.017583 0.874000
0.007176 -0.032665 0.883000
-0.010086 -0.033257 0.899000
-0.021022 0.008121 0.892000
-0.032149 -0.003235 0.885000
-0.013618 0.022338 0.888000
0.026498 -0.028732 0.885000
0.014791 -0.038436 0.882000
0.006804 -0.026820 0.882000
0.020796 -0.021925 0.875000
0.006405 -0.014756 0.877000
-0.000459 -0.024078 0.888000
0.014150 0.018556 0.865000
0.016815 -0.014705 0.874000
0.018635 -0.012201 0.875000
0.003145 0.016590 0.874000
0.005285 0.009364 0.871000
-0.009304 -0.021689 0.895000
0.015103 -0.033964 0.879000
0.002840 -0.044696 0.891000
-0.015317 -0.029655 0.902000
-0.023303 -0.004376 0.895000
0.000626 0.025525 0.872000
-0.006620 0.023613 0.881000
-0.026084 -0.028541 0.902000
0.003513 0.050880 0.876000
-0.011450 0.007004 0.890000
0.011986 0.034852 0.863000
0.007159 -0.020987 0.881000
0.014793 0.036188 0.861000
0.027560 -0.024333 0.884000
0.021099 0.028293 0.858000
-0.020786 0.033804 0.882000
-0.010041 -0.020216 0.895000
0.018713 0.017427 0.862000
0.005389 -0.043814 0.888000
-0.007752 -0.005061 0.886000
-0.031968 0.007649 0.880000
-0.021093 0.001149 0.895000
-0.014698 0.027424 0.887000
0.011199 -0.042209 0.885000
-0.021269 0.019393 0.887000
0.011819 -0.022697 0.877000
0.008135 0.011131 0.869000
0.009687 -0.027121 0.880000
0.006085 -0.023943 0.883000
0.024063 0.016737 0.863000
-0.023017 0.021874 0.884000
0.003485 0.045466 0.869000
-0.005882 0.029709 0.879000
0.017895 -0.018303 0.874000
0.007902 -0.033028 0.883000
0.010470 -0.043302 0.885000
-0.027370 0.039522 0.872000
-0.032077 0.033842 0.883000
-0.018206 -0.005500 0.898000
0.001737 -0.038418 0.890000
0.005996 0.046593 0.870000
0.009957 -0.006776 0.872000
0.006376 -0.004628 0.873000
0.022210 0.021280 0.860000
-0.003715 0.019240 0.880000
-0.010682 0.015012 0.887000
0.009240 -0.006776 0.872000
0.009599 -0.006776 0.872000
-0.001531 0.035296 0.874000
-0.011047 0.017202 0.887000
-0.033324 -0.034659 0.897000
-0.036892 -0.022255 0.903000
0.023218 0.028293 0.858000
-0.004490 -0.030360 0.890000
-0.035628 -0.020836 0.890000
0.023557 -0.032338 0.884000
-0.026162 -0.003994 0.892000
-0.030658 0.003318 0.884000
0.003142 0.009026 0.873000
-0.031605 0.009823 0.880000
0.019356 -0.016883 0.875000
-0.001189 -0.026241 0.887000
-0.001528 0.042393 0.872000
0.012570 -0.031070 0.879000
0.015148 0.036188 0.861000
-0.008481 -0.005061 0.886000
0.019716 -0.009680 0.875000
-0.032108 -0.025345 0.894000
-0.001168 0.028364 0.871000
-0.020424 -0.005869 0.898000
-0.023513 0.008094 0.889000
0.008182 -0.010389 0.874000
0.020770 0.021962 0.859000
0.018974 -0.017943 0.874000
-0.021875 0.030537 0.882000
-0.036196 -0.019848 0.895000
0.012250 0.051955 0.882000
-0.011121 -0.006939 0.893000
-0.007062 -0.025626 0.891000
0.003196 -0.037236 0.888000
-0.025853 -0.008419 0.894000
0.023571 0.026881 0.858000
0.001340 0.040147 0.870000
-0.008153 -0.011678 0.890000
0.005322 -0.006093 0.877000
0.027288 -0.029892 0.887000
-0.034316 0.008139 0.894000
0.008983 -0.030087 0.882000
-0.018638 -0.017385 0.901000
0.013391 0.033392 0.862000
0.007394 0.036042 0.866000
-0.007312 0.052021 0.877000
-0.000094 -0.032850 0.888000
-0.001930 -0.034833 0.892000
-0.019290 0.040971 0.880000
0.003561 -0.037601 0.888000
0.001728 -0.018897 0.885000
0.007522 -0.023888 0.881000
-0.016888 0.026694 0.887000
-0.000809 0.030514 0.871000
-0.012060 0.042468 0.881000
0.009208 0.010773 0.869000
-0.004142 -0.033808 0.894000
-0.030600 0.033421 0.872000
-0.023959 0.001145 0.892000
0.002409 0.029338 0.868000
0.003127 0.040459 0.869000
-0.000452 0.034896 0.873000
-0.020701 0.003724 0.894000
0.005683 0.050938 0.877000
-0.006967 0.033327 0.879000
0.001708 0.019490 0.875000
0.015682 -0.005693 0.871000
0.005637 0.045161 0.870000
-0.023191 -0.029754 0.905000
0.016900 0.028359 0.860000
-0.004495 -0.031127 0.891000
0.002766 0.029338 0.868000
0.006419 -0.017322 0.879000
0.011698 0.014690 0.868000
-0.005855 0.046140 0.875000
-0.012060 0.041018 0.881000
0.017962 0.025174 0.860000
-0.032149 -0.004692 0.885000
0.005996 0.045877 0.870000
-0.016231 0.013246 0.891000
-0.021234 -0.017014 0.901000
-0.018204 0.043144 0.880000
-0.023563 -0.030499 0.905000
-0.006703 -0.018312 0.892000
0.018699 -0.029950 0.878000
-0.021927 -0.011056 0.899000
-0.010328 -0.001053 0.888000
0.013469 0.041080 0.867000
-0.008098 0.002227 0.884000
-0.033986 -0.033477 0.895000
-0.004114 -0.027367 0.888000
0.002094 -0.023295 0.886000
-0.026499 -0.004357 0.891000
-0.004807 0.018174 0.881000
-0.001169 0.042393 0.872000
-0.004807 0.007658 0.881000
-0.021210 -0.013291 0.900000
0.013593 -0.017243 0.875000
0.012180 -0.021253 0.877000
0.009878 0.032796 0.865000
-0.024681 -0.031244 0.905000
-0.033129 0.003674 0.882000
0.000641 -0.046686 0.894000
-0.005922 -0.009427 0.885000
0.009889 0.040319 0.866000
0.018930 -0.006417 0.872000
-0.007446 -0.020171 0.893000
-0.004889 -0.040521 0.896000
-0.015532 0.007395 0.893000
-0.025679 0.004795 0.888000
0.003160 -0.011159 0.878000
0.020866 0.013185 0.863000
0.002836 -0.041349 0.890000
-0.035628 -0.019737 0.890000
0.022590 0.018824 0.861000
-0.020928 0.017953 0.888000
-0.000093 0.013728 0.875000
0.004933 0.015117 0.872000
-0.000809 0.043778 0.871000
0.027987 -0.026941 0.886000
-0.003690 0.032778 0.874000
0.016569 -0.036176 0.880000
-0.011360 0.030571 0.883000
0.001000 -0.020377 0.886000
0.020963 -0.032991 0.882000
-0.012577 -0.000323 0.892000
0.000267 0.025554 0.873000
-0.012265 -0.013969 0.896000
0.002092 -0.018897 0.885000
-0.003021 -0.019714 0.889000
-0.010421 -0.021714 0.896000
0.018359 0.015298 0.862000
0.002092 -0.020719 0.885000
-0.009190 0.020419 0.884000
-0.014062 0.001882 0.893000
-0.003042 -0.043423 0.895000
-0.002632 0.054071 0.881000
-0.029067 -0.009491 0.891000
0.013112 0.011462 0.867000
-0.032513 -0.028688 0.895000
-0.005520 0.028262 0.879000
0.014590 -0.001747 0.870000
-0.025053 -0.031989 0.905000
-0.018735 0.023800 0.888000
0.011341 0.008617 0.868000
-0.014462 -0.004745 0.895000
0.002805 -0.015531 0.880000
0.023397 -0.022361 0.878000
-0.027662 -0.010982 0.893000
-0.020099 -0.011809 0.900000
-0.031074 -0.027983 0.896000
-0.032440 0.000044 0.883000
0.014828 0.021354 0.863000
-0.020211 -0.026401 0.905000
-0.006628 0.021824 0.882000
-0.001898 0.010511 0.877000
-0.017737 0.009233 0.893000
0.019355 0.024791 0.859000
0.028415 -0.029560 0.888000
-0.011515 -0.013954 0.895000
0.000273 -0.043277 0.892000
-0.011764 0.023382 0.886000
-0.021125 0.033766 0.881000
-0.003690 0.050045 0.874000
-0.031527 -0.008362 0.888000
0.004553 0.038983 0.868000
0.011110 -0.022000 0.878000
-0.005533 0.022162 0.881000
-0.015266 -0.015496 0.899000
0.014896 0.005039 0.867000
0.014134 0.022801 0.864000
0.012888 -0.019066 0.876000
0.018233 -0.009658 0.873000
-0.017923 0.035700 0.884000
0.020392 0.028646 0.858000
-0.006322 -0.014242 0.890000
0.000624 0.031912 0.870000
-0.008472 0.016435 0.885000
-0.007015 -0.003599 0.885000
-0.031421 -0.002142 0.885000
0.023598 0.023377 0.859000
-0.001887 0.044905 0.872000
-0.000462 -0.039239 0.892000
0.007078 0.014741 0.871000
0.017895 -0.016504 0.874000
0.013810 0.016082 0.866000
-0.028764 -0.013187 0.893000
-0.020447 -0.009206 0.899000
-0.007726 0.015308 0.883000
0.000273 -0.040340 0.892000
0.013391 0.036940 0.862000
-0.017040 0.003359 0.895000
-0.013357 -0.009533 0.895000
0.000269 -0.010472 0.881000
0.013407 0.038404 0.863000
0.008172 -0.009658 0.873000
0.019732 0.019864 0.860000
0.011289 0.029558 0.864000
0.009367 -0.039979 0.884000
0.014741 -0.035411 0.879000
0.014523 0.012161 0.866000
-0.013357 -0.009165 0.895000
-0.028764 -0.014290 0.893000
0.004938 0.018009 0.873000
-0.022471 -0.032770 0.906000
-0.007070 -0.016844 0.892000
-0.015567 0.000413 0.895000
0.000994 -0.012633 0.880000
-0.031598 -0.014975 0.890000
0.024659 0.026205 0.859000
0.027622 -0.026941 0.886000
-0.026987 -0.014690 0.895000
0.007471 -0.013282 0.875000
-0.021561 0.025876 0.884000
0.020392 0.027587 0.858000
-0.003707 0.024616 0.878000
0.001720 -0.015548 0.881000
0.007167 -0.027546 0.882000
-0.005589 -0.025598 0.890000
0.002417 0.048439 0.871000
0.008097 0.036713 0.865000
-0.021725 -0.031651 0.906000
0.007070 0.012576 0.870000
-0.002967 0.028788 0.873000
-0.028185 0.031375 0.875000
0.007893 -0.027546 0.882000
0.001737 -0.039151 0.890000
-0.001185 -0.015601 0.884000
-0.016784 -0.021464 0.901000
0.017535 -0.021180 0.874000
0.023477 -0.026427 0.881000
0.003181 -0.026153 0.884000
0.000639 -0.036587 0.890000
-0.017976 -0.030126 0.905000
-0.022541 -0.000324 0.894000
0.017874 -0.009299 0.873000
0.001743 -0.047001 0.893000
0.012055 0.006831 0.868000
0.012180 -0.023419 0.877000
-0.024654 -0.028605 0.904000
0.002104 -0.039517 0.890000
0.031669 -0.021861 0.887000
0.004600 -0.012229 0.877000
-0.000453 0.012288 0.875000
0.017977 -0.032480 0.878000
0.029844 -0.025146 0.887000
0.013969 -0.024474 0.876000
0.008860 0.015082 0.870000
-0.022844 -0.032024 0.906000
0.016959 0.016737 0.863000
-0.003694 0.036417 0.875000
-0.008190 -0.020193 0.894000
0.017535 -0.019382 0.874000
-0.012606 -0.006211 0.894000
-0.030671 -0.024268 0.895000
0.005334 -0.016960 0.879000
0.017535 -0.013267 0.874000
-0.002673 -0.044160 0.895000
-0.003757 -0.022667 0.890000
0.013500 -0.000315 0.869000
0.006743 -0.009310 0.874000
0.024148 -0.022749 0.879000
0.000989 0.018071 0.876000
0.020122 -0.014395 0.877000
-0.000459 -0.024444 0.888000
0.006743 -0.007511 0.874000
0.014439 0.033708 0.861000
-0.025722 0.032529 0.877000
0.023763 0.013927 0.865000
0.016114 -0.025526 0.875000
-0.006991 0.015653 0.882000
-0.020904 0.020853 0.887000
0.003485 0.039386 0.869000
0.000986 0.024836 0.873000
-0.016542 0.023800 0.888000
0.018444 0.005389 0.866000
-0.010657 0.020806 0.885000
0.017234 0.029741 0.859000
-0.020833 0.027695 0.884000
0.006735 -0.003909 0.873000
0.012384 0.019646 0.866000
-0.022339 0.019371 0.886000
-0.013431 -0.028108 0.900000
0.005780 -0.048417 0.892000
0.014931 -0.000672 0.869000
0.019068 0.016008 0.862000
-0.014093 -0.006955 0.895000
-0.016085 0.040384 0.883000
-0.025650 0.008440 0.887000
0.022998 0.016382 0.863000
-0.034024 -0.033883 0.896000
0.002773 0.025108 0.870000
-0.017936 -0.025228 0.903000
-0.001900 0.017750 0.878000
0.024120 -0.021639 0.878000
-0.006251 0.027208 0.880000
-0.010621 0.031989 0.882000
0.019378 -0.026277 0.876000
-0.000825 -0.023347 0.888000
-0.002620 0.024949 0.877000
-0.012101 0.029151 0.884000
-0.003694 0.040018 0.875000
0.005683 -0.014395 0.877000
0.002776 0.048797 0.871000
-0.008916 -0.015025 0.893000
-0.020561 -0.024140 0.904000
0.002431 0.051241 0.876000
-0.001182 -0.009758 0.882000
0.005285 0.013307 0.871000
-0.028925 -0.024349 0.898000
0.016939 0.020265 0.862000
-0.012156 0.015029 0.888000
-0.020288 0.008855 0.892000
-0.031859 0.015925 0.877000
-0.011209 -0.034405 0.900000
0.007911 -0.035249 0.884000
0.000273 -0.045950 0.894000
-0.033129 0.002585 0.882000
-0.022188 0.033727 0.880000
-0.031634 -0.016825 0.891000
0.008097 0.037425 0.865000
0.021702 0.004330 0.868000
0.024418 0.017802 0.863000
0.018317 -0.029916 0.877000
-0.008080 0.009482 0.882000
0.025377 -0.028336 0.884000
0.008135 0.010415 0.869000
0.024390 0.020265 0.862000
0.018380 -0.034727 0.880000
-0.007070 -0.018312 0.892000
-0.021903 -0.009935 0.898000
-0.011949 -0.032553 0.900000
0.001736 -0.035082 0.889000
-0.019965 0.005196 0.894000
0.007094 -0.006784 0.873000
-0.021975 0.021559 0.886000
-0.007700 0.031554 0.880000
0.001359 -0.016655 0.882000
-0.014172 -0.024403 0.900000
0.018004 0.015653 0.862000
-0.008089 0.004041 0.883000
0.007938 -0.045590 0.887000
0.017936 -0.027719 0.876000
-0.019294 -0.004386 0.897000
0.006009 0.015117 0.872000
0.015736 -0.013626 0.874000
0.004927 0.048439 0.871000
-0.004460 -0.011235 0.884000
0.007462 0.049325 0.874000
-0.015757 0.032826 0.885000
-0.020331 0.043408 0.878000
-0.005589 -0.029627 0.890000
-0.002655 -0.019349 0.889000
-0.032915 -0.009073 0.886000
0.023980 0.032961 0.860000
0.023598 0.025144 0.859000
-0.005996 -0.036833 0.896000
0.003851 0.024062 0.871000
-0.008558 -0.023137 0.894000
-0.029848 0.038760 0.871000
-0.025708 0.004069 0.889000
0.009377 -0.042938 0.885000
-0.023856 -0.024086 0.902000
0.014439 0.035480 0.861000
-0.007102 -0.032039 0.896000
-0.007304 0.050159 0.876000
-0.011009 0.026604 0.884000
-0.011527 -0.017657 0.896000
-0.006983 0.012372 0.881000
-0.009565 0.003686 0.885000
0.002412 0.043678 0.869000
-0.019122 0.019802 0.889000
0.007167 -0.028998 0.882000
0.010026 -0.018386 0.878000
-0.013817 -0.029993 0.901000
-0.029848 0.035533 0.871000
-0.013725 -0.004745 0.895000
-0.024626 -0.028201 0.903000
0.021394 0.000401 0.870000
-0.006771 -0.045939 0.901000
-0.005620 -0.034214 0.895000
-0.026866 -0.003990 0.891000
-0.003368 -0.011963 0.884000
-0.028635 -0.003249 0.889000
-0.031108 -0.029860 0.897000
0.005267 0.036840 0.868000
0.022511 0.024762 0.858000
0.020559 0.008943 0.865000
-0.035013 -0.029359 0.893000
-0.016467 0.037519 0.884000
-0.000092 0.035215 0.872000
-0.006650 -0.005056 0.885000
0.023948 -0.033103 0.885000
-0.016395 -0.016254 0.900000
-0.008462 0.013506 0.884000
0.017254 -0.031757 0.878000
0.009878 0.033152 0.865000
0.009324 -0.026397 0.880000
-0.007708 0.029414 0.881000
-0.017777 0.001518 0.895000
-0.020233 -0.032024 0.906000
0.019603 -0.001031 0.870000
0.020109 0.036543 0.861000
-0.031527 -0.010190 0.888000
-0.001200 -0.045633 0.895000
0.005676 -0.011855 0.876000
0.016286 0.012147 0.865000
0.021036 0.000401 0.870000
0.015930 0.013215 0.865000
-0.000092 0.050404 0.874000
-0.028904 0.002596 0.886000
0.017983 0.020596 0.861000
-0.015114 0.017993 0.890000
-0.021659 0.017587 0.888000
0.012111 -0.006776 0.872000
-0.015198 -0.003271 0.895000
0.022590 0.035125 0.861000
-0.028603 -0.002880 0.888000
0.019333 0.028646 0.858000
-0.009128 0.043408 0.878000
-0.030088 0.019196 0.878000
-0.008806 0.029085 0.882000
0.009878 0.032084 0.865000
-0.032477 -0.002867 0.884000
-0.001921 -0.019692 0.888000
-0.021258 -0.019632 0.902000
0.026134 -0.029096 0.885000
0.018572 -0.007853 0.872000
-0.003326 0.030225 0.873000
0.003565 -0.042034 0.889000
0.014101 0.029135 0.862000
-0.032624 -0.011286 0.888000
0.017254 0.036146 0.860000
0.022391 0.007180 0.867000
0.014166 0.014300 0.866000
0.023786 -0.023472 0.879000
-0.012549 0.009568 0.890000
0.021983 0.010723 0.865000
-0.028700 -0.008024 0.891000
-0.010316 0.011726 0.887000
0.014085 0.034771 0.861000
-0.006613 0.026483 0.880000
0.006354 0.010427 0.870000
0.028447 -0.030325 0.889000
-0.015971 -0.007709 0.897000
-0.022717 -0.016643 0.901000
0.019709 0.034690 0.859000
0.011524 -0.038073 0.882000
-0.002264 0.053225 0.879000
0.002814 -0.029031 0.883000
-0.008089 0.020395 0.883000
0.008620 -0.028272 0.882000
-0.018638 -0.014789 0.901000
0.017792 -0.001745 0.869000
-0.002302 -0.038959 0.894000
-0.006983 0.026876 0.881000
0.022365 0.008954 0.866000
0.018974 -0.022260 0.874000
-0.021805 0.001148 0.894000
0.010602 0.022141 0.866000
0.001700 0.037326 0.871000
0.017234 0.034690 0.859000
0.004658 -0.041256 0.888000
0.000988 0.020571 0.875000
-0.031314 0.006215 0.882000
0.011445 -0.015460 0.876000
0.010996 0.014349 0.869000
0.010222 0.029202 0.864000
0.000271 -0.032448 0.887000
-0.008034 0.043358 0.877000
0.001708 0.020571 0.875000
0.000273 -0.042910 0.892000
-0.007735 0.016416 0.884000
-0.020928 0.017587 0.888000
0.002057 0.040864 0.870000
-0.008836 -0.000685 0.885000
-0.000459 -0.021520 0.888000
0.016527 0.032569 0.859000
-0.030034 -0.029154 0.898000
-0.002967 0.044957 0.873000
-0.031407 -0.026478 0.895000
-0.012901 0.012484 0.889000
-0.004409 0.045728 0.874000
-0.022371 -0.020374 0.902000
-0.031605 0.008736 0.880000
0.009533 0.022498 0.866000
-0.014030 0.010679 0.891000
0.000988 0.021291 0.875000
-0.021305 -0.024512 0.904000
0.012347 -0.046059 0.889000
-0.009532 0.030537 0.882000
-0.009200 0.018620 0.885000
0.000269 0.009088 0.879000
-0.005935 -0.013099 0.887000
0.029015 -0.021787 0.884000
0.014117 0.038048 0.863000
-0.017078 -0.003648 0.897000
-0.006999 0.000770 0.883000
-0.017539 0.038930 0.883000
0.011302 0.039917 0.865000
0.006820 -0.033066 0.884000
0.021577 0.014961 0.863000
-0.008462 0.019691 0.884000
-0.033682 -0.012004 0.887000
0.008172 -0.009299 0.873000
-0.001554 -0.026241 0.887000
0.006078 -0.023189 0.882000
-0.031498 0.017369 0.877000
-0.009662 -0.014674 0.894000
-0.014078 -0.002164 0.894000
0.010996 0.001831 0.869000
0.023264 0.006511 0.873000
-0.023225 0.030149 0.892000
-0.003349 0.021750 0.879000
0.001700 0.048439 0.871000
-0.027477 -0.024746 0.899000
-0.032476 -0.025713 0.894000
-0.008405 0.043408 0.878000
0.013969 -0.024113 0.876000
0.001698 0.032628 0.870000
-0.004414 0.039298 0.875000
0.022891 0.024791 0.859000
0.011135 -0.031467 0.880000
-0.016850 0.032462 0.885000
0.004558 0.035094 0.869000
-0.004414 0.031735 0.875000
-0.012843 0.028455 0.885000
-0.031478 -0.031337 0.897000
-0.007354 0.006941 0.882000
-0.029499 0.009119 0.882000
-0.026589 -0.011730 0.894000
-0.012115 0.028455 0.885000
-0.008587 -0.031337 0.897000
-0.006643 -0.002503 0.884000
-0.006215 0.047581 0.875000
0.012384 0.018577 0.866000
-0.013817 -0.027768 0.901000
-0.002987 0.020665 0.879000
0.004302 -0.046477 0.890000
0.016267 0.013200 0.864000
-0.015654 -0.020329 0.900000
0.006332 0.032515 0.867000
-0.019920 0.010691 0.892000
-0.005589 -0.027063 0.890000
0.007565 -0.043351 0.886000
-0.020794 -0.008456 0.898000
0.009731 -0.040342 0.884000
0.000985 0.025525 0.872000
-0.015828 0.021998 0.889000
-0.000093 -0.010822 0.880000
0.007037 0.038181 0.866000
0.002099 -0.034312 0.888000
-0.013694 -0.000323 0.893000
0.020392 0.028293 0.858000
-0.003001 -0.009405 0.883000
-0.035262 -0.021568 0.890000
0.011563 -0.042938 0.885000
-0.028839 0.033100 0.873000
-0.031039 -0.025005 0.895000
-0.028773 0.012749 0.882000
0.008502 0.002550 0.870000
-0.021245 0.021559 0.886000
0.003145 0.020547 0.874000
0.002078 -0.013704 0.879000
-0.005170 0.006933 0.881000
-0.021801 0.036945 0.879000
-0.036565 -0.032372 0.895000
-0.013587 0.026664 0.886000
-0.015341 0.041427 0.882000
0.000982 0.028331 0.870000
0.007539 -0.031938 0.883000
0.022891 0.023023 0.859000
-0.019466 0.021607 0.888000
0.016230 0.022394 0.862000
-0.007796 -0.012791 0.891000
-0.023986 -0.002161 0.893000
-0.008089 0.022576 0.883000
-0.005234 -0.031162 0.892000
0.021452 0.030059 0.858000
0.021602 0.012845 0.864000
0.008629 -0.033028 0.883000
0.013391 0.037295 0.862000
-0.008756 0.048412 0.877000
0.000269 -0.011909 0.880000
0.009155 0.025646 0.864000
-0.005507 0.037944 0.877000
0.004568 0.048080 0.871000
0.008850 0.018641 0.869000
-0.027042 0.038130 0.873000
0.002779 0.010810 0.872000
-0.031172 0.014498 0.878000
0.005968 0.025706 0.866000
-0.026279 -0.014707 0.896000
0.000628 0.009407 0.875000
0.009687 -0.024586 0.880000
0.020179 0.010711 0.864000
-0.019466 0.021242 0.888000
-0.019794 -0.022255 0.903000
-0.024251 0.037901 0.876000
0.003124 0.028980 0.868000
-0.019573 -0.033664 0.910000
-0.031634 -0.015725 0.891000
-0.005164 0.025397 0.880000
0.022721 0.009310 0.866000
-0.005264 -0.041674 0.897000
0.009208 0.017211 0.869000
-0.027319 -0.034261 0.906000
-0.016285 0.006299 0.894000
0.021527 0.017407 0.861000
-0.021245 0.022288 0.886000
-0.005902 0.001859 0.882000
0.013640 -0.031757 0.878000
-0.034009 -0.009802 0.886000
-0.031705 -0.021273 0.893000
-0.003414 -0.043471 0.896000
0.017455 -0.003538 0.870000
-0.008395 0.051299 0.877000
0.017116 -0.006768 0.871000
0.024390 0.019910 0.862000
-0.008916 -0.027154 0.893000
0.018572 -0.007135 0.872000
-0.029367 -0.006542 0.889000
0.019709 0.024084 0.859000
-0.013177 0.036386 0.883000
0.006332 0.034656 0.867000
0.001363 -0.026182 0.885000
-0.023905 0.006271 0.890000
-0.031162 -0.009093 0.888000
0.005279 0.046235 0.870000
-0.005602 -0.022351 0.892000
-0.001168 0.043778 0.871000
-0.026291 0.013506 0.884000
-0.017428 -0.001800 0.896000
-0.010328 0.001871 0.888000
-0.008453 0.010220 0.883000
0.002824 0.055108 0.886000
0.020483 -0.026668 0.877000
-0.024864 0.015706 0.885000
-0.011764 0.022653 0.886000
0.011860 -0.032554 0.880000
0.009923 0.011846 0.869000
-0.027558 0.028230 0.878000
0.008659 0.054014 0.886000
0.016900 0.035085 0.860000
-0.035668 -0.023426 0.891000
-0.013207 0.030641 0.885000
-0.018587 0.041743 0.881000
-0.021610 0.021559 0.886000
0.011034 -0.007853 0.872000
-0.037140 -0.029589 0.900000
0.006712 0.006846 0.870000
-0.027019 0.012414 0.884000
0.007885 0.052258 0.881000
0.005676 -0.013657 0.876000
0.009240 0.044905 0.872000
-0.017963 0.029946 0.886000
-0.028893 -0.024691 0.897000
0.001710 0.051241 0.876000
-0.021653 -0.021883 0.903000
0.008444 0.029202 0.864000
0.007876 -0.019877 0.880000
0.012153 -0.014002 0.875000
-0.036237 -0.019132 0.896000
0.000999 -0.028368 0.885000
-0.008025 0.048717 0.876000
0.023571 0.026175 0.858000
-0.032513 -0.029057 0.895000
-0.029432 0.015618 0.880000
-0.016340 -0.006970 0.897000
-0.004414 0.050462 0.875000
-0.008043 0.039071 0.878000
0.004910 0.035054 0.868000
-0.008080 0.024729 0.882000
0.021350 -0.034845 0.883000
0.023504 -0.028272 0.882000
-0.016542 0.022704 0.888000
-0.030449 0.018112 0.878000
-0.010585 0.044904 0.879000
0.013890 -0.006051 0.871000
-0.020242 0.014696 0.890000
-0.001194 -0.034428 0.891000
-0.028905 0.028134 0.875000
0.002473 -0.043229 0.891000
-0.029466 -0.012438 0.892000
0.003501 0.049628 0.873000
-0.007437 -0.023452 0.892000
0.015412 -0.028079 0.876000
-0.009450 -0.039987 0.909000
0.009709 -0.032628 0.882000
0.021099 0.027940 0.858000
0.022477 -0.035847 0.899000
0.009912 0.004330 0.868000
-0.000810 0.048853 0.872000
-0.009439 -0.040316 0.908000
0.007786 0.013650 0.870000
-0.012128 0.022288 0.886000
-0.032222 -0.008718 0.887000
0.012055 0.011832 0.868000
0.001718 -0.013358 0.880000
0.015502 0.028392 0.861000
0.020168 -0.029623 0.879000
-0.018928 0.043144 0.880000
0.023193 -0.032702 0.884000
0.010316 -0.007494 0.872000
0.017649 0.017782 0.862000
0.016362 -0.002461 0.869000
-0.029591 0.028461 0.874000
0.010984 0.002544 0.868000
-0.003703 0.052382 0.877000
0.005709 0.052621 0.881000
0.026771 -0.022826 0.882000
-0.006628 0.020372 0.882000
-0.002261 0.022448 0.878000
0.008200 -0.015100 0.876000
-0.006371 -0.037244 0.897000
-0.018861 0.005931 0.894000
0.015253 0.007180 0.867000
0.006009 0.015835 0.872000
0.020416 0.035044 0.859000
0.011034 -0.007135 0.872000
-0.008472 0.016071 0.885000
-0.007346 0.010196 0.881000
-0.031740 -0.022401 0.894000
-0.010778 -0.015059 0.895000
0.001000 -0.025483 0.886000
-0.004510 -0.034176 0.894000
-0.023798 0.014995 0.886000
0.005285 0.007930 0.871000
0.005255 0.026775 0.866000
0.016969 -0.037710 0.882000
0.015736 -0.019022 0.874000
-0.009200 0.015706 0.885000
-0.010270 0.027664 0.883000
0.013531 -0.005693 0.871000
0.024659 0.025144 0.859000
0.019400 0.017761 0.861000
0.004558 0.045824 0.869000
-0.018328 0.028852 0.886000
0.018025 0.014961 0.863000
-0.008462 0.020055 0.884000
-0.019653 0.040247 0.880000
0.009250 0.046035 0.873000
0.008860 -0.001389 0.870000
