0.014489 0.038804 0.864000
0.007831 -0.012201 0.875000
-0.035988 -0.031037 0.899000
-0.020739 0.037711 0.880000
-0.018146 0.008885 0.895000
-0.026776 0.008450 0.888000
0.006797 -0.021350 0.881000
-0.031172 0.025339 0.878000
0.019378 0.017740 0.860000
0.003843 0.040817 0.869000
0.005989 0.045824 0.869000
-0.021305 -0.014466 0.904000
-0.014847 0.005207 0.896000
-0.003766 -0.023452 0.892000
0.019082 -0.029623 0.879000
0.010920 0.036628 0.863000
-0.004064 0.035778 0.877000
-0.027940 -0.023344 0.902000
0.001700 0.038760 0.871000
-0.007118 -0.032480 0.898000
-0.012251 0.001149 0.895000
0.003160 -0.011520 0.878000
0.010163 -0.046477 0.890000
0.015068 -0.028472 0.877000
-0.001568 -0.040476 0.895000
-0.021903 -0.001804 0.898000
0.012236 -0.036579 0.881000
0.008972 -0.029327 0.881000
0.008840 0.020764 0.868000
-0.022163 0.038030 0.879000
0.007045 0.022524 0.867000
0.011276 0.030589 0.863000
0.011617 0.033392 0.862000
0.015808 -0.031396 0.878000
-0.008108 0.023720 0.885000
-0.004419 0.050520 0.876000
-0.010120 -0.033739 0.902000
0.000983 0.026213 0.871000
0.006471 -0.037152 0.886000
-0.024808 0.024030 0.883000
-0.028397 -0.003264 0.893000
0.024565 -0.023526 0.881000
0.016096 -0.014346 0.874000
0.000632 -0.012285 0.881000
0.019801 0.009988 0.863000
0.003900 -0.009032 0.882000
-0.005234 -0.029326 0.892000
-0.025510 -0.029852 0.908000
0.008512 -0.004259 0.871000
-0.008856 0.000409 0.887000
-0.016504 0.034322 0.886000
-0.016431 -0.011093 0.902000
-0.001889 0.046035 0.873000
0.017575 -0.025916 0.876000
-0.037098 -0.028817 0.899000
0.017097 -0.005686 0.870000
-0.024278 0.037222 0.877000
-0.029632 -0.014723 0.897000
-0.009651 -0.007674 0.893000
0.012527 -0.021229 0.876000
-0.030607 -0.031953 0.904000
-0.032771 -0.011337 0.892000
0.005982 0.033267 0.868000
-0.002974 0.028134 0.875000
0.008154 -0.002466 0.871000
0.006071 0.052984 0.881000
-0.014078 0.009611 0.894000
0.021502 0.017740 0.860000
0.001376 -0.045531 0.893000
-0.008568 -0.023900 0.895000
0.010700 -0.010389 0.874000
-0.012306 -0.013276 0.899000
0.028383 -0.027337 0.887000
0.006689 0.038582 0.867000
-0.000456 -0.011573 0.882000
-0.015283 -0.008475 0.900000
-0.010657 0.031733 0.885000
0.011498 -0.032554 0.880000
-0.006279 0.020782 0.884000
-0.014731 0.025657 0.889000
-0.031279 0.016361 0.881000
0.013037 0.027361 0.862000
-0.002287 -0.028464 0.888000
0.006002 0.021552 0.871000
-0.032844 -0.014306 0.894000
-0.000459 -0.026972 0.887000
-0.008062 0.051113 0.880000
-0.030796 0.002602 0.888000
0.005023 -0.041621 0.888000
-0.012733 -0.028201 0.903000
-0.026351 0.014266 0.886000
-0.008098 0.010959 0.884000
-0.034529 -0.008015 0.890000
0.012167 -0.020868 0.876000
-0.019315 0.001892 0.898000
-0.035131 -0.005487 0.896000
-0.011159 -0.006963 0.896000
-0.002623 0.011246 0.878000
-0.024255 -0.016308 0.903000
-0.029202 0.013506 0.884000
-0.023539 0.011766 0.890000
-0.014284 0.039338 0.884000
0.021181 -0.021589 0.876000
0.006016 -0.002113 0.873000
-0.003418 -0.039828 0.897000
0.009599 -0.006417 0.872000
-0.002259 0.013399 0.877000
-0.016194 0.026023 0.889000
0.008116 0.021810 0.867000
0.003517 -0.010424 0.877000
-0.001531 0.050045 0.874000
-0.000811 0.041723 0.873000
-0.028732 -0.003627 0.892000
0.006009 0.015835 0.872000
0.005364 -0.025061 0.884000
0.017595 -0.028111 0.877000
0.027622 -0.026941 0.886000
0.023024 0.011066 0.864000
0.003485 0.044036 0.869000
-0.009694 -0.025799 0.897000
-0.021413 0.009600 0.893000
-0.025136 -0.030226 0.908000
0.012456 -0.004617 0.871000
-0.017983 0.028519 0.887000
0.012726 0.017132 0.865000
-0.013032 -0.006608 0.898000
0.024277 0.026881 0.858000
-0.015811 0.027821 0.888000
0.002440 -0.012257 0.879000
0.000624 0.030121 0.870000
-0.001533 0.035336 0.875000
-0.036237 -0.024295 0.896000
-0.008245 -0.032923 0.900000
0.020249 0.002898 0.867000
0.006681 0.029270 0.866000
0.006354 0.010069 0.870000
0.013233 -0.020124 0.875000
0.014215 -0.001388 0.869000
-0.028938 0.031411 0.876000
0.016280 -0.039251 0.884000
-0.017857 -0.001436 0.899000
-0.018988 -0.003289 0.900000
-0.019630 0.041648 0.879000
0.018952 -0.008580 0.873000
0.010577 0.030625 0.864000
0.010749 -0.023084 0.878000
-0.033175 -0.013555 0.893000
-0.019400 0.031005 0.885000
-0.007822 -0.023505 0.894000
-0.024362 -0.025713 0.907000
-0.000094 -0.021885 0.888000
-0.009963 0.017587 0.888000
0.015500 0.051171 0.881000
0.002824 -0.022930 0.886000
0.001343 0.035933 0.872000
-0.014591 -0.021140 0.903000
0.011072 -0.014362 0.875000
0.002785 0.021627 0.874000
-0.029964 0.010607 0.885000
0.013248 -0.024113 0.876000
-0.016095 -0.017443 0.904000
-0.024444 0.025120 0.883000
-0.008434 0.040655 0.881000
-0.026774 0.034295 0.876000
0.014758 -0.035814 0.880000
-0.004873 -0.020171 0.893000
-0.033101 -0.008391 0.891000
-0.001584 -0.047208 0.904000
0.013826 0.005395 0.867000
-0.006236 0.041962 0.878000
-0.027476 0.010631 0.887000
-0.021029 0.043358 0.877000
-0.007682 0.048467 0.878000
0.006712 0.011143 0.870000
0.004910 0.037197 0.868000
-0.010097 -0.028108 0.900000
0.022804 -0.029757 0.883000
-0.003690 0.046088 0.874000
0.013263 -0.028833 0.877000
0.018980 0.033590 0.858000
-0.035209 -0.028045 0.898000
-0.005895 0.010922 0.881000
-0.023932 0.007745 0.891000
-0.027920 0.028230 0.878000
-0.014698 0.033265 0.887000
0.027653 -0.028067 0.887000
-0.000093 0.051542 0.875000
-0.000826 -0.025203 0.889000
0.009240 -0.006776 0.872000
-0.000811 0.039567 0.873000
-0.016616 0.017299 0.892000
-0.017618 0.030710 0.887000
-0.010305 0.026299 0.886000
-0.000094 -0.040018 0.893000
-0.016249 0.019502 0.892000
-0.016784 -0.005889 0.901000
-0.022894 -0.025742 0.908000
-0.032108 -0.012834 0.894000
0.011276 0.029879 0.863000
-0.004802 0.013082 0.880000
-0.029332 0.027115 0.877000
0.006812 -0.027213 0.883000
-0.019854 0.021998 0.889000
0.019961 -0.001747 0.870000
-0.005205 -0.011639 0.887000
0.024418 0.016382 0.863000
-0.009221 0.019393 0.887000
-0.028142 0.013157 0.885000
-0.019697 0.035982 0.882000
0.005982 0.040770 0.868000
-0.027073 0.038533 0.874000
-0.002302 -0.034544 0.894000
-0.033834 0.006278 0.891000
-0.032844 -0.015410 0.894000
-0.014896 -0.004026 0.899000
-0.007682 0.050635 0.878000
0.022485 0.024380 0.857000
0.006383 -0.006792 0.874000
0.027987 -0.026212 0.886000
0.009566 0.001474 0.869000
0.002798 0.052080 0.878000
0.005625 0.040770 0.868000
0.004273 -0.030155 0.884000
-0.030099 0.001142 0.889000
-0.023173 0.012132 0.890000
0.001342 0.040552 0.871000
-0.034974 -0.013907 0.892000
0.008983 -0.032991 0.882000
-0.003715 0.023948 0.880000
-0.026886 -0.024140 0.904000
0.005663 -0.000317 0.874000
-0.020060 0.034893 0.882000
0.007732 0.027424 0.864000
-0.009895 0.039975 0.882000
-0.014284 0.040794 0.884000
-0.009684 -0.013600 0.896000
0.015034 -0.022645 0.875000
-0.013090 -0.022230 0.902000
-0.006991 0.029448 0.882000
0.000642 -0.046370 0.895000
0.021502 0.015971 0.860000
0.003834 0.028233 0.867000
-0.023355 -0.002909 0.897000
0.009566 0.010058 0.869000
0.007377 0.026713 0.864000
0.024277 0.024409 0.858000
0.009346 -0.033354 0.882000
0.016173 0.027973 0.859000
-0.018840 0.015113 0.893000
0.012083 -0.002822 0.870000
0.011698 0.009331 0.868000
-0.026602 -0.030193 0.907000
0.009033 -0.043400 0.887000
-0.005539 0.023640 0.882000
-0.025986 0.014630 0.886000
0.008688 -0.046059 0.889000
0.023299 0.016344 0.861000
-0.029332 0.026754 0.877000
0.010847 -0.041892 0.886000
0.005812 0.001890 0.897000
-0.029951 0.034217 0.874000
-0.017479 0.043869 0.880000
-0.015917 0.013290 0.894000
0.020203 0.006807 0.865000
0.008483 0.041841 0.868000
0.003188 0.055837 0.886000
0.004200 0.032590 0.869000
0.000636 -0.027306 0.886000
-0.021210 -0.004401 0.900000
-0.023945 0.036903 0.878000
-0.024836 0.026240 0.884000
-0.009963 0.019049 0.888000
-0.019422 0.029217 0.886000
-0.027693 -0.005107 0.894000
-0.022678 0.024084 0.885000
-0.005501 0.046193 0.876000
-0.000460 -0.032887 0.889000
-0.034470 -0.026567 0.898000
-0.012334 -0.021464 0.901000
0.001726 -0.017421 0.884000
0.014379 -0.032517 0.879000
0.026075 -0.024669 0.883000
0.015271 0.000043 0.868000
-0.029458 -0.027458 0.903000
-0.004500 -0.016844 0.892000
-0.019509 -0.021234 0.907000
-0.013602 0.032170 0.887000
-0.005895 0.011284 0.881000
-0.028015 0.021075 0.881000
-0.023671 0.000413 0.895000
0.005975 0.023594 0.867000
0.022881 -0.034234 0.886000
-0.034239 -0.013907 0.892000
0.023190 0.025086 0.857000
-0.016304 0.010358 0.895000
-0.000454 0.018835 0.878000
-0.031857 0.001139 0.887000
0.007184 0.054256 0.884000
-0.015757 0.036833 0.885000
0.017274 0.016344 0.861000
-0.000815 0.024227 0.877000
0.003497 0.023730 0.872000
0.024277 0.026175 0.858000
0.013778 0.019601 0.864000
-0.031057 0.008057 0.885000
-0.001540 0.018856 0.879000
-0.029862 0.016742 0.882000
-0.034839 -0.026567 0.898000
0.005975 0.039295 0.867000
0.016267 0.008577 0.864000
-0.008936 -0.012849 0.895000
-0.008472 0.010243 0.885000
0.015912 0.009288 0.864000
-0.020739 0.037349 0.880000
-0.015232 0.003736 0.897000
0.019157 0.004676 0.866000
0.005261 0.025022 0.867000
0.005364 -0.027244 0.884000
0.018713 0.011396 0.862000
-0.027228 0.028262 0.879000
-0.023063 -0.008846 0.900000
0.004684 -0.004366 0.893000
0.009033 -0.043035 0.887000
-0.016831 0.038611 0.884000
0.019061 -0.028505 0.878000
-0.029533 0.014581 0.883000
-0.001902 0.018494 0.879000
0.004938 0.018727 0.873000
-0.030370 -0.016200 0.897000
0.010712 -0.014002 0.875000
-0.000456 -0.011210 0.882000
-0.029232 0.034217 0.874000
0.011276 0.028813 0.863000
0.012470 -0.006776 0.872000
0.009588 0.044495 0.871000
0.009912 0.004330 0.868000
0.011685 0.040723 0.867000
0.015218 0.009655 0.865000
0.009687 -0.027483 0.880000
0.023611 -0.033505 0.886000
-0.004785 0.040471 0.877000
-0.004175 -0.045939 0.901000
-0.016896 -0.028700 0.907000
-0.019787 0.028487 0.886000
0.029081 -0.025483 0.886000
0.008962 -0.023137 0.880000
-0.033472 -0.030735 0.901000
0.008993 -0.037026 0.883000
-0.004895 -0.036875 0.897000
0.025069 -0.030588 0.886000
-0.019531 0.016546 0.891000
-0.030671 -0.012480 0.895000
-0.035380 -0.015025 0.893000
0.022726 -0.024586 0.880000
0.023543 0.027555 0.857000
-0.005922 0.000408 0.885000
0.013562 -0.010377 0.873000
0.006719 0.012949 0.871000
0.004574 0.022654 0.872000
-0.003418 -0.040936 0.897000
-0.029198 0.039927 0.873000
0.010761 -0.027452 0.879000
-0.003028 -0.021226 0.891000
-0.017253 0.030710 0.887000
0.007902 -0.032665 0.883000
-0.024517 -0.009946 0.899000
-0.029466 -0.005096 0.892000
-0.007717 0.033804 0.882000
-0.012210 0.011792 0.892000
-0.034684 -0.018721 0.894000
-0.006975 0.052923 0.880000
-0.006236 0.052803 0.878000
-0.016858 -0.020814 0.905000
0.017874 -0.008940 0.873000
-0.028797 -0.006947 0.894000
-0.018064 0.020214 0.891000
-0.013848 -0.022627 0.903000
0.014573 -0.003176 0.869000
-0.016672 0.009990 0.895000
-0.000814 0.025281 0.876000
0.006092 -0.030883 0.884000
-0.005868 0.043719 0.877000
-0.009521 0.044644 0.881000
-0.013476 -0.024485 0.903000
-0.018777 0.020923 0.890000
-0.001198 -0.040431 0.894000
-0.017857 0.000784 0.899000
0.014199 0.001829 0.868000
0.006332 0.036084 0.867000
-0.001898 0.011594 0.877000
-0.013725 0.005201 0.895000
-0.001566 -0.037487 0.894000
0.006361 0.018684 0.871000
-0.010754 0.000412 0.893000
-0.007770 -0.005804 0.888000
0.018735 0.010343 0.863000
0.018252 0.030024 0.857000
0.005968 0.024280 0.866000
-0.000093 0.023145 0.877000
0.003188 -0.025118 0.886000
0.009980 -0.010749 0.874000
-0.019220 -0.031451 0.911000
-0.001169 0.028396 0.872000
0.023424 -0.023472 0.879000
-0.004802 0.014169 0.880000
0.011098 -0.020170 0.877000
0.013407 0.023130 0.863000
0.019061 -0.027421 0.878000
-0.028747 -0.028977 0.904000
-0.016449 -0.014078 0.903000
0.010651 0.042296 0.870000
0.006812 -0.026123 0.883000
-0.029054 -0.023715 0.902000
-0.032954 -0.022845 0.897000
-0.009200 0.028455 0.885000
-0.037511 -0.023151 0.909000
-0.029198 0.037771 0.873000
-0.032771 -0.010603 0.892000
-0.010984 0.043242 0.882000
-0.025855 -0.029446 0.907000
-0.001547 -0.012313 0.883000
-0.024735 -0.026460 0.907000
-0.004424 0.040110 0.877000
0.013937 -0.016504 0.874000
-0.030472 -0.022922 0.900000
-0.022692 -0.008105 0.900000
-0.005982 -0.020561 0.894000
0.013407 0.022420 0.863000
0.006398 0.050520 0.876000
0.015306 -0.005686 0.870000
0.015838 0.023404 0.860000
-0.029867 -0.006204 0.893000
-0.016067 0.043242 0.882000
0.001698 0.026183 0.870000
-0.002977 0.027805 0.876000
-0.018348 -0.017089 0.905000
-0.022339 0.021923 0.886000
-0.021776 0.040878 0.878000
0.012670 -0.041528 0.886000
0.018444 0.003963 0.866000
-0.003372 -0.013069 0.885000
-0.024463 -0.004755 0.897000
0.007732 0.026713 0.864000
-0.017681 -0.030634 0.909000
0.015113 0.031508 0.859000
0.025319 -0.024641 0.882000
0.012682 0.029490 0.862000
-0.025513 -0.003271 0.895000
-0.022808 0.042588 0.876000
0.007795 0.015458 0.871000
-0.003008 -0.012341 0.885000
0.004558 0.046539 0.869000
0.007947 -0.044911 0.888000
0.011148 -0.035492 0.881000
0.006743 -0.008230 0.874000
0.003581 -0.009880 0.893000
-0.022491 0.008488 0.892000
0.008620 -0.030087 0.882000
0.003188 -0.033870 0.886000
-0.025390 0.032567 0.878000
-0.024681 -0.021932 0.905000
-0.010164 -0.042838 0.906000
-0.033509 -0.032625 0.902000
-0.016635 0.015113 0.893000
-0.008520 -0.008747 0.890000
-0.006286 -0.002142 0.885000
0.008512 -0.003542 0.871000
-0.014381 0.024587 0.890000
-0.021797 -0.026892 0.909000
0.000268 0.017730 0.877000
-0.007346 0.036666 0.881000
-0.029499 0.017468 0.882000
0.007858 -0.016941 0.878000
-0.025940 -0.008816 0.897000
0.029911 -0.029228 0.889000
0.028781 -0.028829 0.888000
-0.001190 -0.017499 0.888000
-0.024693 0.005551 0.892000
-0.010456 -0.022896 0.899000
0.012799 -0.002822 0.870000
0.019289 -0.006417 0.872000
-0.013817 -0.017756 0.901000
-0.037885 -0.029511 0.909000
0.021148 0.017033 0.860000
-0.019575 0.014011 0.893000
0.005395 -0.043498 0.889000
0.015068 -0.029916 0.877000
0.005000 -0.027972 0.884000
-0.001558 -0.031423 0.889000
0.015165 0.020265 0.862000
0.025463 -0.031718 0.887000
0.020582 0.004676 0.866000
-0.023460 0.017202 0.887000
-0.030951 0.014564 0.882000
0.007768 0.041484 0.868000
0.005292 0.020859 0.872000
0.026468 -0.026153 0.884000
-0.000826 -0.019349 0.889000
-0.022844 -0.021583 0.906000
0.002833 -0.035448 0.889000
0.014982 -0.008929 0.872000
-0.025957 0.018256 0.885000
-0.018555 0.003736 0.897000
-0.029632 -0.014354 0.897000
-0.009985 0.010301 0.890000
0.004642 -0.026547 0.885000
0.002833 -0.035814 0.889000
0.000271 -0.017095 0.886000
-0.006379 -0.035068 0.898000
-0.014219 -0.021140 0.903000
-0.015549 0.014026 0.894000
-0.009996 0.002611 0.891000
-0.025708 0.010289 0.889000
-0.036647 -0.024691 0.897000
0.011328 0.040723 0.867000
-0.002261 0.010523 0.878000
0.020697 0.026818 0.856000
0.010281 0.013277 0.869000
-0.030235 -0.007674 0.893000
-0.007396 -0.003607 0.887000
0.011110 -0.024168 0.878000
-0.017078 0.005951 0.897000
-0.003762 -0.017192 0.891000
-0.008615 -0.032182 0.900000
-0.006300 -0.009083 0.887000
-0.013192 0.040066 0.884000
0.012682 0.027361 0.862000
0.007037 0.029983 0.866000
0.014001 -0.031757 0.878000
0.017018 0.002894 0.866000
0.000632 -0.011560 0.881000
0.003931 -0.038009 0.889000
-0.008453 0.032752 0.883000
0.010257 0.019312 0.867000
0.009208 0.001116 0.869000
-0.001921 -0.030291 0.888000
0.007548 -0.034885 0.884000
0.007750 0.038894 0.866000
-0.019072 -0.014094 0.904000
-0.000459 -0.020423 0.888000
-0.025542 -0.004750 0.896000
-0.021605 -0.007372 0.901000
-0.000826 -0.023008 0.889000
0.014113 0.053224 0.885000
0.000991 0.052803 0.878000
-0.006386 -0.038437 0.899000
-0.012292 -0.010674 0.898000
-0.000455 0.009098 0.880000
-0.021072 -0.030667 0.910000
0.001343 0.035574 0.872000
-0.010754 -0.000323 0.893000
-0.029834 -0.004362 0.892000
0.017097 -0.004254 0.870000
0.024630 0.025821 0.858000
0.004927 0.022628 0.871000
-0.007866 -0.033627 0.899000
0.017962 0.017387 0.860000
0.020030 -0.005706 0.873000
-0.001558 -0.024837 0.889000
0.005267 0.042556 0.868000
-0.027809 0.011348 0.886000
0.004995 -0.022489 0.883000
-0.006279 0.020419 0.884000
-0.011856 0.007027 0.893000
0.007094 0.049269 0.873000
0.013339 0.052318 0.882000
0.023543 0.024380 0.857000
0.012384 0.013944 0.866000
0.008541 -0.010749 0.874000
-0.019965 0.010347 0.894000
-0.003399 -0.021250 0.892000
-0.001528 0.031626 0.872000
0.004637 -0.029063 0.884000
0.018316 0.036146 0.860000
0.021677 0.005752 0.867000
-0.000831 -0.040799 0.894000
0.017920 0.023703 0.858000
-0.020300 -0.026518 0.909000
-0.022566 0.002623 0.895000
-0.024943 0.041819 0.875000
0.006820 -0.030155 0.884000
0.012642 -0.040342 0.884000
-0.007462 -0.019479 0.895000
-0.013342 0.007403 0.894000
-0.005929 -0.002144 0.886000
-0.013967 0.032170 0.887000
-0.019531 0.018013 0.891000
-0.029235 0.012064 0.885000
0.017936 -0.015460 0.876000
-0.018741 -0.020464 0.906000
0.013037 0.025587 0.862000
-0.006386 -0.035847 0.899000
-0.030881 0.033003 0.880000
-0.019444 0.027059 0.887000
0.012014 0.039205 0.865000
-0.034878 -0.030297 0.899000
0.022590 0.015281 0.861000
0.017535 -0.011828 0.874000
-0.014446 0.009979 0.894000
0.007750 0.032478 0.866000
-0.016542 0.028552 0.888000
-0.002623 0.010884 0.878000
0.002109 -0.042176 0.892000
0.009775 -0.044545 0.888000
-0.026987 -0.005481 0.895000
0.015820 0.032569 0.859000
0.010423 -0.033316 0.881000
0.012599 -0.036579 0.881000
0.002773 0.036209 0.870000
-0.022000 -0.009979 0.902000
0.020062 0.019134 0.859000
-0.031492 0.003329 0.887000
-0.019143 0.021290 0.890000
0.022838 0.023322 0.857000
-0.001934 -0.036015 0.894000
-0.018777 0.021656 0.890000
-0.028346 0.022499 0.880000
-0.023852 0.015394 0.888000
-0.006643 0.004046 0.884000
-0.010375 -0.000323 0.892000
-0.015497 0.021680 0.891000
-0.013952 0.034322 0.886000
0.018252 0.028260 0.857000
-0.008481 0.019735 0.886000
-0.001170 0.042801 0.873000
-0.019122 0.023095 0.889000
-0.031821 0.002961 0.886000
0.001718 -0.011909 0.880000
0.009155 0.033825 0.864000
-0.008236 -0.031037 0.899000
0.000626 0.035615 0.873000
0.017920 0.033237 0.858000
0.007037 0.037468 0.866000
-0.026866 0.028624 0.879000
0.018550 -0.005334 0.871000
-0.019641 0.005207 0.896000
0.003145 0.015152 0.874000
-0.022909 0.005196 0.894000
0.003935 -0.043547 0.890000
-0.007387 -0.001050 0.886000
-0.000451 0.047418 0.872000
-0.016467 0.037155 0.884000
0.018605 0.026144 0.857000
-0.018227 -0.001066 0.899000
-0.021805 0.005563 0.894000
-0.008472 0.006600 0.885000
0.011123 -0.029261 0.879000
-0.006711 -0.028257 0.893000
-0.007362 0.009129 0.883000
0.015772 -0.026998 0.876000
-0.009963 0.017953 0.888000
-0.018016 -0.024220 0.907000
-0.006386 -0.036587 0.899000
-0.021053 0.043046 0.878000
-0.009200 0.025177 0.885000
0.004574 0.006862 0.872000
-0.026805 0.032168 0.877000
0.008789 0.027037 0.863000
0.021427 0.025086 0.857000
-0.004133 -0.030795 0.892000
-0.024120 -0.007348 0.898000
0.000272 -0.021520 0.888000
-0.026856 -0.021140 0.903000
-0.007512 -0.041489 0.901000
-0.005915 0.002227 0.884000
-0.010682 0.023774 0.887000
0.001722 -0.016292 0.882000
-0.001198 -0.040063 0.894000
0.006324 0.029270 0.866000
-0.026309 -0.008816 0.897000
0.013516 -0.003180 0.870000
-0.004530 -0.040981 0.898000
0.016531 -0.030312 0.878000
-0.028643 0.026423 0.878000
0.020842 0.013170 0.862000
0.007167 -0.025730 0.882000
-0.024639 0.037944 0.877000
0.010984 0.013976 0.868000
0.017274 0.015989 0.861000
-0.017862 0.041380 0.881000
-0.027141 0.008815 0.888000
0.018317 -0.027028 0.877000
0.014791 0.051955 0.882000
0.022485 0.026144 0.857000
-0.013192 0.039338 0.884000
-0.011022 0.032826 0.885000
0.004944 0.050045 0.874000
0.007920 -0.038203 0.885000
-0.004087 0.008756 0.882000
-0.017231 -0.020069 0.905000
0.009229 -0.004976 0.871000
0.011432 -0.015443 0.875000
0.003192 -0.034638 0.887000
0.018486 -0.000314 0.868000
0.003127 0.045466 0.869000
0.009208 0.013992 0.869000
0.006332 0.038939 0.867000
-0.014995 0.042201 0.883000
-0.028120 0.038489 0.873000
-0.005595 -0.026726 0.891000
-0.006673 -0.011286 0.888000
-0.006343 -0.014658 0.893000
0.004916 0.032590 0.869000
0.022184 0.033276 0.859000
0.012755 0.010034 0.867000
-0.021725 -0.019719 0.906000
-0.020863 -0.007372 0.901000
0.010920 0.034497 0.863000
0.002080 -0.014806 0.880000
-0.018204 0.043506 0.880000
-0.013104 -0.025228 0.903000
0.014477 -0.040024 0.885000
-0.025399 0.005545 0.891000
-0.018064 0.020580 0.891000
-0.001898 0.010511 0.877000
-0.004054 0.044700 0.875000
-0.025456 0.001514 0.893000
-0.003711 0.013429 0.879000
-0.000451 0.048136 0.872000
0.009544 0.020740 0.867000
-0.027600 0.001511 0.891000
0.012513 -0.016163 0.875000
-0.010468 -0.025144 0.900000
0.009074 -0.047263 0.891000
0.004955 -0.010052 0.876000
-0.027264 0.000044 0.892000
0.000628 0.015547 0.876000
-0.019675 0.038117 0.881000
0.002075 0.007993 0.878000
-0.026806 0.006630 0.889000
0.008649 -0.039660 0.885000
-0.028936 0.008075 0.887000
0.012556 -0.029589 0.878000
-0.003757 -0.028894 0.890000
-0.013386 -0.004386 0.897000
-0.024108 0.024057 0.884000
-0.006258 0.029052 0.881000
-0.019860 -0.020464 0.906000
-0.032072 -0.011717 0.893000
0.022881 -0.034599 0.886000
0.018529 -0.004254 0.870000
0.019919 -0.034885 0.884000
-0.019742 0.032789 0.884000
0.006434 -0.018812 0.881000
-0.019573 -0.029918 0.910000
-0.000094 -0.037813 0.893000
0.003127 0.042247 0.869000
0.012902 0.048773 0.877000
-0.003698 0.051962 0.876000
0.023921 -0.029063 0.884000
0.020099 -0.019787 0.876000
0.008952 -0.019493 0.879000
-0.010258 0.043242 0.882000
-0.009232 0.004795 0.888000
0.000641 -0.045214 0.894000
0.003944 -0.047316 0.892000
0.021010 -0.034157 0.884000
-0.001533 0.036417 0.875000
0.011986 0.026327 0.863000
-0.000816 0.052803 0.878000
0.004553 0.039698 0.868000
-0.012676 -0.011426 0.899000
-0.029985 0.031375 0.875000
-0.029235 0.010607 0.885000
-0.011976 -0.027428 0.902000
-0.016896 -0.027206 0.907000
-0.016060 -0.010722 0.902000
-0.035868 -0.025033 0.896000
0.014640 -0.012533 0.873000
-0.011737 0.040066 0.884000
-0.012620 0.001518 0.895000
-0.017584 -0.013722 0.904000
-0.029004 0.026785 0.878000
-0.008098 0.025148 0.884000
-0.004077 0.026121 0.880000
0.002417 0.033741 0.871000
-0.036647 -0.023215 0.897000
0.004553 0.039341 0.868000
0.006673 0.027456 0.865000
-0.012648 -0.006970 0.897000
0.022511 0.031825 0.858000
-0.018659 -0.007380 0.902000
-0.009694 -0.026537 0.897000
-0.036358 -0.031037 0.899000
0.005389 -0.042352 0.888000
-0.017943 0.032462 0.885000
-0.012887 0.027090 0.888000
-0.025986 0.014995 0.886000
-0.023147 0.013948 0.889000
-0.018741 -0.020837 0.906000
-0.025869 0.024003 0.882000
0.008200 -0.015100 0.876000
-0.007094 -0.020216 0.895000
0.006383 -0.006432 0.874000
-0.001537 0.011594 0.877000
0.009555 0.018620 0.868000
0.000267 0.035974 0.873000
-0.008956 -0.019892 0.897000
-0.017389 0.012187 0.894000
0.014811 0.020620 0.862000
-0.003783 -0.036833 0.896000
-0.032144 -0.016901 0.895000
0.002782 0.011541 0.873000
0.006456 -0.031246 0.884000
0.020506 -0.026337 0.878000
-0.017817 0.006321 0.897000
0.008135 0.003620 0.869000
0.008492 0.005766 0.869000
-0.017618 0.030345 0.887000
-0.004824 0.004410 0.884000
0.029081 -0.024753 0.886000
-0.009974 0.015046 0.889000
0.021049 0.028227 0.856000
-0.004152 -0.035727 0.896000
-0.012224 0.008865 0.893000
-0.022755 0.016856 0.888000
0.018757 0.007866 0.864000
0.018296 -0.025916 0.876000
0.009250 0.048550 0.873000
-0.021317 0.030779 0.889000
-0.020975 0.015795 0.890000
0.022838 0.025439 0.857000
0.020483 -0.005010 0.877000
-0.016709 0.005213 0.897000
-0.028079 0.016761 0.883000
-0.021352 -0.020464 0.906000
-0.029086 -0.027830 0.903000
0.011161 -0.037347 0.882000
0.024983 0.024056 0.858000
-0.014714 0.029648 0.888000
-0.005608 -0.016128 0.893000
0.008639 -0.037068 0.884000
-0.025853 -0.000324 0.894000
-0.023460 0.018297 0.887000
0.019778 0.013170 0.862000
0.015857 0.022722 0.861000
0.010984 0.013618 0.868000
-0.014996 -0.027891 0.905000
-0.029693 0.026393 0.877000
-0.001192 -0.024105 0.889000
0.012682 0.025942 0.862000
-0.012733 -0.027086 0.903000
0.015535 -0.038480 0.883000
0.000626 0.034896 0.873000
-0.000093 0.010860 0.876000
-0.002259 0.013038 0.877000
-0.011936 -0.015866 0.899000
-0.018679 -0.012592 0.903000
0.006058 -0.016598 0.879000
-0.016877 -0.022329 0.906000
-0.008501 -0.004707 0.888000
-0.007321 0.045214 0.878000
0.003553 0.055837 0.886000
-0.005182 0.005858 0.883000
0.002068 0.019851 0.875000
-0.034355 -0.021321 0.895000
0.003940 -0.045429 0.891000
0.013826 0.006466 0.867000
-0.005176 0.007304 0.882000
-0.003694 0.050102 0.875000
-0.012493 0.035051 0.886000
0.006332 0.023238 0.867000
0.018800 0.003963 0.866000
-0.010669 0.029217 0.886000
0.003905 0.054558 0.883000
-0.017902 0.037477 0.883000
-0.021317 0.017973 0.889000
-0.024780 0.025455 0.882000
-0.033472 -0.031847 0.901000
-0.030876 -0.025172 0.901000
0.001710 0.019513 0.876000
0.019851 -0.031503 0.881000
-0.005935 -0.003972 0.887000
0.017374 0.003251 0.866000
-0.020447 -0.001806 0.899000
0.002426 0.023065 0.874000
0.018635 -0.012201 0.875000
0.007119 0.050520 0.876000
0.009314 -0.022387 0.879000
0.009621 -0.011468 0.874000
0.007768 0.021478 0.868000
0.013037 0.036585 0.862000
0.002061 0.048853 0.872000
-0.004440 0.015256 0.880000
-0.001566 -0.037119 0.894000
-0.002292 -0.018271 0.890000
-0.023011 -0.004021 0.898000
-0.008956 -0.020630 0.897000
-0.030671 -0.013585 0.895000
-0.018348 0.028154 0.887000
-0.031598 -0.003253 0.890000
0.007192 -0.035289 0.885000
-0.024790 -0.030259 0.909000
0.021805 0.032531 0.858000
-0.024970 -0.016662 0.902000
0.029445 -0.024389 0.886000
0.002926 -0.049828 0.918000
0.015271 0.000757 0.868000
-0.000829 -0.033732 0.892000
-0.025997 -0.011796 0.899000
-0.007379 0.004415 0.885000
-0.026015 0.012091 0.887000
0.023571 0.022290 0.858000
0.010675 -0.006776 0.872000
0.011671 0.017508 0.866000
-0.009813 -0.038448 0.908000
0.019709 0.019488 0.859000
0.009923 0.000043 0.869000
-0.030588 0.015653 0.882000
0.011986 0.025261 0.863000
0.021320 0.004325 0.867000
-0.000092 0.049628 0.873000
-0.008163 -0.010591 0.891000
-0.018988 -0.002919 0.900000
-0.025274 0.041411 0.874000
0.001009 -0.046318 0.894000
0.009511 0.034537 0.864000
-0.021101 0.037711 0.880000
0.008610 0.052621 0.881000
-0.000459 -0.026271 0.888000
0.002456 -0.019626 0.885000
-0.028571 0.009171 0.887000
-0.017718 0.018033 0.892000
0.003142 0.012978 0.873000
-0.008926 -0.026081 0.894000
0.013422 0.019245 0.864000
0.008492 0.001474 0.869000
-0.025751 0.032205 0.878000
-0.021751 0.043719 0.877000
-0.009608 0.002239 0.889000
-0.027447 -0.013261 0.898000
-0.009565 0.028091 0.885000
0.019191 -0.035976 0.884000
0.006383 -0.008230 0.874000
-0.029298 0.031050 0.876000
0.002426 0.022346 0.874000
0.007616 -0.048050 0.892000
0.003887 -0.015513 0.879000
-0.004450 0.019283 0.882000
-0.012238 0.004460 0.894000
-0.027824 0.036057 0.875000
0.013082 0.039561 0.865000
0.012858 -0.012187 0.874000
0.012844 -0.010377 0.873000
0.008144 0.017589 0.870000
-0.001192 -0.019714 0.889000
0.017628 0.015635 0.861000
0.021398 -0.035289 0.885000
-0.000810 0.027319 0.872000
0.006689 0.035727 0.867000
-0.025390 0.032928 0.878000
-0.024067 -0.001431 0.896000
-0.029165 -0.008051 0.894000
0.012028 0.039963 0.866000
0.003573 -0.045796 0.891000
-0.027661 -0.027519 0.905000
-0.018044 0.023121 0.890000
0.016880 0.025144 0.859000
0.001724 -0.017037 0.883000
0.011328 0.016101 0.867000
-0.034201 0.002244 0.891000
0.024621 -0.021762 0.883000
0.010602 0.039963 0.866000
0.021277 -0.027483 0.880000
-0.012128 0.032134 0.886000
-0.007094 -0.029793 0.895000
0.000266 0.029439 0.871000
-0.008245 -0.032553 0.900000
0.012427 0.000758 0.869000
0.015844 -0.034727 0.880000
-0.010097 -0.027367 0.900000
0.002057 0.025466 0.870000
-0.030776 0.030725 0.877000
0.011047 0.047113 0.873000
-0.016194 0.025291 0.889000
0.019223 -0.001030 0.869000
0.002101 -0.034716 0.889000
0.017555 -0.013282 0.875000
-0.001194 -0.032961 0.891000
-0.016709 0.004105 0.897000
0.010958 0.040319 0.866000
0.022918 0.018094 0.860000
-0.009884 0.044644 0.881000
-0.002264 0.024283 0.879000
-0.026113 -0.016680 0.903000
-0.022123 0.010691 0.892000
0.006078 0.053407 0.882000
0.019919 -0.035612 0.884000
-0.020377 0.038798 0.880000
0.019191 -0.036704 0.884000
-0.021245 0.024476 0.886000
0.011617 0.032683 0.862000
-0.021581 -0.005882 0.900000
-0.005252 -0.031267 0.895000
-0.022986 -0.001432 0.897000
-0.004867 -0.018680 0.892000
-0.022793 -0.015582 0.904000
-0.025081 -0.025312 0.906000
0.019039 -0.011507 0.877000
0.006127 -0.044595 0.889000
-0.022024 0.019415 0.888000
-0.029491 -0.030093 0.904000
0.017833 -0.006768 0.871000
-0.020515 -0.008494 0.902000
-0.001533 0.035696 0.875000
0.001363 -0.030189 0.885000
-0.010398 -0.005843 0.894000
-0.033768 -0.026966 0.899000
-0.002623 0.053165 0.878000
0.009229 0.047005 0.871000
0.015826 -0.033964 0.879000
0.002059 0.025137 0.871000
-0.018783 -0.024620 0.908000
-0.013771 -0.003652 0.898000
0.011406 -0.009658 0.873000
-0.017976 -0.018207 0.905000
-0.001531 0.040692 0.874000
0.008247 -0.023888 0.881000
-0.021022 0.011425 0.892000
-0.020174 0.025599 0.887000
-0.019854 0.020168 0.889000
-0.011817 0.018726 0.890000
0.008952 -0.022387 0.879000
-0.029764 -0.022576 0.901000
0.008182 -0.011108 0.874000
0.011972 0.033037 0.862000
0.015253 0.001470 0.867000
-0.007735 0.026604 0.884000
0.002456 -0.029096 0.885000
0.004215 0.009016 0.872000
0.009293 -0.017283 0.877000
-0.030449 0.024255 0.878000
0.017535 -0.011108 0.874000
0.003843 0.045109 0.869000
0.015985 -0.001029 0.868000
0.010626 0.001472 0.868000
-0.015567 0.009622 0.895000
-0.002614 0.038938 0.875000
-0.031004 -0.010627 0.894000
-0.002670 -0.033808 0.894000
-0.021116 0.003732 0.896000
0.015820 0.032215 0.859000
-0.014510 -0.004021 0.898000
-0.029967 -0.012863 0.896000
0.009992 -0.012561 0.875000
0.023218 0.021584 0.858000
0.010577 0.029914 0.864000
-0.029466 0.018174 0.881000
-0.015704 0.043968 0.882000
-0.021801 0.037669 0.879000
0.001340 0.045877 0.870000
-0.004900 -0.039872 0.898000
0.008659 -0.041528 0.886000
-0.018095 -0.031826 0.911000
-0.017212 -0.016698 0.904000
0.009208 0.013277 0.869000
0.006106 -0.036787 0.886000
-0.014698 0.031440 0.887000
0.005650 0.017988 0.872000
0.025012 0.022316 0.859000
-0.010444 -0.016957 0.898000
0.020016 0.030024 0.857000
0.024688 0.020218 0.860000
-0.005935 -0.008353 0.887000
0.003145 0.019108 0.874000
-0.024804 -0.002537 0.896000
0.021664 -0.027877 0.881000
0.019513 0.003607 0.866000
0.003203 -0.040616 0.890000
0.010311 -0.048271 0.903000
0.013376 0.029455 0.861000
0.016700 -0.001743 0.868000
-0.014996 -0.027146 0.905000
0.009980 -0.010389 0.874000
0.007732 0.028136 0.864000
0.007437 0.015816 0.871000
0.012347 -0.043864 0.889000
0.016546 0.022342 0.860000
0.012873 -0.020124 0.875000
-0.005969 -0.028959 0.892000
-0.028492 -0.011388 0.896000
-0.014268 0.042565 0.883000
0.006804 -0.024278 0.882000
0.015464 -0.032517 0.879000
0.017669 0.010698 0.863000
-0.004073 0.011620 0.879000
-0.018308 -0.010733 0.903000
0.002817 -0.030519 0.884000
-0.014462 0.007412 0.895000
-0.010802 -0.011031 0.897000
-0.018608 0.037434 0.882000
0.013578 -0.012907 0.874000
-0.009619 0.005905 0.890000
0.013922 -0.011096 0.873000
0.013906 -0.009647 0.872000
-0.013491 -0.030837 0.904000
-0.023825 0.017932 0.887000
0.000267 0.032703 0.872000
-0.025741 -0.018538 0.903000
-0.015182 0.011451 0.894000
-0.025855 -0.027953 0.907000
0.009033 -0.043765 0.887000
0.015628 0.000757 0.868000
0.006727 0.048494 0.872000
0.010037 -0.025281 0.879000
0.004558 0.023649 0.869000
-0.028871 0.010971 0.885000
0.006434 -0.019174 0.881000
0.018380 -0.031829 0.880000
-0.005158 0.035136 0.879000
-0.009356 -0.031071 0.900000
0.005670 -0.008240 0.875000
-0.013416 -0.011056 0.899000
0.001706 0.012993 0.874000
0.019445 0.010698 0.863000
-0.024217 0.015394 0.888000
-0.022525 0.036583 0.879000
-0.013878 -0.031244 0.905000
-0.034163 -0.007649 0.890000
0.000626 0.049987 0.873000
0.008840 0.004687 0.868000
-0.027920 0.027507 0.878000
0.001716 0.052863 0.879000
-0.020516 0.026664 0.886000
-0.014543 -0.011068 0.900000
-0.006598 0.044492 0.878000
0.002782 0.011182 0.873000
-0.006635 0.009129 0.883000
-0.036687 -0.029524 0.898000
-0.011209 -0.022922 0.900000
-0.005652 -0.044036 0.900000
-0.012238 0.004828 0.894000
0.004553 0.042913 0.868000
-0.002974 0.041819 0.875000
-0.006665 -0.009083 0.887000
0.007029 0.023896 0.865000
-0.031929 -0.002151 0.889000
0.012055 0.003973 0.868000
0.016550 -0.031793 0.879000
0.017915 -0.018684 0.875000
0.001342 0.040911 0.871000
-0.000094 -0.038548 0.893000
0.007590 -0.046059 0.889000
0.020179 0.007866 0.864000
-0.010874 -0.034148 0.903000
-0.021610 0.023747 0.886000
-0.013602 0.031805 0.887000
-0.009006 -0.037080 0.902000
-0.003711 0.026815 0.879000
0.016777 -0.008571 0.872000
0.015736 -0.019382 0.874000
0.011725 -0.002464 0.870000
0.017374 0.002538 0.866000
-0.010838 -0.025144 0.900000
-0.007840 -0.019132 0.896000
-0.003736 -0.009427 0.885000
0.009709 -0.036621 0.882000
-0.008481 0.018277 0.886000
0.022132 0.025791 0.857000
-0.016095 -0.019675 0.904000
-0.012265 -0.001800 0.896000
-0.027824 0.034256 0.875000
-0.007691 0.043095 0.879000
-0.023615 -0.024220 0.907000
0.019732 0.015617 0.860000
0.020440 0.015971 0.860000
0.001743 -0.044429 0.893000
-0.009996 0.007378 0.891000
0.018670 0.017740 0.860000
-0.018024 0.024193 0.889000
0.023896 0.026849 0.857000
0.020818 0.035834 0.861000
0.001702 0.034856 0.872000
0.011631 0.023130 0.863000
-0.015739 0.038611 0.884000
0.010234 0.038493 0.865000
-0.016249 0.018401 0.892000
0.009577 0.042654 0.870000
-0.007321 0.046660 0.878000
-0.008199 -0.016532 0.895000
-0.010120 -0.033368 0.902000
-0.007031 -0.004702 0.887000
-0.029432 0.020688 0.880000
0.007911 -0.037068 0.884000
0.013746 0.027006 0.862000
0.011793 -0.016163 0.875000
-0.025053 -0.023049 0.905000
-0.014681 0.035416 0.886000
-0.005639 -0.036546 0.898000
0.015359 -0.011096 0.873000
0.014948 -0.005328 0.870000
-0.033468 0.010312 0.891000
-0.019742 0.032425 0.884000
-0.011777 0.027424 0.887000
0.017294 0.012460 0.862000
0.013810 0.008954 0.866000
0.016267 0.010711 0.864000
-0.007831 -0.023163 0.895000
-0.028651 -0.022576 0.901000
0.010210 0.033786 0.863000
-0.009619 0.009202 0.890000
0.010626 0.011475 0.868000
0.008492 0.001831 0.869000
-0.005152 0.053526 0.878000
-0.028301 0.001509 0.890000
0.005715 0.053407 0.882000
0.017195 -0.017243 0.875000
-0.021903 -0.001434 0.898000
-0.024416 -0.030259 0.909000
-0.030088 0.024978 0.878000
0.009957 -0.006417 0.872000
-0.003694 0.043980 0.875000
0.002090 -0.018148 0.884000
0.014265 -0.008929 0.872000
0.008789 0.026682 0.863000
0.014657 -0.019382 0.874000
0.018865 -0.001388 0.869000
-0.018429 -0.029137 0.909000
-0.004445 0.016723 0.881000
0.025126 -0.033946 0.888000
0.000628 0.014088 0.875000
0.010387 -0.020916 0.878000
0.016475 -0.023726 0.875000
0.007159 -0.021713 0.881000
-0.020424 0.000784 0.898000
0.007573 -0.043765 0.887000
0.022440 -0.030848 0.883000
-0.010075 -0.018436 0.898000
-0.017506 -0.003660 0.900000
-0.027841 0.009901 0.887000
-0.013587 0.035416 0.886000
-0.027786 -0.011031 0.897000
0.001696 0.028656 0.869000
-0.017737 0.014746 0.893000
-0.019920 0.014362 0.892000
-0.028700 -0.001423 0.891000
0.010003 -0.015100 0.876000
0.007777 0.009700 0.869000
0.010798 -0.037347 0.882000
-0.012814 0.043291 0.883000
-0.031092 0.006243 0.886000
0.009335 -0.031140 0.881000
0.021350 -0.031211 0.883000
0.010577 0.037737 0.864000
-0.003028 -0.024159 0.891000
0.011986 0.030234 0.863000
0.010565 0.025261 0.863000
0.010785 -0.034041 0.881000
-0.002626 0.025006 0.879000
0.013810 0.011092 0.866000
0.005989 0.046897 0.869000
-0.018783 -0.027236 0.908000
-0.016504 -0.025312 0.906000
0.000268 0.020257 0.877000
0.018421 -0.034806 0.882000
-0.008462 0.026968 0.884000
-0.032001 -0.007657 0.891000
-0.010409 -0.008428 0.895000
0.004600 -0.011868 0.877000
-0.030970 -0.010247 0.893000
-0.022935 0.001518 0.895000
-0.004495 -0.025626 0.891000
-0.005935 -0.011273 0.887000
0.023531 -0.027940 0.883000
-0.018390 0.024925 0.889000
-0.027019 0.017144 0.884000
0.010049 -0.029294 0.880000
-0.019036 0.031369 0.885000
0.018980 0.022996 0.858000
0.001008 -0.044429 0.893000
-0.001566 -0.038591 0.894000
0.004955 -0.009331 0.876000
0.020646 -0.034521 0.884000
-0.025656 -0.012920 0.900000
-0.017956 -0.015210 0.904000
-0.004495 -0.030027 0.891000
-0.022173 0.006299 0.894000
0.020369 0.030729 0.857000
-0.027724 -0.006955 0.895000
0.002801 -0.012981 0.879000
0.008144 0.045877 0.870000
-0.031527 -0.000322 0.888000
-0.007094 -0.018742 0.895000
-0.008846 0.005878 0.886000
-0.036277 -0.018046 0.897000
-0.029900 -0.008787 0.894000
-0.000824 -0.027702 0.887000
0.013391 0.025942 0.862000
-0.021509 0.000044 0.897000
-0.031421 0.030276 0.885000
-0.009273 -0.008400 0.892000
0.014314 -0.023365 0.875000
0.009335 -0.028602 0.881000
-0.017642 -0.023847 0.907000
-0.000833 -0.046473 0.897000
-0.027080 0.014266 0.886000
0.015857 0.020242 0.861000
-0.005608 -0.030462 0.893000
0.013203 -0.011814 0.873000
0.022132 0.025439 0.857000
0.006689 0.022881 0.867000
0.013746 0.024877 0.862000
0.004568 0.012232 0.871000
0.023626 0.018448 0.860000
0.003545 -0.028336 0.884000
0.023924 0.029353 0.858000
-0.010351 0.012865 0.890000
0.005741 -0.034964 0.886000
-0.006628 0.012386 0.882000
0.023543 0.028260 0.857000
0.017415 -0.001386 0.868000
0.004273 -0.028336 0.884000
-0.027401 0.040645 0.873000
0.026408 -0.022463 0.882000
0.010458 0.053528 0.884000
-0.013075 -0.021093 0.901000
-0.030065 0.002237 0.888000
-0.029399 0.024283 0.879000
-0.024081 0.025120 0.883000
0.004563 0.047667 0.870000
0.008228 -0.018046 0.879000
-0.015480 0.023121 0.890000
0.002442 -0.015893 0.880000
0.014001 -0.031396 0.878000
0.003181 -0.029063 0.884000
-0.018798 0.019847 0.891000
-0.023433 -0.009587 0.900000
-0.004414 0.049021 0.875000
-0.001893 0.034256 0.875000
0.005676 -0.012215 0.876000
0.006127 -0.045327 0.889000
-0.027073 0.039253 0.874000
-0.006590 0.049855 0.877000
-0.001190 -0.031388 0.888000
0.016939 0.013879 0.862000
0.009555 0.007545 0.868000
-0.011843 0.008855 0.892000
-0.022049 0.016143 0.889000
-0.011856 0.005925 0.893000
-0.029332 0.027476 0.877000
-0.015198 0.010358 0.895000
0.011472 -0.025252 0.878000
-0.014093 0.005938 0.895000
0.011644 0.038804 0.864000
0.015103 -0.034326 0.879000
0.016835 -0.017243 0.875000
-0.032360 -0.028881 0.901000
-0.031953 -0.025144 0.900000
-0.027904 0.004801 0.889000
0.017254 -0.029950 0.878000
-0.007752 0.017912 0.886000
-0.024544 -0.010698 0.900000
0.015148 0.025203 0.861000
-0.022808 0.043669 0.876000
-0.020083 0.032389 0.883000
0.014896 0.002898 0.867000
-0.034974 -0.015008 0.892000
0.012755 0.007536 0.867000
-0.028346 0.024310 0.880000
-0.035828 -0.020216 0.895000
-0.009232 0.014663 0.888000
-0.031669 -0.007666 0.892000
0.019896 -0.034118 0.883000
-0.015300 -0.009968 0.901000
0.003489 0.036567 0.870000
0.008850 0.018284 0.869000
0.009980 0.048965 0.874000
-0.018286 0.034244 0.884000
0.005000 -0.026880 0.884000
-0.015602 0.003367 0.897000
-0.013267 0.025291 0.889000
-0.011196 -0.018086 0.899000
-0.025898 0.020759 0.883000
0.012713 -0.043498 0.889000
-0.014078 0.010347 0.894000
0.014472 0.038048 0.863000
-0.025869 0.023277 0.882000
-0.006703 -0.013173 0.892000
-0.008654 -0.044232 0.904000
0.019806 -0.027814 0.879000
-0.032440 0.012037 0.883000
-0.001889 0.032022 0.873000
0.011354 0.041890 0.869000
0.005304 -0.005712 0.874000
-0.020956 -0.015972 0.905000
0.010387 -0.022361 0.878000
-0.009367 -0.032218 0.901000
0.001356 -0.011909 0.880000
0.010222 0.033470 0.864000
0.021345 0.002901 0.868000
-0.032440 0.016034 0.883000
0.010737 -0.018726 0.877000
-0.006272 0.021122 0.883000
0.011806 -0.020508 0.876000
-0.027817 -0.012892 0.898000
0.002770 0.044393 0.869000
-0.012829 0.038974 0.884000
-0.001891 0.041052 0.874000
-0.032952 0.000044 0.887000
0.018213 -0.008212 0.872000
-0.032918 -0.020238 0.896000
-0.033065 -0.027367 0.900000
-0.012493 0.033957 0.886000
-0.003387 -0.028496 0.889000
-0.007743 0.052496 0.885000
-0.024120 -0.006978 0.898000
-0.020771 0.001521 0.897000
-0.007883 -0.038152 0.901000
0.006023 -0.007871 0.874000
-0.029934 -0.012112 0.895000
-0.012676 -0.014756 0.899000
-0.005234 -0.024921 0.892000
-0.031605 0.019964 0.880000
-0.016486 -0.021187 0.905000
-0.026715 0.012807 0.886000
-0.016377 -0.001066 0.899000
-0.023777 -0.008836 0.899000
-0.009619 0.004806 0.890000
-0.021281 -0.011105 0.903000
0.016998 0.006095 0.865000
0.008256 -0.027909 0.882000
0.019755 0.014926 0.861000
-0.025342 0.009923 0.889000
-0.010164 -0.041346 0.906000
0.006324 0.023924 0.866000
0.005261 0.030374 0.867000
-0.026708 -0.011044 0.898000
0.028651 -0.023242 0.884000
-0.006036 -0.044876 0.902000
0.025434 -0.030952 0.886000
-0.016060 -0.011464 0.902000
-0.019334 0.036345 0.882000
-0.029985 0.032815 0.875000
-0.010456 -0.021046 0.899000
-0.003783 -0.034621 0.896000
-0.028571 0.008806 0.887000
0.022537 0.020195 0.859000
-0.011171 -0.009924 0.897000
0.005006 -0.032739 0.885000
-0.011146 -0.003271 0.895000
-0.019697 0.036345 0.882000
0.005000 -0.029427 0.884000
0.013294 -0.033602 0.879000
0.019002 0.019841 0.859000
-0.035788 -0.016146 0.894000
-0.011425 0.024531 0.888000
-0.025708 0.009557 0.889000
-0.021341 0.016161 0.890000
-0.005135 0.048301 0.875000
-0.026162 0.001513 0.892000
-0.015131 0.021680 0.891000
-0.009705 -0.024719 0.898000
0.009064 -0.046477 0.890000
-0.008491 0.015377 0.887000
0.012499 -0.013626 0.874000
-0.009608 0.012118 0.889000
0.013985 -0.027750 0.877000
-0.001174 0.013023 0.876000
0.007037 0.037824 0.866000
-0.016504 -0.023448 0.906000
0.003203 -0.040250 0.890000
-0.002629 0.017791 0.880000
-0.030345 0.034976 0.875000
-0.003783 -0.037940 0.896000
0.001350 0.016989 0.876000
-0.032697 -0.007282 0.890000
-0.033317 -0.000321 0.887000
-0.000815 0.023145 0.877000
-0.035091 -0.021689 0.895000
-0.009727 -0.029219 0.900000
-0.012814 0.042201 0.883000
-0.000092 0.026602 0.872000
0.020606 0.003611 0.867000
0.006361 0.019760 0.871000
0.015120 -0.035451 0.880000
-0.015758 -0.027549 0.906000
-0.005652 -0.042925 0.900000
-0.005152 0.039071 0.878000
-0.015704 0.042516 0.882000
-0.024693 0.004450 0.892000
0.006023 0.049685 0.874000
-0.015114 0.022755 0.890000
0.003131 0.037283 0.870000
-0.026805 0.032529 0.877000
-0.007717 0.032715 0.882000
-0.009315 -0.015813 0.896000
-0.034546 -0.030701 0.900000
-0.008846 0.020100 0.886000
-0.013119 -0.030093 0.904000
-0.006718 -0.017986 0.894000
-0.020539 0.024139 0.887000
-0.034124 -0.006908 0.889000
-0.021659 0.018684 0.888000
0.010626 0.005759 0.868000
0.024277 0.023703 0.858000
-0.025634 0.041411 0.874000
0.005650 0.048853 0.872000
0.005273 0.045824 0.869000
-0.014478 0.004470 0.896000
0.023088 -0.024586 0.880000
0.003533 0.053709 0.881000
0.024630 0.028646 0.858000
-0.014575 -0.018518 0.902000
-0.007329 0.040563 0.879000
-0.002290 -0.017519 0.889000
-0.031857 0.000774 0.887000
-0.004170 -0.045147 0.900000
0.003557 -0.034273 0.887000
-0.029393 -0.023689 0.901000
0.017352 -0.037753 0.883000
0.022102 -0.032702 0.884000
-0.022173 0.006667 0.894000
0.024334 0.019864 0.860000
0.019423 0.011750 0.862000
0.007831 0.049742 0.875000
-0.017936 -0.010362 0.903000
-0.007883 -0.040377 0.901000
0.012741 0.012518 0.866000
-0.005182 0.004768 0.883000
-0.022844 -0.021956 0.906000
0.007437 -0.000315 0.871000
-0.011605 -0.030026 0.902000
-0.028397 -0.003999 0.893000
-0.025968 -0.010674 0.898000
-0.003757 -0.027795 0.890000
-0.022148 0.007027 0.893000
-0.019014 0.032789 0.884000
-0.020401 0.003736 0.897000
0.016456 -0.017943 0.874000
-0.001558 -0.017519 0.889000
0.013531 -0.006051 0.871000
-0.026713 0.042490 0.874000
-0.005176 0.008030 0.882000
0.018273 0.024409 0.858000
0.015736 -0.017583 0.874000
0.001367 -0.021861 0.887000
0.003569 -0.040250 0.890000
-0.000826 -0.021178 0.889000
-0.020583 -0.017089 0.905000
0.009912 0.010046 0.868000
-0.000813 0.025613 0.875000
-0.008472 0.009514 0.885000
-0.028969 0.004430 0.888000
0.006804 -0.025004 0.882000
0.007428 0.046593 0.870000
0.000274 -0.046790 0.896000
0.013218 -0.016144 0.874000
-0.019882 -0.021234 0.907000
0.005761 -0.045327 0.889000
-0.016095 -0.017815 0.904000
-0.029951 0.035296 0.874000
0.018380 0.009988 0.863000
0.010920 0.024196 0.863000
0.025396 0.028005 0.860000
-0.007337 0.038074 0.880000
-0.008434 0.037029 0.881000
0.018735 0.009278 0.863000
-0.032844 -0.015778 0.894000
-0.022000 -0.010722 0.902000
-0.025285 -0.013661 0.900000
-0.014397 0.020947 0.891000
-0.030846 0.020303 0.879000
0.016508 0.032531 0.858000
-0.016113 -0.024167 0.905000
-0.004807 0.009109 0.881000
0.017690 0.038093 0.864000
-0.029169 0.014944 0.883000
-0.004133 -0.023819 0.892000
0.007849 -0.015839 0.877000
0.020987 0.002901 0.868000
-0.022869 -0.023847 0.907000
0.011341 0.010046 0.868000
0.003851 0.023703 0.871000
0.016604 0.011409 0.863000
-0.029967 -0.013600 0.896000
-0.002248 0.030225 0.873000
-0.022322 -0.006623 0.900000
-0.016395 -0.003289 0.900000
-0.012676 -0.015126 0.899000
-0.013371 0.000044 0.896000
0.014412 0.051533 0.881000
-0.004802 0.012720 0.880000
-0.018369 -0.019346 0.906000
-0.017021 0.011819 0.894000
-0.023751 -0.005130 0.898000
0.017915 -0.023005 0.875000
-0.033242 0.006600 0.885000
0.009144 0.027037 0.863000
-0.008635 -0.041535 0.902000
0.007151 -0.019515 0.880000
-0.032403 0.015653 0.882000
0.008871 -0.003542 0.871000
-0.001169 0.029473 0.872000
-0.013920 0.040794 0.884000
-0.021677 -0.015582 0.904000
-0.020701 0.009611 0.894000
0.007539 0.053831 0.883000
-0.031785 0.005872 0.885000
-0.030846 0.019580 0.879000
0.017293 -0.032916 0.880000
-0.000095 -0.045265 0.895000
-0.014141 -0.002173 0.898000
-0.006650 -0.000685 0.885000
0.010859 -0.043400 0.887000
-0.005533 0.010922 0.881000
0.018295 0.034690 0.859000
-0.012292 -0.009935 0.898000
-0.008796 0.041380 0.881000
-0.020077 -0.001436 0.899000
-0.031527 0.000409 0.888000
0.011698 0.010046 0.868000
0.017588 0.023023 0.859000
-0.025285 -0.012180 0.900000
0.005644 0.007930 0.871000
-0.028507 0.012428 0.885000
-0.024174 -0.011068 0.900000
-0.022390 0.017587 0.888000
0.016475 -0.017243 0.875000
0.011887 -0.037347 0.882000
0.002442 -0.015169 0.880000
-0.029834 -0.004729 0.892000
-0.015722 0.041111 0.883000
0.004268 -0.019218 0.883000
-0.023563 -0.020814 0.905000
-0.003345 0.013414 0.878000
-0.006983 0.034853 0.881000
-0.036933 -0.020419 0.904000
0.005663 -0.003554 0.874000
-0.001941 -0.045366 0.897000
0.000271 -0.029494 0.886000
-0.015757 0.035376 0.885000
-0.010282 0.033881 0.884000
0.018252 0.029671 0.857000
0.009197 0.041484 0.868000
0.008502 0.045877 0.870000
-0.020121 -0.006631 0.901000
-0.010007 -0.005463 0.892000
0.004191 0.028947 0.867000
-0.027872 0.006623 0.888000
0.003481 0.027551 0.868000
-0.010019 -0.006572 0.893000
-0.027569 0.002974 0.890000
0.022726 -0.025672 0.880000
-0.006628 0.010934 0.882000
-0.000093 0.014088 0.875000
0.001734 -0.034312 0.888000
-0.001177 0.020641 0.878000
-0.021732 0.012879 0.891000
0.010822 -0.039979 0.884000
-0.008254 -0.038152 0.901000
0.000267 0.039522 0.872000
-0.007462 -0.020216 0.895000
-0.019186 0.016565 0.892000
-0.008568 -0.023531 0.895000
-0.034723 -0.020216 0.895000
0.005298 0.017290 0.873000
-0.008956 -0.022845 0.897000
0.027591 -0.025090 0.885000
0.011380 -0.005334 0.871000
-0.021605 -0.007743 0.901000
0.007795 0.015099 0.871000
0.002415 0.038357 0.870000
-0.002608 0.047113 0.873000
0.018996 -0.020484 0.875000
-0.018369 -0.020091 0.906000
0.003501 0.022680 0.873000
0.010411 -0.031105 0.880000
0.021229 -0.024891 0.878000
-0.029599 0.010243 0.885000
-0.011437 0.018705 0.889000
0.016700 -0.001029 0.868000
0.004234 -0.008610 0.876000
0.010971 0.018242 0.867000
0.010749 -0.024530 0.878000
-0.001530 0.043520 0.873000
-0.007078 -0.027522 0.893000
-0.020470 0.031334 0.884000
0.011873 -0.036579 0.881000
-0.010862 -0.031140 0.902000
-0.010657 0.033190 0.885000
0.007111 -0.012561 0.875000
-0.011399 0.032134 0.886000
0.014065 -0.038073 0.882000
0.020369 0.030377 0.857000
-0.031247 -0.027397 0.901000
0.009946 0.043778 0.871000
-0.002974 0.050102 0.875000
-0.003762 -0.024893 0.891000
-0.005240 -0.020171 0.893000
0.001340 0.041222 0.870000
-0.024228 -0.014434 0.902000
-0.033468 -0.010591 0.891000
-0.005514 0.037264 0.878000
0.002057 0.040864 0.870000
-0.016869 0.033593 0.886000
0.021326 -0.030087 0.882000
-0.011047 0.027424 0.887000
-0.015266 -0.002176 0.899000
-0.004156 -0.037244 0.897000
0.002431 0.051601 0.876000
0.002830 -0.034677 0.888000
-0.007752 0.014995 0.886000
-0.010814 -0.015479 0.898000
0.012785 -0.001030 0.869000
-0.024943 -0.015531 0.901000
-0.003357 0.019624 0.881000
-0.029393 -0.015531 0.901000
-0.020786 0.034893 0.882000
-0.033317 -0.002147 0.887000
-0.015636 -0.001436 0.899000
-0.016831 0.037883 0.884000
