-0.022345 0.022295 0.872000
-0.022550 -0.002130 0.880000
0.001306 0.033548 0.848000
0.011563 -0.025383 0.858000
-0.032791 0.005073 0.873000
-0.006605 -0.012619 0.879000
0.000265 0.055417 0.868000
-0.032036 -0.026022 0.892000
-0.012211 0.038537 0.866000
0.010591 0.032424 0.837000
0.016411 -0.017161 0.853000
0.005501 0.006332 0.849000
-0.017740 0.023812 0.875000
-0.010026 0.052196 0.862000
-0.004344 0.016698 0.861000
-0.029165 0.011169 0.872000
0.004808 0.004940 0.850000
0.031240 -0.029507 0.865000
-0.028997 0.028233 0.867000
-0.010822 0.027225 0.869000
-0.002899 0.048140 0.853000
-0.024417 -0.013025 0.882000
-0.007952 0.006116 0.868000
0.004542 -0.019917 0.866000
-0.013372 0.028755 0.872000
0.000611 0.023859 0.851000
-0.003698 -0.025555 0.876000
-0.001169 -0.016107 0.872000
-0.019474 0.028755 0.872000
0.005188 -0.008052 0.855000
0.001313 0.047733 0.852000
-0.011022 -0.011612 0.885000
-0.022704 0.026602 0.872000
-0.032549 -0.022820 0.896000
0.010626 -0.044614 0.868000
-0.002295 -0.044696 0.891000
0.030032 -0.022637 0.861000
-0.024723 -0.004303 0.880000
-0.020934 0.024476 0.873000
-0.028574 0.033864 0.865000
0.019220 -0.017512 0.853000
0.010975 0.037726 0.840000
0.012770 -0.045328 0.868000
-0.023999 -0.003941 0.880000
0.004474 0.046033 0.853000
-0.011485 0.052733 0.865000
-0.025245 0.014775 0.873000
-0.001141 0.025260 0.851000
-0.009190 -0.016329 0.884000
0.009577 -0.045791 0.870000
-0.033837 0.033076 0.863000
-0.017598 0.042199 0.868000
-0.015097 -0.017885 0.889000
0.005803 0.036776 0.842000
-0.019787 -0.013813 0.886000
-0.009895 -0.008669 0.882000
0.014104 0.012503 0.841000
-0.003319 -0.013938 0.871000
-0.015358 0.000044 0.883000
-0.009263 -0.032227 0.891000
0.031915 -0.026272 0.864000
0.013587 -0.010829 0.852000
-0.019586 0.014843 0.877000
-0.027747 -0.025061 0.884000
0.015740 0.031697 0.836000
0.024573 -0.021097 0.856000
0.000612 0.048491 0.853000
-0.023341 0.032948 0.869000
-0.009424 0.012963 0.872000
-0.007998 -0.004628 0.873000
0.006503 0.025023 0.843000
0.013539 -0.005200 0.849000
-0.032808 -0.015760 0.893000
-0.020151 -0.016001 0.886000
-0.013993 0.043527 0.866000
0.001305 0.038389 0.847000
-0.009521 -0.006846 0.881000
-0.011471 0.041649 0.864000
-0.010573 0.003657 0.878000
0.023516 -0.021801 0.856000
-0.010375 -0.030428 0.892000
-0.031713 0.001480 0.873000
-0.009055 0.014383 0.871000
0.018581 0.019748 0.840000
-0.031282 0.009722 0.871000
-0.021528 0.037912 0.868000
-0.017340 0.029866 0.873000
0.015358 -0.016459 0.853000
0.019919 -0.043981 0.884000
0.016743 -0.009777 0.852000
-0.009200 -0.018533 0.885000
-0.027920 -0.006461 0.878000
-0.014416 0.034776 0.870000
0.003127 -0.022848 0.869000
-0.032073 0.002918 0.873000
-0.012901 -0.017519 0.889000
-0.019312 0.001857 0.881000
-0.013312 -0.025655 0.892000
-0.011511 0.033229 0.867000
0.005285 -0.036164 0.871000
-0.003277 0.021280 0.860000
-0.032283 0.012204 0.869000
0.011040 0.007693 0.845000
-0.002916 0.013462 0.858000
0.033337 -0.024850 0.864000
0.004870 0.052135 0.861000
0.011442 -0.002055 0.849000
0.020770 -0.032130 0.859000
0.019378 -0.035708 0.860000
0.016084 0.032041 0.836000
0.022918 -0.031460 0.860000
-0.019541 0.020931 0.875000
-0.028174 -0.032046 0.886000
-0.006628 -0.019559 0.882000
-0.026744 0.007246 0.875000
0.017116 -0.045126 0.871000
-0.022099 -0.034794 0.891000
-0.007525 0.035438 0.860000
0.015552 -0.047983 0.884000
-0.004344 0.009965 0.861000
0.005989 -0.035008 0.869000
0.015088 0.035222 0.838000
-0.001185 -0.042889 0.884000
-0.013088 0.014121 0.877000
-0.018038 0.030908 0.872000
0.001350 -0.033487 0.876000
-0.020621 0.019130 0.875000
0.026488 -0.029016 0.861000
0.015376 -0.024562 0.854000
-0.010154 0.015134 0.873000
-0.021415 0.006548 0.878000
0.005152 0.019610 0.849000
0.004474 -0.003118 0.853000
0.019992 -0.027438 0.856000
-0.026958 -0.018107 0.882000
-0.013357 0.030156 0.871000
0.007741 -0.033423 0.865000
-0.008300 0.009678 0.867000
0.019333 -0.032093 0.858000
-0.019312 0.000406 0.881000
0.001314 0.048491 0.853000
0.002052 -0.017820 0.868000
-0.006864 0.015726 0.866000
-0.013326 0.047255 0.869000
-0.007137 0.048309 0.856000
-0.020446 -0.005771 0.883000
-0.013342 -0.032336 0.894000
0.007929 0.014683 0.847000
-0.013296 0.048930 0.867000
-0.025546 0.021552 0.871000
-0.002892 0.044174 0.851000
0.023952 -0.028241 0.859000
-0.029265 0.000403 0.875000
-0.007221 0.021072 0.866000
-0.028512 0.004000 0.874000
-0.028897 0.034537 0.864000
-0.003952 0.030235 0.853000
-0.015704 0.002222 0.882000
0.005164 0.043124 0.851000
-0.005775 0.053322 0.863000
-0.030311 0.001482 0.874000
0.004089 0.040085 0.846000
0.006266 -0.015496 0.858000
-0.029896 -0.027213 0.883000
-0.021293 0.022680 0.873000
0.007553 0.021232 0.844000
-0.009273 0.047716 0.858000
-0.005808 -0.000672 0.868000
-0.031172 -0.012966 0.878000
0.012027 0.015618 0.841000
-0.029131 0.014024 0.871000
0.002052 -0.018177 0.868000
-0.021149 -0.004313 0.882000
-0.024829 0.024062 0.871000
0.024249 -0.022179 0.857000
-0.006187 -0.007844 0.871000
-0.014944 0.008736 0.880000
-0.014825 0.027351 0.873000
0.010693 0.008389 0.845000
-0.018798 -0.027827 0.891000
0.010731 0.001089 0.848000
0.004147 -0.012317 0.858000
-0.016888 -0.012004 0.887000
-0.010119 0.020811 0.870000
0.024334 -0.028982 0.860000
-0.011322 0.001492 0.880000
0.009866 0.053739 0.864000
-0.011399 -0.013449 0.886000
0.004537 -0.029151 0.865000
0.007607 -0.000658 0.850000
0.012127 -0.001703 0.848000
0.010222 -0.036585 0.864000
-0.001889 -0.026187 0.873000
0.010479 -0.016869 0.856000
-0.002998 -0.032628 0.882000
0.003869 -0.041012 0.875000
-0.031101 -0.006086 0.876000
-0.019115 0.031267 0.872000
0.021856 -0.033938 0.860000
-0.013326 0.034379 0.869000
0.003481 -0.021750 0.868000
-0.002192 0.038920 0.851000
0.009229 -0.046560 0.871000
0.000635 -0.045852 0.885000
-0.021125 -0.001044 0.881000
-0.025751 -0.001041 0.878000
0.014639 -0.010127 0.852000
-0.018928 0.004390 0.880000
-0.018819 -0.032998 0.892000
-0.019496 0.027710 0.873000
0.011158 -0.014369 0.854000
0.005553 0.050482 0.857000
-0.030554 -0.020625 0.881000
-0.004303 0.041821 0.853000
0.013523 -0.001703 0.848000
0.003120 -0.029932 0.867000
0.002052 -0.027466 0.868000
-0.006080 0.032103 0.856000
0.013376 -0.037521 0.861000
0.000608 0.026536 0.847000
-0.000439 0.038130 0.849000
-0.017679 0.032703 0.872000
0.014347 0.029941 0.835000
0.025071 -0.029725 0.861000
0.008079 -0.024821 0.863000
-0.003246 0.040720 0.852000
-0.027433 0.009036 0.874000
0.012779 0.006302 0.845000
0.004427 0.026442 0.844000
-0.013668 0.039698 0.868000
0.012795 0.002479 0.846000
0.008697 -0.010854 0.854000
-0.003610 0.035584 0.855000
-0.008846 -0.022565 0.886000
-0.003966 0.025761 0.856000
-0.012983 0.032270 0.870000
-0.020433 0.043221 0.867000
0.018869 -0.016108 0.853000
-0.011525 0.030409 0.868000
0.006002 -0.037240 0.871000
-0.000456 -0.041703 0.882000
0.005495 0.018540 0.848000
0.012417 0.008031 0.844000
-0.024972 0.007254 0.876000
0.010936 0.029668 0.837000
-0.011077 0.048237 0.861000
0.004422 0.027452 0.843000
0.009926 0.036990 0.839000
-0.002272 -0.036258 0.882000
0.001691 0.054577 0.866000
-0.005017 0.039807 0.855000
0.011972 -0.036855 0.862000
-0.004655 0.044629 0.853000
-0.031677 0.005785 0.872000
-0.013999 -0.017885 0.889000
-0.026949 0.019379 0.870000
-0.005507 -0.012229 0.877000
0.003413 0.005996 0.851000
-0.029320 0.028914 0.866000
-0.026113 -0.001041 0.878000
0.012356 -0.039785 0.864000
0.009832 -0.026181 0.861000
-0.019137 0.028788 0.873000
0.016161 0.015254 0.840000
-0.013449 0.014843 0.877000
-0.026469 0.032834 0.866000
0.010629 0.020439 0.840000
0.012987 0.026192 0.836000
-0.011923 0.025854 0.871000
-0.022217 0.041080 0.867000
0.026519 -0.031178 0.862000
0.012900 -0.013299 0.853000
-0.021561 -0.013418 0.884000
-0.009467 0.004009 0.876000
0.016684 -0.002404 0.849000
-0.025419 0.031880 0.879000
-0.022904 0.040676 0.866000
-0.003605 0.033082 0.854000
0.000619 -0.012744 0.863000
0.017526 -0.030257 0.856000
-0.021366 0.014826 0.876000
0.013082 -0.042323 0.865000
0.009914 0.035222 0.838000
-0.011219 0.020500 0.872000
0.002345 0.028560 0.845000
-0.024948 -0.031388 0.888000
-0.011697 -0.000682 0.881000
0.013097 -0.043798 0.866000
-0.009794 0.012978 0.873000
0.004542 0.054577 0.866000
-0.016560 -0.018617 0.889000
0.027229 -0.028695 0.862000
0.019355 -0.034605 0.859000
-0.013163 0.002222 0.882000
-0.012197 -0.023793 0.891000
-0.017821 0.009450 0.879000
-0.011841 0.038849 0.865000
0.007873 0.037771 0.841000
-0.022314 -0.015983 0.885000
0.006288 -0.017676 0.861000
0.002719 0.014787 0.853000
0.023136 -0.021072 0.855000
-0.013003 -0.033514 0.896000
-0.024389 -0.009022 0.881000
0.014322 -0.024914 0.854000
-0.026113 -0.002486 0.878000
-0.031423 0.026744 0.865000
0.006023 -0.044562 0.874000
-0.005369 0.041919 0.855000
-0.009682 0.037338 0.863000
-0.011604 0.016590 0.874000
0.010946 -0.039475 0.865000
0.011644 -0.039430 0.864000
-0.008686 0.006846 0.870000
-0.015131 -0.023426 0.891000
-0.029432 -0.014444 0.880000
0.011132 -0.009426 0.852000
-0.019920 -0.032263 0.892000
0.004079 0.027137 0.844000
-0.023852 -0.029560 0.888000
-0.004384 -0.007110 0.869000
0.014518 0.003867 0.845000
0.003044 0.023371 0.846000
0.014708 0.030665 0.836000
0.012593 -0.024267 0.856000
-0.015012 -0.001776 0.884000
0.003389 0.036212 0.845000
-0.034141 0.017791 0.880000
-0.011631 0.012302 0.876000
0.011778 -0.000656 0.848000
-0.014332 -0.011273 0.887000
-0.012945 -0.026022 0.892000
-0.011458 0.043376 0.863000
-0.026897 -0.009011 0.880000
-0.011335 -0.001407 0.881000
-0.012829 -0.005414 0.884000
-0.026683 0.010822 0.873000
-0.032109 -0.000317 0.874000
0.015797 0.035264 0.839000
-0.007915 0.028847 0.864000
-0.027862 0.034932 0.865000
-0.025143 -0.011936 0.882000
-0.007586 0.006823 0.867000
0.012373 0.014926 0.841000
0.007634 -0.008735 0.853000
0.001353 -0.038623 0.878000
-0.003669 -0.012118 0.869000
0.007910 0.018474 0.845000
0.003829 -0.029897 0.866000
-0.006440 0.027908 0.857000
-0.014681 -0.009437 0.886000
0.009961 0.018062 0.842000
0.004128 -0.004176 0.854000
-0.011360 -0.004681 0.883000
0.008748 0.049893 0.859000
-0.023974 0.038894 0.866000
-0.011077 0.050009 0.861000
-0.004424 -0.015117 0.877000
0.029003 -0.027276 0.862000
0.015106 0.016962 0.839000
0.016802 -0.027054 0.855000
0.007643 -0.011206 0.854000
0.010032 0.001089 0.848000
-0.027538 0.032121 0.866000
-0.021851 -0.001770 0.881000
-0.029235 -0.029825 0.885000
-0.009435 0.010822 0.873000
-0.010798 0.030374 0.867000
0.027809 -0.019380 0.858000
0.009155 -0.032318 0.864000
0.006719 -0.041183 0.871000
0.000609 0.034985 0.849000
-0.013778 0.021291 0.875000
-0.005099 -0.006037 0.869000
-0.024499 0.020500 0.872000
0.017670 0.004568 0.846000
0.006251 0.049366 0.856000
0.000613 0.015174 0.855000
0.018869 -0.017161 0.853000
-0.025143 -0.012662 0.882000
-0.005082 0.005389 0.866000
0.001677 0.051307 0.859000
0.006891 0.012607 0.848000
-0.003957 0.037300 0.854000
0.010553 -0.032952 0.862000
0.009279 0.017390 0.843000
0.023516 -0.021097 0.856000
-0.000443 0.009202 0.856000
-0.004344 0.023077 0.861000
-0.019809 -0.017115 0.887000
0.006157 0.028493 0.843000
-0.010130 0.019043 0.871000
0.019024 -0.036415 0.860000
0.013523 -0.001354 0.848000
-0.005451 -0.002815 0.868000
-0.021751 0.009067 0.877000
-0.027352 -0.021762 0.883000
-0.025726 0.038137 0.865000
0.015580 0.002131 0.846000
0.004933 -0.037641 0.872000
-0.003698 -0.015100 0.876000
-0.005363 0.045384 0.854000
0.011889 -0.021097 0.856000
0.011653 0.021106 0.839000
0.003759 0.020333 0.850000
-0.025994 0.011554 0.874000
0.029678 -0.024409 0.861000
-0.030088 -0.011159 0.878000
-0.017281 0.038715 0.870000
-0.029985 -0.001397 0.875000
-0.019229 -0.034544 0.894000
0.004803 0.011224 0.849000
-0.017000 0.024864 0.874000
-0.032283 0.012561 0.869000
-0.010393 0.038759 0.863000
-0.024695 -0.002489 0.879000
0.011819 -0.006613 0.851000
-0.002233 0.054996 0.867000
-0.020551 0.026602 0.872000
-0.015080 -0.014576 0.888000
-0.021961 0.028005 0.871000
-0.024723 -0.005389 0.880000
0.003098 0.052490 0.861000
-0.024687 0.037468 0.866000
-0.013222 -0.010167 0.886000
0.006550 0.002837 0.849000
0.004774 0.025747 0.844000
-0.031889 0.017191 0.868000
-0.023017 -0.016693 0.884000
0.015142 0.013541 0.841000
0.004814 0.001793 0.851000
-0.000090 0.025551 0.849000
0.007706 -0.020157 0.861000
-0.001491 0.045926 0.851000
0.004848 -0.013361 0.857000
0.014422 -0.036769 0.860000
0.012041 0.038855 0.842000
0.006222 -0.005218 0.852000
-0.016012 0.013068 0.879000
0.029003 -0.026921 0.862000
-0.034621 0.022576 0.883000
-0.012969 0.033663 0.869000
0.011955 0.030321 0.836000
-0.015722 -0.001047 0.883000
-0.014349 -0.014210 0.888000
-0.031859 -0.007537 0.877000
0.032905 -0.021954 0.862000
-0.000805 -0.009592 0.867000
0.014901 0.000739 0.847000
-0.018059 0.029147 0.873000
-0.030460 0.021478 0.868000
0.024925 -0.020744 0.856000
0.015165 -0.038984 0.862000
-0.005413 0.010331 0.862000
-0.013207 -0.005420 0.885000
-0.001150 0.018406 0.858000
-0.006236 -0.011520 0.878000
0.007768 -0.036754 0.868000
-0.024499 0.019783 0.872000
-0.009138 -0.003936 0.879000
-0.000790 0.031178 0.850000
-0.011116 0.039871 0.864000
-0.006130 0.011764 0.863000
-0.008930 0.043529 0.859000
-0.022730 0.029507 0.873000
0.015740 0.028600 0.836000
-0.016140 -0.008708 0.886000
0.014305 -0.017863 0.853000
0.000266 -0.018598 0.871000
-0.022448 0.010139 0.876000
-0.012577 -0.027124 0.892000
-0.029896 -0.026123 0.883000
0.009914 0.027979 0.838000
0.008385 0.050188 0.858000
-0.004424 -0.015839 0.877000
0.015160 0.010785 0.842000
-0.003665 -0.009246 0.868000
-0.001841 0.046626 0.851000
-0.017658 -0.018983 0.889000
-0.022730 0.018727 0.873000
0.000964 0.008829 0.854000
0.002773 -0.032542 0.870000
0.011944 -0.031460 0.860000
0.010320 0.015655 0.843000
-0.022243 0.035768 0.868000
-0.025419 -0.004298 0.879000
-0.017156 0.003674 0.882000
0.004803 0.019610 0.849000
-0.001841 0.045575 0.851000
0.003798 -0.014100 0.859000
0.007948 0.000391 0.849000
0.021123 -0.032484 0.859000
-0.011059 -0.018961 0.888000
0.009923 -0.045380 0.869000
-0.018411 -0.025964 0.890000
-0.012872 -0.013099 0.887000
0.010642 0.038463 0.841000
-0.014648 -0.002867 0.884000
-0.013357 0.050231 0.871000
0.004137 -0.008413 0.856000
-0.025217 0.017270 0.872000
-0.009629 -0.031127 0.891000
-0.012959 -0.028257 0.893000
-0.001852 0.012726 0.856000
-0.019496 0.025913 0.873000
0.021377 -0.023887 0.855000
0.013708 0.020046 0.838000
0.014305 -0.022427 0.853000
-0.032283 0.013277 0.869000
-0.024744 0.031838 0.868000
0.006673 -0.032355 0.865000
0.015507 0.012171 0.842000
-0.032771 0.031300 0.863000
-0.029643 0.030660 0.865000
-0.027339 0.015458 0.871000
0.006488 0.034656 0.841000
0.024983 -0.023618 0.858000
0.005906 -0.014419 0.857000
0.029323 -0.025118 0.861000
-0.023476 0.015511 0.874000
-0.020838 0.037955 0.869000
-0.015994 0.014859 0.878000
-0.021221 -0.013798 0.885000
-0.021936 0.030121 0.870000
-0.009489 0.000405 0.878000
0.004495 -0.011598 0.857000
-0.011764 -0.011990 0.886000
-0.009044 0.017231 0.870000
0.015525 0.008369 0.843000
-0.030916 -0.022075 0.881000
0.019243 -0.023508 0.854000
0.010667 0.039595 0.843000
0.016041 -0.009426 0.852000
-0.023147 -0.029594 0.889000
-0.005768 0.025942 0.862000
-0.031354 0.001121 0.873000
0.014238 -0.004850 0.849000
0.003091 -0.012685 0.859000
-0.003980 0.051661 0.859000
0.014381 0.021400 0.837000
0.018972 0.025340 0.842000
0.009187 -0.039923 0.867000
0.026843 -0.026890 0.861000
-0.013148 0.003670 0.881000
0.017485 -0.025968 0.854000
-0.016884 0.043628 0.868000
-0.018756 0.031267 0.872000
0.012343 0.019725 0.839000
-0.027952 -0.010448 0.879000
0.001997 0.027169 0.845000
0.030102 -0.026597 0.863000
0.009603 0.038463 0.841000
0.032196 -0.022309 0.862000
0.025720 -0.024706 0.859000
0.009985 0.013242 0.844000
-0.011551 0.026183 0.870000
-0.003338 -0.029161 0.876000
-0.015793 -0.012734 0.887000
-0.025663 0.007606 0.875000
-0.025217 0.017988 0.872000
0.015816 0.015945 0.840000
0.001683 0.052905 0.862000
0.012213 -0.019290 0.854000
-0.012553 0.042765 0.865000
0.003847 0.056261 0.870000
0.000614 0.018363 0.856000
-0.010223 -0.000318 0.879000
-0.013073 0.017710 0.876000
-0.024780 -0.013388 0.882000
0.005553 -0.014067 0.857000
-0.025086 -0.006476 0.880000
0.008248 0.020537 0.844000
-0.033241 0.021785 0.866000
-0.001173 -0.022285 0.875000
0.003417 0.044928 0.852000
0.017114 -0.009788 0.853000
0.023681 -0.033662 0.862000
-0.029625 0.000763 0.875000
-0.020106 -0.009780 0.884000
0.008277 0.010500 0.847000
-0.000092 -0.017523 0.871000
0.011819 -0.008364 0.851000
-0.002207 0.011682 0.857000
-0.005775 0.010698 0.863000
0.014364 0.031009 0.836000
-0.022024 -0.024809 0.888000
-0.015515 -0.025288 0.892000
0.009466 -0.022257 0.860000
-0.005714 0.043627 0.854000
0.004537 -0.030931 0.865000
-0.007171 0.032961 0.860000
-0.020814 0.039698 0.868000
-0.015202 0.024864 0.874000
-0.001502 0.050482 0.857000
0.014305 -0.020672 0.853000
0.002054 -0.031432 0.869000
-0.022904 0.040319 0.866000
0.014364 0.031353 0.836000
0.028648 -0.027631 0.862000
-0.005533 -0.021350 0.881000
-0.010212 0.003296 0.878000
0.004427 0.037211 0.844000
0.001661 0.043474 0.851000
0.015664 -0.046149 0.870000
-0.005438 0.003607 0.866000
-0.030425 0.022524 0.867000
-0.021439 0.002576 0.879000
-0.012451 -0.001410 0.883000
0.004893 -0.029151 0.865000
0.018192 0.023150 0.838000
0.013096 0.009063 0.843000
-0.027370 0.014040 0.872000
-0.023017 -0.014146 0.884000
0.015412 -0.029552 0.856000
-0.008453 -0.015947 0.883000
-0.032923 0.018242 0.867000
-0.013342 0.031912 0.870000
-0.003715 0.009460 0.880000
0.010577 -0.038007 0.864000
-0.011103 0.041245 0.863000
-0.026535 -0.010460 0.880000
0.006891 0.008418 0.848000
0.026012 -0.020416 0.857000
-0.032847 0.024252 0.865000
-0.018819 -0.031162 0.892000
-0.005407 0.025912 0.861000
-0.004308 0.039761 0.854000
-0.013936 -0.004692 0.885000
-0.027684 -0.018833 0.882000
-0.011206 0.024062 0.871000
0.000985 -0.022568 0.872000
0.008135 -0.039658 0.869000
-0.001141 0.032266 0.851000
0.000261 0.047032 0.852000
0.001710 -0.035651 0.876000
-0.004660 0.039761 0.854000
0.009914 0.034532 0.838000
0.001342 -0.031862 0.871000
0.012432 0.006302 0.845000
-0.013668 0.037912 0.868000
-0.015830 0.039744 0.869000
-0.026622 0.017609 0.871000
0.009997 0.010823 0.845000
0.008453 -0.033779 0.865000
-0.029169 -0.024669 0.883000
-0.000789 0.027997 0.849000
-0.013763 0.022706 0.874000
-0.015515 -0.026756 0.892000
-0.016103 -0.002139 0.884000
-0.002892 0.027712 0.851000
-0.020377 0.002941 0.880000
0.017114 -0.011192 0.853000
0.011653 0.020760 0.839000
0.005176 -0.005575 0.853000
-0.026927 -0.013010 0.881000
-0.008776 -0.005383 0.879000
-0.033303 0.007984 0.877000
-0.009629 -0.030394 0.891000
-0.020456 0.043628 0.868000
0.016060 -0.022427 0.853000
0.014338 -0.027406 0.855000
-0.001493 0.047032 0.852000
-0.030415 -0.007537 0.877000
0.027229 -0.029050 0.862000
-0.029320 0.027488 0.866000
-0.032135 0.024608 0.865000
0.015759 0.034146 0.837000
-0.016188 0.041174 0.869000
-0.025726 0.037425 0.865000
-0.013794 0.018792 0.876000
-0.001178 -0.032155 0.879000
0.017465 -0.015756 0.853000
-0.013556 -0.003231 0.884000
0.010174 0.051721 0.860000
0.016060 -0.021725 0.853000
-0.008636 0.029236 0.865000
0.029036 -0.029439 0.863000
-0.032491 0.023896 0.865000
0.016508 -0.034918 0.858000
-0.008443 -0.013751 0.882000
0.003441 -0.010552 0.858000
-0.032072 -0.026786 0.893000
-0.015775 -0.008343 0.886000
0.007454 -0.046308 0.873000
0.003037 0.025747 0.844000
-0.015882 -0.026022 0.892000
-0.024920 -0.026607 0.887000
-0.017976 0.039028 0.869000
-0.011193 0.025108 0.870000
0.004108 0.009488 0.850000
-0.016884 0.043270 0.868000
-0.024302 0.040629 0.865000
0.016161 0.017328 0.840000
0.011267 0.032385 0.836000
-0.013526 0.001859 0.882000
-0.005426 0.020312 0.864000
-0.024976 -0.033619 0.889000
-0.002207 0.024028 0.857000
-0.026202 -0.010835 0.881000
-0.006620 -0.018449 0.881000
-0.022473 0.006541 0.877000
0.001698 -0.019651 0.870000
-0.022062 0.015169 0.875000
-0.030995 0.033786 0.863000
-0.013999 -0.016421 0.889000
-0.027166 -0.001040 0.877000
0.008738 -0.016908 0.858000
0.016762 -0.023480 0.853000
0.019234 -0.043351 0.886000
-0.011296 0.005825 0.878000
0.005913 -0.015143 0.858000
0.022081 -0.021424 0.855000
-0.031426 -0.002838 0.875000
-0.003627 0.012063 0.859000
-0.030959 0.007580 0.872000
-0.029499 -0.020285 0.882000
-0.016374 0.010897 0.879000
-0.018928 0.006925 0.880000
-0.020480 0.037598 0.869000
0.024277 -0.025737 0.858000
-0.005735 0.027202 0.857000
-0.018348 -0.016019 0.887000
0.002057 -0.025380 0.870000
0.010975 0.019057 0.840000
0.032626 -0.026628 0.864000
-0.003597 0.030550 0.852000
0.007326 0.050894 0.858000
0.001305 0.039086 0.847000
-0.016774 0.006570 0.881000
-0.027182 0.033191 0.866000
0.010794 -0.010841 0.853000
0.012643 0.029288 0.836000
0.011334 0.017002 0.841000
-0.002238 -0.014264 0.869000
-0.001491 0.025961 0.851000
0.021729 -0.022831 0.855000
-0.014449 0.029832 0.872000
0.022081 -0.022480 0.855000
-0.013480 0.008726 0.879000
-0.006455 0.035044 0.859000
0.032551 -0.022664 0.862000
-0.030249 0.038714 0.862000
-0.030157 -0.018066 0.880000
-0.011090 0.045100 0.862000
0.019922 -0.018565 0.853000
0.002437 -0.041875 0.878000
0.015183 -0.039384 0.863000
0.020321 -0.024591 0.855000
-0.015219 0.023092 0.875000
0.017975 0.009421 0.844000
-0.020106 -0.009416 0.884000
-0.011219 0.021577 0.872000
-0.024223 0.011207 0.875000
-0.010910 0.010139 0.876000
-0.026918 0.022576 0.869000
0.008277 0.011895 0.847000
0.017137 0.024500 0.837000
0.009912 -0.044256 0.868000
0.030741 -0.021929 0.861000
0.002712 0.010199 0.851000
0.027229 -0.030114 0.862000
-0.026622 0.016892 0.871000
-0.001172 -0.024058 0.874000
-0.009738 0.024336 0.868000
-0.014764 -0.022693 0.891000
0.023218 -0.026443 0.858000
0.005865 -0.002410 0.851000
-0.010947 0.003661 0.879000
0.005182 -0.006636 0.854000
0.014656 -0.015756 0.853000
-0.014171 0.016286 0.877000
-0.007137 0.044082 0.856000
-0.014944 0.008012 0.880000
0.007966 -0.004511 0.851000
0.013443 0.008369 0.843000
-0.019122 -0.023739 0.889000
0.005207 -0.014436 0.858000
-0.003334 -0.015082 0.875000
-0.005721 0.031713 0.855000
0.014305 -0.012597 0.853000
0.010936 0.033457 0.837000
-0.003254 0.035543 0.854000
-0.012549 -0.021202 0.890000
0.015052 0.031009 0.836000
0.016893 0.012171 0.842000
0.008277 0.013289 0.847000
-0.018452 -0.030428 0.892000
-0.020598 0.021986 0.874000
-0.028773 -0.020285 0.882000
-0.009761 0.020453 0.870000
-0.018524 0.011969 0.878000
0.007714 -0.020890 0.862000
0.006642 -0.017676 0.861000
-0.008501 -0.028464 0.888000
-0.024610 -0.034350 0.889000
0.004079 0.034779 0.844000
-0.011870 -0.032336 0.894000
0.004495 -0.012656 0.857000
0.009235 0.029048 0.839000
0.005885 -0.009097 0.854000
-0.014397 -0.021592 0.891000
-0.000090 0.033627 0.850000
-0.005895 -0.019174 0.881000
-0.021512 -0.004313 0.882000
-0.016560 -0.017885 0.889000
-0.019165 -0.027827 0.891000
0.017117 0.028944 0.836000
-0.021603 0.030156 0.871000
-0.015885 0.032344 0.872000
-0.021900 -0.009405 0.883000
-0.025419 -0.003213 0.879000
0.031523 -0.025887 0.863000
0.000262 0.050071 0.856000
0.014656 -0.022778 0.853000
0.006891 0.008069 0.848000
-0.006628 -0.019196 0.882000
-0.002638 -0.037026 0.883000
-0.005076 0.007875 0.865000
0.001654 0.039783 0.847000
-0.015463 -0.016421 0.889000
0.006009 -0.040871 0.872000
0.002715 0.019679 0.852000
0.006619 -0.015496 0.858000
-0.007237 0.002186 0.868000
0.005605 -0.032355 0.865000
0.001351 -0.036413 0.877000
0.014221 -0.001354 0.848000
-0.033242 -0.001049 0.885000
-0.004676 0.050482 0.857000
-0.014927 0.011259 0.879000
0.014831 0.010104 0.843000
-0.016225 0.034099 0.871000
0.000624 -0.029319 0.870000
-0.007498 0.043780 0.857000
0.011955 0.032385 0.836000
0.008405 -0.019425 0.860000
-0.007568 0.012503 0.865000
-0.006109 0.052075 0.860000
0.000974 -0.014520 0.863000
-0.026262 -0.017764 0.883000
-0.015597 0.020234 0.876000
-0.028938 -0.001399 0.876000
0.014070 0.016962 0.839000
0.010056 -0.002407 0.850000
-0.005438 0.006102 0.866000
-0.011498 0.036399 0.866000
-0.022574 0.040009 0.867000
-0.004384 -0.010687 0.869000
0.004079 0.036863 0.844000
0.006317 -0.027015 0.865000
0.005122 0.029916 0.844000
0.003517 -0.043272 0.877000
0.008492 -0.041804 0.869000
-0.023275 -0.003941 0.880000
-0.026263 0.018326 0.871000
-0.010002 0.050305 0.860000
0.010259 0.035912 0.838000
0.014656 -0.014352 0.853000
-0.018397 0.031267 0.872000
0.006842 0.029845 0.842000
-0.014664 -0.006877 0.885000
-0.030380 -0.005725 0.876000
-0.002189 0.029429 0.850000
0.005194 0.049719 0.856000
-0.008930 0.043882 0.859000
0.012027 0.015964 0.841000
0.002760 -0.017422 0.866000
0.005219 -0.016594 0.860000
-0.007970 0.000759 0.870000
0.015759 0.033802 0.837000
-0.017479 0.007287 0.880000
-0.028218 0.034932 0.865000
-0.024334 -0.002127 0.879000
0.000259 0.029709 0.848000
-0.009467 0.005451 0.876000
-0.012253 0.031517 0.869000
-0.020975 -0.029261 0.890000
0.002057 -0.022158 0.870000
0.022590 -0.034332 0.861000
0.000963 0.009872 0.853000
-0.025390 0.000405 0.878000
0.007054 -0.034968 0.868000
-0.012394 0.006555 0.879000
-0.030554 -0.021713 0.881000
0.008434 -0.029794 0.863000
-0.006244 -0.014790 0.879000
0.012916 -0.019993 0.854000
0.010975 0.020785 0.840000
0.020062 -0.033898 0.859000
0.006850 0.038555 0.843000
0.030916 -0.032045 0.876000
-0.007154 0.050188 0.858000
0.019423 -0.037919 0.862000
0.010895 0.051426 0.861000
-0.032183 -0.003923 0.876000
-0.003952 0.041821 0.853000
-0.022049 -0.028496 0.889000
-0.001184 -0.041387 0.883000
-0.015202 0.025224 0.874000
-0.031677 0.006144 0.872000
-0.022938 -0.006846 0.881000
-0.028142 -0.028732 0.885000
-0.007577 0.009666 0.866000
0.008606 0.016735 0.845000
-0.012352 0.013744 0.876000
-0.002279 -0.041845 0.885000
0.027519 -0.024735 0.860000
0.018231 -0.006652 0.856000
0.002437 -0.042960 0.878000
0.007985 -0.008384 0.853000
0.003481 -0.026037 0.868000
0.014937 -0.003103 0.849000
-0.027506 0.042053 0.865000
0.029997 -0.021903 0.860000
0.004853 -0.014789 0.858000
0.009569 0.029703 0.838000
-0.000092 -0.025080 0.872000
0.004842 -0.009470 0.856000
0.004166 0.052905 0.862000
-0.011059 -0.020058 0.888000
-0.011631 0.011941 0.876000
0.022433 -0.020720 0.855000
-0.002892 0.043474 0.851000
0.005122 0.031305 0.844000
0.009615 0.039202 0.842000
-0.020655 -0.034466 0.892000
0.016719 -0.044665 0.869000
-0.023556 0.005097 0.877000
-0.002998 -0.032265 0.882000
0.006193 0.008418 0.848000
0.019265 -0.027054 0.855000
-0.022415 -0.029594 0.889000
0.004887 -0.018804 0.864000
-0.027507 -0.035408 0.888000
0.013921 -0.009065 0.851000
-0.028931 0.031016 0.865000
-0.008836 -0.019990 0.885000
0.012070 0.007684 0.844000
0.014743 0.020046 0.838000
-0.009086 0.007238 0.874000
0.003417 0.016173 0.852000
0.018518 -0.023129 0.853000
-0.028410 -0.021011 0.882000
-0.007337 -0.013720 0.880000
0.007580 0.013986 0.847000
-0.018524 0.013414 0.878000
-0.016981 0.028429 0.873000
-0.013715 0.030514 0.871000
0.013921 -0.008714 0.851000
0.014690 -0.026350 0.855000
0.013676 0.025159 0.836000
-0.031742 0.029202 0.864000
-0.024667 -0.000318 0.878000
-0.027019 -0.021787 0.884000
0.007732 -0.027339 0.864000
-0.021125 -0.000682 0.881000
0.003829 -0.031323 0.866000
-0.013327 -0.027889 0.893000
0.017254 -0.036769 0.860000
-0.029964 0.034892 0.864000
0.002014 0.011614 0.852000
-0.011072 -0.022276 0.889000
-0.005451 -0.002458 0.868000
-0.006888 -0.001030 0.869000
0.005540 0.048957 0.855000
0.006565 -0.003811 0.851000
-0.032358 0.007930 0.871000
-0.030355 0.030660 0.865000
-0.004747 -0.011057 0.870000
-0.006073 0.045086 0.855000
-0.017300 0.034458 0.871000
-0.022268 0.035094 0.869000
0.017444 -0.019595 0.852000
0.004989 -0.047148 0.882000
-0.009013 0.025022 0.867000
-0.009034 0.020430 0.869000
-0.023142 0.012288 0.875000
-0.003980 0.014538 0.859000
-0.004824 -0.030155 0.884000
-0.008453 -0.015220 0.883000
-0.025303 0.010127 0.875000
0.008229 0.023954 0.842000
0.016704 -0.005206 0.850000
0.000626 -0.022209 0.872000
0.028648 -0.027276 0.862000
0.029609 -0.020463 0.859000
-0.019608 0.009439 0.878000
0.009522 -0.035203 0.865000
-0.011525 0.031481 0.868000
-0.003698 -0.016542 0.876000
-0.025546 0.020477 0.871000
0.027938 -0.027985 0.862000
0.015106 0.017998 0.839000
-0.012324 0.020188 0.874000
-0.015029 -0.005056 0.885000
-0.017781 0.016647 0.877000
-0.007023 -0.029129 0.886000
-0.022931 0.039652 0.867000
-0.018885 0.013053 0.878000
-0.021875 -0.007580 0.882000
0.010565 -0.034411 0.863000
-0.022037 0.018029 0.874000
-0.010270 -0.010496 0.883000
-0.009985 -0.026696 0.890000
0.011456 -0.004856 0.850000
-0.015306 0.009460 0.880000
0.018380 -0.042695 0.880000
0.008555 0.036689 0.840000
0.005605 -0.027371 0.865000
-0.017678 -0.022301 0.890000
-0.004349 0.019910 0.862000
-0.006658 -0.030588 0.886000
0.005501 0.017514 0.849000
-0.029964 0.032758 0.864000
-0.006137 0.053739 0.864000
-0.005188 -0.029427 0.884000
0.019922 -0.018916 0.853000
-0.022415 -0.028862 0.889000
0.005508 0.002141 0.850000
-0.021149 -0.005039 0.882000
0.000983 -0.020032 0.871000
-0.000092 -0.014927 0.866000
-0.006658 -0.029129 0.886000
0.005501 0.004585 0.849000
-0.022755 -0.028098 0.888000
0.012564 -0.018938 0.854000
0.011625 0.033802 0.837000
-0.014681 -0.008343 0.886000
-0.002192 0.027012 0.851000
0.014849 0.006989 0.844000
0.005463 0.037167 0.843000
-0.011895 0.029729 0.869000
-0.030449 -0.011882 0.878000
-0.019519 0.023065 0.874000
0.011158 -0.013666 0.854000
0.016625 0.003524 0.846000
0.002376 0.050071 0.856000
0.008287 0.003532 0.848000
0.004774 0.025053 0.844000
0.007929 0.013638 0.847000
-0.023261 0.042458 0.866000
0.012314 0.035524 0.837000
0.006997 -0.018385 0.861000
-0.024499 0.024807 0.872000
0.011903 -0.023590 0.857000
0.009081 -0.015830 0.857000
-0.009096 0.004725 0.875000
-0.004384 -0.007468 0.869000
0.003767 0.003198 0.852000
-0.013464 0.013053 0.878000
-0.029985 -0.000317 0.875000
0.004220 -0.036607 0.873000
-0.027166 -0.002122 0.877000
0.016833 0.019725 0.839000
0.006735 -0.045230 0.873000
0.015928 0.002827 0.846000
-0.026836 -0.002486 0.878000
-0.021603 0.029797 0.871000
0.006704 -0.036081 0.869000
0.004186 -0.019917 0.866000
-0.004298 0.045278 0.852000
-0.020621 0.016970 0.875000
0.006834 0.036040 0.841000
0.013379 0.036645 0.839000
0.005878 -0.007331 0.853000
-0.029365 -0.009714 0.878000
0.001305 0.036297 0.847000
-0.009608 -0.026667 0.889000
0.020016 -0.029939 0.857000
0.003966 -0.047950 0.897000
0.015412 -0.030257 0.856000
-0.010609 -0.003220 0.881000
-0.001844 0.034407 0.852000
0.006842 0.028112 0.842000
-0.004026 -0.011760 0.869000
-0.002892 0.029464 0.851000
-0.027290 -0.014461 0.881000
-0.018799 0.024145 0.874000
0.018670 -0.036769 0.860000
0.003481 -0.020678 0.868000
-0.000811 -0.030139 0.873000
0.014954 -0.005556 0.850000
-0.009705 0.033152 0.865000
-0.021293 -0.024444 0.888000
0.001667 0.018671 0.854000
-0.001841 0.043474 0.851000
-0.003957 0.032731 0.854000
0.020076 -0.042129 0.891000
-0.012060 0.001857 0.881000
0.008860 -0.044358 0.870000
-0.030959 0.007939 0.872000
0.013970 -0.022102 0.854000
0.011833 -0.008725 0.852000
0.010832 -0.019335 0.856000
-0.028904 -0.034599 0.886000
0.006193 0.004928 0.848000
-0.008886 -0.030726 0.890000
0.003763 0.014403 0.851000
0.009455 -0.021170 0.859000
0.002712 0.008448 0.851000
-0.024001 0.037868 0.867000
0.003062 0.013001 0.851000
-0.021197 -0.011963 0.884000
-0.017039 0.020594 0.876000
-0.015561 0.025224 0.874000
0.013332 0.026536 0.836000
-0.004704 0.020975 0.862000
0.007938 0.003183 0.848000
-0.007396 -0.029892 0.887000
0.008901 0.037034 0.840000
-0.009242 -0.027398 0.889000
-0.002207 0.010977 0.857000
-0.018819 -0.030061 0.892000
-0.005082 0.005746 0.866000
0.015113 -0.036020 0.859000
-0.002207 0.012035 0.857000
-0.010165 0.012993 0.874000
-0.014615 0.001496 0.882000
-0.004698 0.024140 0.861000
-0.009211 -0.019283 0.886000
0.021502 -0.033938 0.860000
0.015378 0.028566 0.835000
0.017586 0.014597 0.842000
-0.018004 -0.017865 0.888000
-0.005551 -0.028700 0.884000
-0.001841 0.038570 0.851000
0.009672 0.007711 0.847000
0.007518 0.034960 0.840000
-0.002253 -0.019044 0.875000
0.000266 -0.026485 0.871000
0.023705 -0.034930 0.876000
-0.000090 0.011290 0.854000
-0.008328 0.015082 0.870000
-0.022984 0.031517 0.869000
0.004774 0.024705 0.844000
-0.017976 0.041532 0.869000
-0.002212 0.019134 0.859000
0.005644 -0.036523 0.871000
-0.017360 0.025224 0.874000
-0.032581 -0.002844 0.877000
-0.029365 -0.007907 0.878000
0.003485 -0.032862 0.869000
-0.022037 0.019108 0.874000
0.011027 0.009421 0.844000
0.008336 -0.008735 0.853000
-0.014015 -0.018638 0.890000
-0.028643 -0.007184 0.878000
0.011577 -0.029302 0.859000
-0.017292 -0.017885 0.889000
0.024630 -0.024324 0.858000
0.005152 0.008079 0.849000
-0.028905 0.002204 0.875000
0.031878 -0.024111 0.863000
-0.026143 -0.005745 0.879000
0.011969 0.034146 0.837000
-0.013449 0.014121 0.877000
0.012070 0.008379 0.844000
0.013298 -0.027791 0.856000
-0.003698 -0.015460 0.876000
-0.005545 -0.026487 0.883000
-0.001516 -0.010282 0.865000
0.023924 -0.024677 0.858000
0.002434 -0.040384 0.877000
-0.003368 -0.036340 0.884000
-0.013526 0.001496 0.882000
0.013523 -0.002750 0.848000
-0.004465 -0.033832 0.885000
-0.010368 0.045048 0.861000
0.000613 0.022538 0.854000
0.002437 -0.041153 0.878000
-0.033317 -0.001782 0.887000
0.007021 -0.031251 0.864000
-0.032641 0.014349 0.869000
0.007616 -0.003110 0.851000
0.015415 0.033802 0.837000
0.009279 0.019125 0.843000
-0.004394 -0.012504 0.871000
0.003882 -0.045489 0.878000
-0.028539 -0.032411 0.886000
-0.002192 0.043474 0.851000
0.021527 -0.035040 0.861000
-0.001182 -0.038436 0.882000
0.012900 -0.015054 0.853000
0.006948 -0.011922 0.855000
-0.014046 -0.025655 0.892000
-0.016411 0.005845 0.881000
0.011611 0.032041 0.836000
0.024091 -0.033740 0.864000
-0.023556 0.006901 0.877000
-0.004349 0.019201 0.862000
-0.002272 -0.034080 0.882000
0.004808 0.014735 0.850000
-0.019586 0.014482 0.877000
-0.014399 0.037955 0.869000
0.008060 -0.019802 0.861000
-0.028281 -0.007184 0.878000
-0.026112 0.035329 0.866000
-0.032733 0.039069 0.862000
0.023896 -0.023943 0.857000
0.000974 -0.010613 0.863000
-0.024658 0.041697 0.865000
0.025336 -0.024324 0.858000
0.017362 0.001089 0.848000
-0.026232 -0.015929 0.882000
-0.007246 0.000401 0.869000
-0.020790 0.042507 0.867000
0.006496 0.029152 0.842000
0.016041 -0.020647 0.852000
-0.003985 0.015263 0.860000
-0.002593 -0.013175 0.868000
-0.015885 0.030191 0.872000
-0.033817 0.011647 0.881000
0.024249 -0.023238 0.857000
0.019663 -0.029587 0.857000
-0.001908 -0.037710 0.882000
0.015740 0.031009 0.836000
0.003070 0.047438 0.853000
0.010949 0.025909 0.838000
-0.027729 0.012605 0.872000
-0.010351 -0.025598 0.890000
0.011944 -0.032522 0.860000
0.002035 -0.011652 0.861000
-0.000805 -0.014945 0.867000
0.009007 -0.001707 0.850000
-0.011399 -0.013813 0.886000
-0.014797 -0.028992 0.893000
-0.004693 0.024820 0.860000
0.014415 0.016962 0.839000
0.002715 0.045629 0.852000
-0.002256 -0.020868 0.876000
-0.027862 0.033508 0.865000
-0.010026 0.052551 0.862000
-0.015167 0.031267 0.872000
0.004079 0.027832 0.844000
-0.001181 -0.037305 0.881000
0.011509 -0.013666 0.854000
0.014372 -0.031350 0.857000
0.006230 -0.006628 0.853000
0.002741 0.051721 0.860000
0.014965 -0.046919 0.871000
-0.000457 -0.044708 0.884000
-0.028773 -0.019922 0.882000
-0.027991 0.020430 0.869000
-0.009532 -0.010121 0.882000
0.015358 -0.014703 0.853000
-0.006840 0.027393 0.863000
-0.015939 0.023812 0.875000
0.020770 -0.033545 0.859000
-0.014582 0.008736 0.880000
0.012358 0.038072 0.840000
0.007172 0.033231 0.840000
-0.009671 0.039069 0.862000
0.017114 -0.012948 0.853000
-0.020838 0.035452 0.869000
-0.030320 0.033114 0.864000
-0.003292 0.053739 0.864000
0.012141 -0.004151 0.849000
0.012012 0.016982 0.840000
0.003437 -0.004896 0.857000
-0.017718 -0.028592 0.892000
0.003142 -0.034091 0.873000
-0.032604 0.014690 0.868000
0.008585 0.021206 0.843000
0.017117 0.027912 0.836000
-0.004709 0.019934 0.863000
0.008943 0.018105 0.844000
-0.005895 -0.019900 0.881000
-0.014466 0.028429 0.873000
0.010092 -0.010139 0.853000
0.021123 -0.032130 0.859000
-0.009065 0.011169 0.872000
-0.006080 0.031398 0.856000
0.014036 0.034491 0.837000
-0.006785 0.029989 0.856000
-0.020037 0.000406 0.881000
0.004084 0.032734 0.845000
0.010516 -0.024706 0.859000
0.016181 0.013887 0.841000
-0.025506 -0.015203 0.882000
-0.030565 0.011156 0.871000
0.001685 -0.010613 0.863000
-0.011257 0.013368 0.875000
0.018972 0.024647 0.842000
0.013018 0.020391 0.838000
-0.004082 -0.029690 0.881000
-0.011950 0.020883 0.873000
-0.005514 -0.014050 0.878000
-0.028674 0.023979 0.868000
0.028293 -0.027631 0.862000
-0.024108 -0.015965 0.884000
0.012127 -0.001354 0.848000
-0.024920 -0.028432 0.887000
0.004181 0.054157 0.865000
-0.032416 0.030589 0.863000
-0.010235 -0.002130 0.880000
-0.010885 0.015152 0.874000
-0.014698 -0.009813 0.887000
0.005560 0.050894 0.858000
-0.001489 0.026280 0.850000
-0.027119 0.040937 0.864000
-0.015828 -0.017153 0.889000
0.017461 0.027568 0.836000
0.005188 0.046493 0.855000
0.013345 -0.032838 0.859000
-0.005082 0.006102 0.866000
0.006899 0.000741 0.849000
-0.012582 0.036797 0.867000
0.012505 -0.004856 0.850000
-0.026825 0.033904 0.866000
0.029003 -0.025857 0.862000
-0.002569 0.020218 0.860000
0.011998 0.020070 0.839000
0.025012 -0.026827 0.859000
-0.000811 -0.024031 0.873000
-0.012698 0.019490 0.875000
-0.000452 -0.019000 0.873000
-0.006433 0.047957 0.856000
-0.026112 0.034973 0.866000
0.013603 -0.012597 0.853000
-0.015917 -0.033072 0.894000
-0.030284 0.035917 0.863000
0.005599 -0.019160 0.864000
0.006354 -0.037197 0.870000
-0.010798 0.031802 0.867000
-0.015472 0.038671 0.869000
-0.025708 -0.034716 0.889000
-0.003957 0.027107 0.854000
-0.000090 0.031141 0.849000
-0.007204 0.013911 0.864000
0.004893 -0.019182 0.865000
-0.026805 -0.001761 0.877000
0.014540 -0.044562 0.867000
0.011639 0.022805 0.838000
-0.029745 0.021835 0.868000
-0.032771 0.031655 0.863000
0.010844 -0.021827 0.857000
0.010936 0.032424 0.837000
0.011523 -0.018609 0.855000
0.013443 0.008716 0.843000
-0.030995 0.003277 0.873000
-0.022912 -0.001405 0.880000
-0.013342 0.031554 0.870000
-0.006605 -0.013342 0.879000
-0.009413 0.016175 0.871000
0.004220 -0.037325 0.873000
-0.014316 -0.009802 0.886000
-0.030741 -0.005725 0.876000
-0.001502 0.022617 0.857000
-0.018038 0.031985 0.872000
-0.004430 -0.024530 0.878000
0.007589 0.008069 0.848000
0.015691 -0.010127 0.852000
0.012505 -0.005206 0.850000
-0.019027 0.043628 0.868000
0.004893 -0.031287 0.865000
0.004432 0.038994 0.845000
-0.015549 -0.030864 0.894000
0.008879 0.034532 0.838000
-0.018798 -0.029294 0.891000
-0.006500 0.021048 0.865000
-0.022781 -0.028862 0.889000
-0.008972 0.035207 0.863000
-0.017098 0.011259 0.879000
0.006891 0.015050 0.848000
-0.005788 0.054157 0.865000
0.013459 0.008031 0.844000
-0.026595 -0.016292 0.882000
0.008297 0.000042 0.849000
-0.012210 -0.026389 0.892000
-0.026351 -0.028400 0.886000
-0.006983 -0.016636 0.881000
-0.004665 0.038751 0.855000
-0.002542 0.029113 0.851000
0.007394 -0.033818 0.866000
0.004191 -0.022081 0.867000
0.020297 -0.023508 0.854000
0.005810 0.027799 0.843000
-0.025506 -0.013751 0.882000
-0.007851 0.047308 0.857000
-0.016244 0.031267 0.872000
0.005906 -0.014067 0.857000
0.011736 0.005606 0.845000
-0.033088 0.033392 0.862000
-0.018369 -0.017134 0.888000
-0.030811 -0.011159 0.878000
-0.004655 0.042523 0.853000
0.016546 -0.036769 0.860000
-0.020739 0.002217 0.880000
-0.001149 0.021206 0.857000
-0.016869 -0.008343 0.886000
0.003505 -0.035210 0.874000
0.015007 -0.019267 0.853000
-0.021528 0.037197 0.868000
-0.019765 0.038313 0.869000
-0.024444 -0.015947 0.883000
-0.011347 -0.003587 0.882000
-0.010537 0.010847 0.875000
-0.007221 0.015013 0.866000
-0.004314 0.036640 0.855000
-0.004319 0.035978 0.856000
-0.022217 0.038582 0.867000
0.006361 -0.038674 0.871000
-0.001874 -0.011007 0.866000
-0.034386 0.024949 0.877000
-0.001502 0.021559 0.857000
0.001652 0.029639 0.846000
0.025455 -0.031533 0.862000
0.005599 -0.020583 0.864000
0.014036 0.022433 0.837000
-0.002212 0.016659 0.859000
-0.018885 0.012330 0.878000
-0.023275 -0.003216 0.880000
-0.008666 0.020406 0.868000
-0.010119 0.020453 0.870000
-0.022268 0.034736 0.869000
-0.033037 0.011501 0.870000
0.001667 0.017968 0.854000
-0.010223 0.000043 0.879000
-0.013118 0.008364 0.879000
-0.030380 -0.005004 0.876000
-0.006959 -0.010075 0.878000
0.015077 -0.032408 0.857000
0.013485 -0.045685 0.868000
-0.011399 -0.012719 0.886000
0.015113 -0.035666 0.859000
-0.009169 -0.010484 0.882000
-0.027445 -0.030223 0.886000
-0.000452 -0.022260 0.874000
0.003066 0.045980 0.852000
0.023896 -0.024296 0.857000
0.005249 -0.031287 0.865000
-0.023121 -0.027367 0.888000
-0.004742 -0.009256 0.869000
-0.013648 -0.019004 0.890000
0.020673 -0.023183 0.855000
-0.018376 0.035533 0.871000
0.007919 0.040781 0.846000
-0.011964 0.018389 0.874000
-0.002545 0.026342 0.852000
-0.005728 0.039854 0.856000
0.007021 -0.027339 0.864000
0.026749 -0.019733 0.858000
0.012638 -0.033191 0.859000
-0.006801 0.032531 0.858000
0.006542 0.008767 0.848000
-0.015882 -0.025655 0.892000
-0.011257 0.013728 0.875000
0.008116 -0.035284 0.867000
-0.008567 0.049482 0.858000
-0.026504 -0.007192 0.879000
-0.003273 0.010649 0.859000
0.002766 0.005402 0.868000
-0.027476 -0.032083 0.887000
0.013251 -0.015756 0.853000
-0.027475 0.039159 0.864000
-0.006094 0.036769 0.858000
-0.002241 -0.014638 0.870000
-0.016067 0.002585 0.882000
0.006588 -0.010151 0.854000
0.005116 0.026064 0.843000
-0.010669 -0.014178 0.886000
0.013127 0.005259 0.845000
0.002712 0.021057 0.851000
-0.007379 -0.023633 0.885000
0.005249 -0.028795 0.865000
0.006288 -0.017322 0.861000
-0.012741 0.009800 0.878000
0.003417 0.015471 0.852000
0.007732 -0.031962 0.864000
0.015891 0.008379 0.844000
0.011955 0.030665 0.836000
-0.022834 0.008345 0.877000
-0.019553 -0.033365 0.892000
0.017260 0.011491 0.843000
-0.014876 0.020955 0.876000
-0.026233 0.020811 0.870000
-0.021950 -0.015619 0.885000
0.001306 0.031105 0.848000
-0.012239 0.032910 0.868000
-0.014780 -0.026389 0.892000
-0.018100 0.022732 0.875000
-0.026685 -0.025090 0.885000
-0.032679 0.010785 0.870000
-0.003364 -0.034118 0.883000
0.017274 -0.038230 0.861000
0.009638 0.015326 0.844000
-0.026082 0.037069 0.865000
-0.029456 0.016156 0.870000
0.000260 0.043824 0.851000
0.027841 -0.021524 0.859000
-0.022415 -0.029228 0.889000
-0.019630 0.009088 0.879000
0.009477 -0.024763 0.861000
0.005463 0.025717 0.843000
-0.012281 0.026930 0.871000
-0.021390 0.010150 0.877000
-0.011671 0.006194 0.879000
-0.007212 0.014639 0.865000
0.014305 -0.022778 0.853000
0.007509 0.033882 0.839000
-0.018286 -0.006142 0.884000
-0.014995 0.001497 0.883000
0.007938 0.003881 0.848000
0.004224 -0.039526 0.874000
0.010908 -0.033307 0.862000
0.011289 -0.038007 0.864000
0.012027 0.014926 0.841000
0.023896 -0.022885 0.857000
-0.005922 -0.029461 0.885000
-0.032867 0.003284 0.875000
0.008616 0.013273 0.846000
0.010382 0.001787 0.848000
0.017033 -0.001705 0.849000
0.013842 -0.045328 0.868000
0.032551 -0.020890 0.862000
-0.024306 -0.000318 0.878000
-0.015757 -0.005056 0.885000
0.033771 -0.025264 0.866000
-0.014548 0.014859 0.878000
-0.027506 0.037069 0.865000
-0.000804 0.054157 0.865000
-0.007146 0.042722 0.857000
0.004186 -0.032036 0.866000
-0.017821 0.009811 0.879000
-0.000092 -0.020078 0.873000
-0.008876 -0.029228 0.889000
0.005851 0.016465 0.849000
-0.012253 0.030444 0.869000
0.014622 -0.007664 0.851000
0.001317 0.017637 0.855000
0.016219 0.009063 0.843000
-0.013873 0.004032 0.881000
0.017816 -0.021023 0.853000
-0.032847 0.023896 0.865000
0.002712 0.011600 0.851000
-0.033241 0.022141 0.866000
0.003790 -0.009481 0.857000
-0.015921 0.025943 0.874000
-0.007237 0.003973 0.868000
0.001665 0.020054 0.853000
0.008555 0.027700 0.840000
-0.007726 -0.019218 0.883000
-0.025361 0.002209 0.877000
-0.000091 0.015544 0.856000
-0.004064 -0.024502 0.877000
-0.011335 -0.001770 0.881000
-0.013710 -0.032336 0.894000
-0.013700 0.033344 0.870000
0.002057 -0.023590 0.870000
-0.027747 -0.023606 0.884000
-0.006864 0.007171 0.866000
0.032271 -0.026272 0.864000
-0.016616 -0.026389 0.892000
-0.009991 0.048832 0.859000
-0.021022 -0.034466 0.892000
-0.008567 0.048422 0.858000
-0.019186 -0.033732 0.892000
-0.016641 0.025224 0.874000
-0.018473 -0.033770 0.893000
-0.000796 0.016973 0.857000
-0.011964 0.018029 0.874000
-0.000452 -0.020797 0.873000
0.008209 0.036343 0.840000
-0.014139 0.020931 0.875000
0.010406 -0.002407 0.850000
0.015007 -0.018916 0.853000
0.014415 0.019034 0.839000
0.001311 0.045575 0.851000
-0.030235 -0.034872 0.893000
0.008473 -0.036712 0.867000
0.014742 -0.032799 0.858000
0.004427 0.030263 0.844000
-0.004430 -0.017664 0.878000
-0.020562 -0.023713 0.888000
0.016723 -0.006963 0.851000
0.017975 0.009768 0.844000
0.032626 -0.025917 0.864000
-0.012324 0.019108 0.874000
-0.022415 -0.024471 0.889000
0.004780 0.023343 0.845000
0.000973 -0.011310 0.862000
-0.026172 -0.008287 0.880000
-0.017440 0.013414 0.878000
0.008444 -0.031606 0.864000
-0.023089 0.018009 0.873000
0.003759 0.012287 0.850000
-0.021415 0.006909 0.878000
0.012055 -0.045328 0.868000
0.011577 -0.028241 0.859000
0.011027 0.011158 0.844000
-0.024723 -0.005752 0.880000
0.018626 0.017023 0.842000
0.000985 -0.021850 0.872000
0.015060 -0.028495 0.856000
0.017280 0.008379 0.844000
-0.014090 0.029473 0.872000
0.008789 0.053322 0.863000
0.030387 -0.021929 0.861000
-0.019027 0.042913 0.868000
0.017444 -0.007673 0.852000
0.012916 -0.022102 0.854000
-0.023617 0.041389 0.866000
-0.017801 0.014498 0.878000
-0.013043 0.021627 0.874000
0.006642 -0.018030 0.861000
-0.016067 0.004400 0.882000
-0.016411 0.006933 0.881000
0.005134 0.022326 0.846000
-0.000442 0.011303 0.855000
-0.012507 -0.012004 0.887000
0.005844 0.008767 0.848000
0.011955 0.026880 0.836000
-0.014797 -0.029727 0.893000
0.006222 -0.003815 0.852000
-0.028964 0.029270 0.866000
-0.030817 0.018263 0.868000
-0.005761 0.026266 0.861000
-0.005413 0.024168 0.862000
-0.026897 -0.010460 0.880000
0.007518 0.031503 0.840000
0.016238 0.008726 0.844000
-0.007612 -0.001389 0.870000
-0.015182 -0.030864 0.894000
0.006635 0.051721 0.860000
0.005961 -0.023098 0.865000
0.004191 -0.026007 0.867000
-0.028971 -0.003927 0.877000
-0.012969 0.034379 0.869000
0.017732 -0.001006 0.849000
0.001339 0.055839 0.869000
-0.029828 -0.020625 0.881000
-0.011360 -0.005771 0.883000
-0.019385 0.043270 0.868000
0.002715 0.044226 0.852000
0.013954 -0.021023 0.853000
0.001698 -0.019293 0.870000
0.010528 -0.026505 0.860000
0.025071 -0.030079 0.861000
-0.002542 0.045225 0.851000
-0.012698 0.017690 0.875000
-0.012169 -0.018617 0.889000
-0.029031 0.022193 0.868000
-0.002194 0.032303 0.852000
-0.023449 0.019087 0.873000
-0.006485 0.012474 0.863000
-0.001502 0.021911 0.857000
0.017383 -0.002404 0.849000
0.020273 -0.019618 0.853000
0.016411 -0.015756 0.853000
-0.018778 0.027710 0.873000
0.012255 -0.025354 0.857000
-0.028414 0.015099 0.871000
0.015124 0.016636 0.840000
0.010021 0.003528 0.847000
-0.008080 -0.015203 0.882000
-0.009180 -0.014493 0.883000
0.016428 0.025159 0.836000
0.016211 -0.037875 0.861000
0.018171 0.026567 0.837000
-0.020238 0.022346 0.874000
-0.004349 0.018137 0.862000
0.000612 0.048842 0.853000
-0.008300 0.023238 0.867000
0.010920 -0.035122 0.863000
-0.023142 0.013728 0.875000
-0.033443 0.034457 0.862000
-0.013403 0.022706 0.874000
0.019220 -0.017863 0.853000
0.000268 -0.032009 0.875000
-0.023879 -0.033253 0.889000
-0.030345 -0.002118 0.875000
-0.007146 0.041311 0.857000
0.012402 0.009757 0.843000
-0.007933 0.009666 0.866000
-0.004349 0.017072 0.862000
0.009511 -0.033029 0.864000
0.009809 -0.021878 0.859000
-0.029399 -0.012981 0.879000
-0.013857 0.006563 0.880000
-0.006665 -0.032813 0.887000
-0.005526 -0.018428 0.880000
-0.004671 0.036331 0.856000
0.005140 0.022004 0.847000
-0.021603 0.028364 0.871000
-0.001489 0.030828 0.850000
-0.003273 0.014538 0.859000
-0.010525 0.014072 0.874000
-0.007952 0.005044 0.868000
-0.004110 -0.035733 0.887000
-0.033908 0.019828 0.874000
-0.032440 -0.021273 0.893000
0.016117 -0.029552 0.856000
-0.020265 -0.032594 0.891000
-0.023808 0.016931 0.873000
-0.030888 0.014008 0.870000
-0.008481 -0.023659 0.886000
-0.015508 0.033024 0.871000
0.002795 -0.040384 0.877000
-0.011485 0.039561 0.865000
0.008079 -0.028018 0.863000
-0.030817 0.018977 0.868000
0.018188 -0.024914 0.854000
0.009112 -0.022965 0.860000
-0.015271 0.014859 0.878000
-0.010810 0.028266 0.868000
0.002351 0.031068 0.847000
0.012987 0.025847 0.836000
-0.001857 0.022290 0.858000
-0.016012 0.012344 0.879000
-0.003597 0.045629 0.852000
-0.002590 -0.009235 0.867000
