-0.018861 -0.019457 0.894000
0.027938 0.029490 0.862000
-0.015864 -0.019025 0.891000
0.017751 0.008250 0.867000
0.028035 0.006451 0.865000
0.005322 0.022423 0.877000
-0.016249 -0.042910 0.892000
0.018822 0.007893 0.867000
-0.021093 -0.033845 0.895000
-0.023751 -0.015109 0.898000
0.022313 0.013556 0.864000
-0.011790 0.021607 0.888000
-0.014381 -0.039884 0.890000
0.022339 0.031728 0.865000
0.017431 -0.035368 0.887000
0.018465 0.012175 0.867000
0.007167 -0.040977 0.882000
0.018486 0.033267 0.868000
0.009218 0.005414 0.870000
0.013020 -0.037838 0.885000
-0.010316 -0.035733 0.887000
-0.019597 -0.036015 0.894000
-0.008126 0.017202 0.887000
0.024889 0.001827 0.867000
-0.001547 0.033115 0.883000
0.007831 0.034256 0.875000
-0.011059 -0.033215 0.888000
0.026550 0.031300 0.863000
0.025216 0.002894 0.866000
-0.030623 0.005495 0.883000
0.024447 0.006799 0.864000
-0.021101 0.022499 0.880000
0.023790 0.001112 0.866000
-0.013648 -0.034389 0.890000
-0.007023 0.027758 0.886000
-0.006286 0.013157 0.885000
0.020939 0.048270 0.881000
0.012413 0.005402 0.868000
-0.005929 0.024841 0.886000
-0.007743 -0.022176 0.885000
0.014049 -0.033316 0.881000
-0.017370 -0.005469 0.893000
-0.011425 0.002602 0.888000
-0.018064 0.010679 0.891000
0.006009 -0.008571 0.872000
0.013248 -0.029521 0.876000
-0.024490 -0.020653 0.898000
-0.012535 -0.012031 0.889000
0.028581 0.023758 0.860000
-0.026896 -0.000323 0.892000
-0.018798 0.011046 0.891000
-0.019641 -0.043103 0.896000
-0.002635 -0.040977 0.882000
0.007086 0.010810 0.872000
0.008182 0.032778 0.874000
0.019870 0.003251 0.866000
-0.038837 -0.012017 0.888000
0.014556 0.020406 0.868000
0.025100 0.017782 0.862000
0.006766 0.039388 0.877000
0.005316 -0.026277 0.876000
-0.004465 -0.045852 0.885000
0.012125 0.038849 0.873000
-0.022198 -0.000693 0.895000
0.010340 0.041052 0.874000
-0.005922 0.031369 0.885000
-0.005170 0.005120 0.881000
-0.017002 -0.012452 0.893000
0.003878 -0.035691 0.877000
0.010639 -0.000672 0.869000
0.008154 0.008288 0.871000
-0.003001 0.027664 0.883000
0.009588 -0.008561 0.871000
-0.004445 -0.029327 0.881000
-0.025570 -0.006601 0.897000
0.023708 0.015316 0.863000
-0.034623 -0.023715 0.902000
-0.021854 -0.029827 0.896000
-0.019229 0.002988 0.894000
0.019716 0.046500 0.875000
0.019984 0.044137 0.871000
-0.028971 0.016647 0.877000
0.018129 -0.002101 0.868000
0.026488 0.020950 0.861000
0.010700 0.036735 0.874000
-0.008453 0.001861 0.883000
-0.017002 -0.017598 0.893000
-0.011047 -0.032448 0.887000
0.006368 0.009733 0.872000
-0.009554 0.002954 0.884000
-0.015864 0.013246 0.891000
-0.006286 -0.021447 0.885000
0.006023 -0.015065 0.874000
0.018529 0.042296 0.870000
0.016989 -0.031938 0.883000
0.014607 0.037326 0.871000
-0.011425 -0.039063 0.888000
0.023678 0.043619 0.875000
0.002437 -0.009714 0.878000
0.005322 0.019535 0.877000
-0.003364 -0.042477 0.883000
0.017415 0.030409 0.868000
-0.007761 -0.047416 0.887000
-0.005915 -0.018876 0.884000
0.004610 -0.039752 0.879000
0.013248 0.050159 0.876000
-0.002987 0.009450 0.879000
0.028781 0.032834 0.866000
0.029643 0.015617 0.860000
0.013485 -0.001743 0.868000
0.014948 0.014008 0.870000
0.015068 -0.028472 0.877000
0.008551 0.018770 0.875000
-0.026957 -0.003267 0.894000
0.005298 0.010822 0.873000
0.015985 0.018977 0.868000
-0.008826 -0.012327 0.884000
0.006405 0.050577 0.877000
0.010688 0.021602 0.873000
0.004605 0.026423 0.878000
-0.002998 -0.018833 0.882000
0.002440 0.020665 0.879000
0.001351 -0.018005 0.877000
-0.024723 0.017429 0.880000
-0.002629 0.047491 0.880000
-0.021116 -0.017657 0.896000
-0.015445 -0.023713 0.888000
-0.036028 -0.022551 0.900000
0.020725 -0.007853 0.872000
-0.030970 -0.008042 0.893000
-0.023355 -0.025061 0.897000
-0.026836 0.002242 0.890000
0.014556 0.003258 0.868000
-0.026767 -0.019588 0.900000
-0.011059 0.004064 0.888000
0.017772 0.011832 0.868000
0.018822 0.013603 0.867000
0.017415 0.011832 0.868000
0.009229 0.028005 0.871000
0.023651 0.039253 0.874000
0.027551 0.027329 0.861000
0.009923 0.001474 0.869000
0.008901 -0.017583 0.874000
0.009610 0.022680 0.873000
-0.016635 -0.000691 0.893000
-0.004829 0.018985 0.885000
-0.026367 -0.022526 0.899000
-0.027047 -0.008078 0.897000
0.026164 0.029490 0.862000
-0.034917 -0.022181 0.900000
0.021036 0.038715 0.870000
-0.018608 0.043242 0.882000
-0.023852 0.008815 0.888000
-0.025627 -0.027336 0.899000
0.018550 -0.009636 0.871000
-0.022986 -0.022476 0.897000
-0.000454 -0.015117 0.877000
-0.014030 0.004445 0.891000
0.018465 0.002898 0.867000
-0.003349 -0.012981 0.879000
0.007831 -0.030208 0.875000
0.009577 0.001833 0.870000
-0.001176 -0.013312 0.877000
0.018099 -0.013782 0.884000
-0.027414 0.008057 0.885000
-0.013163 0.030537 0.882000
0.019179 0.016458 0.867000
0.014607 -0.011787 0.871000
0.007119 0.038982 0.876000
-0.039747 -0.017945 0.892000
-0.003361 -0.040614 0.882000
-0.032841 0.001863 0.884000
0.021568 -0.034466 0.892000
0.018486 0.034339 0.868000
-0.006628 0.001859 0.882000
-0.010282 -0.003231 0.884000
0.006065 -0.040160 0.880000
-0.016049 0.027601 0.881000
0.009969 0.015853 0.873000
-0.005539 0.012023 0.882000
-0.011335 0.034491 0.881000
-0.000821 -0.044345 0.884000
-0.001911 0.025483 0.883000
0.007496 -0.036816 0.878000
0.011047 -0.021156 0.873000
0.027938 0.030199 0.862000
-0.010328 -0.046738 0.888000
-0.016206 0.041580 0.870000
0.017175 -0.013626 0.874000
0.007462 -0.025137 0.874000
0.016343 0.001472 0.868000
-0.009951 -0.013464 0.887000
0.030316 0.021255 0.859000
0.031523 0.029879 0.863000
-0.001908 0.040701 0.882000
0.034639 0.020950 0.861000
-0.012169 -0.012397 0.889000
-0.002998 0.016379 0.882000
0.026936 0.006799 0.864000
-0.023303 0.000044 0.895000
-0.012128 -0.024024 0.886000
0.018150 0.036882 0.869000
-0.039379 -0.017578 0.892000
0.009282 -0.032766 0.876000
-0.011386 -0.028732 0.885000
0.012470 0.034138 0.872000
0.017675 0.050083 0.881000
-0.028651 -0.019610 0.901000
-0.016249 -0.004729 0.892000
-0.013602 0.023043 0.887000
-0.010694 -0.015306 0.888000
-0.016616 -0.039606 0.892000
0.013173 0.020118 0.871000
-0.027569 0.000777 0.890000
0.011725 0.029763 0.870000
0.012642 -0.037796 0.884000
-0.015063 -0.024416 0.887000
0.015341 -0.012518 0.872000
-0.004465 0.028819 0.885000
-0.020356 0.000044 0.895000
-0.000818 -0.036176 0.880000
-0.001906 -0.038755 0.881000
-0.008089 0.004768 0.883000
0.015306 0.041580 0.870000
0.006023 0.028821 0.874000
0.007078 -0.003900 0.871000
0.008901 0.034217 0.874000
0.012785 -0.004964 0.869000
-0.018798 0.011412 0.891000
-0.022148 0.004822 0.893000
-0.042397 -0.013084 0.886000
0.011098 0.051299 0.877000
-0.008453 0.003678 0.883000
-0.044685 -0.018596 0.888000
0.020630 0.036483 0.868000
0.004950 -0.017603 0.875000
-0.005895 -0.010472 0.881000
-0.020786 0.020009 0.882000
0.017077 0.033663 0.869000
0.018505 -0.033140 0.886000
-0.014397 -0.007290 0.891000
0.024815 0.042636 0.877000
-0.019697 0.021824 0.882000
-0.012156 -0.036139 0.888000
-0.008108 0.031733 0.885000
0.021084 -0.007494 0.872000
0.009588 0.025854 0.871000
-0.013043 0.040332 0.874000
-0.034905 0.003670 0.881000
0.015288 0.012561 0.869000
-0.013510 0.030502 0.881000
-0.001180 0.046404 0.880000
0.003145 -0.010029 0.874000
-0.024120 -0.028784 0.898000
-0.015885 0.039163 0.872000
-0.016504 0.021559 0.886000
0.019870 0.002538 0.866000
-0.005915 0.034972 0.884000
0.004967 0.038348 0.878000
-0.012142 -0.002512 0.887000
0.023461 0.035370 0.867000
0.002798 -0.024891 0.878000
0.029747 0.010343 0.863000
-0.001182 -0.042066 0.882000
-0.017440 0.029676 0.878000
-0.019597 -0.030864 0.894000
-0.034062 -0.016569 0.897000
-0.017801 0.028953 0.878000
-0.028429 -0.004739 0.894000
0.011752 0.033062 0.872000
0.021320 0.034656 0.867000
0.020179 0.022801 0.864000
0.021443 0.043829 0.872000
0.018108 0.027163 0.867000
-0.021245 0.014630 0.886000
-0.012872 0.023408 0.887000
-0.034355 -0.014322 0.895000
-0.022591 -0.038677 0.896000
-0.011437 0.007728 0.889000
0.009577 0.003266 0.870000
-0.005915 0.013142 0.884000
0.006016 -0.012533 0.873000
0.022027 0.047545 0.881000
0.016700 0.007902 0.868000
-0.021317 0.029540 0.874000
0.032867 0.015989 0.861000
0.011034 0.031626 0.872000
0.026843 0.025203 0.861000
-0.022422 0.026333 0.875000
-0.025004 0.004073 0.890000
-0.020724 -0.018742 0.895000
0.000992 -0.020216 0.879000
-0.020716 0.023559 0.879000
-0.012669 0.042801 0.873000
-0.022986 -0.009555 0.897000
0.007086 0.028037 0.872000
-0.012535 -0.033253 0.889000
0.014607 0.040911 0.871000
0.007831 0.021291 0.875000
0.008871 0.027288 0.871000
0.011354 0.024722 0.869000
-0.040209 -0.011261 0.886000
0.032475 0.023050 0.860000
0.013547 0.044547 0.872000
-0.014397 -0.012424 0.891000
-0.016231 -0.041029 0.891000
0.029494 0.007171 0.866000
0.012770 0.006473 0.868000
-0.041808 -0.017153 0.889000
-0.025839 0.014185 0.881000
-0.032991 -0.016218 0.898000
-0.020747 -0.004750 0.896000
-0.004791 0.046299 0.878000
-0.002632 -0.031866 0.881000
-0.035697 -0.024060 0.901000
-0.015131 -0.016458 0.891000
0.016681 0.027163 0.867000
0.000992 -0.024196 0.879000
0.011354 0.005408 0.869000
-0.025627 -0.013276 0.899000
-0.008089 0.035296 0.883000
0.010688 -0.014329 0.873000
-0.006628 0.004400 0.882000
0.012770 0.025051 0.868000
-0.020356 -0.025373 0.895000
-0.022986 -0.011401 0.897000
0.027583 0.011396 0.862000
-0.014030 0.012879 0.891000
-0.009586 -0.034638 0.887000
-0.006272 -0.034118 0.883000
0.022161 0.042393 0.872000
-0.001544 0.045006 0.881000
0.004229 0.014809 0.875000
-0.021485 -0.030195 0.896000
-0.037571 -0.005050 0.884000
-0.030157 0.015980 0.880000
-0.005558 0.020806 0.885000
0.007078 -0.001749 0.871000
0.013890 0.041986 0.871000
-0.002638 0.039294 0.883000
-0.005176 -0.034080 0.882000
-0.022390 0.011008 0.888000
-0.019965 -0.038223 0.894000
-0.019229 0.000412 0.894000
-0.011817 -0.047210 0.890000
0.012413 0.003973 0.868000
-0.013664 0.011412 0.891000
0.007885 -0.039480 0.881000
-0.006286 0.032826 0.885000
0.030381 0.007930 0.871000
0.005322 0.032168 0.877000
-0.014582 0.031192 0.880000
-0.029360 -0.017736 0.900000
-0.012169 0.020168 0.889000
0.025455 0.028070 0.862000
-0.042445 -0.014924 0.887000
0.001356 0.021051 0.880000
0.008200 0.043669 0.876000
-0.036483 -0.014290 0.893000
-0.023355 -0.020999 0.897000
-0.007743 -0.045488 0.885000
-0.001544 -0.023888 0.881000
-0.027166 0.017369 0.877000
-0.002987 -0.010448 0.879000
-0.008089 -0.032301 0.883000
-0.006643 -0.043253 0.884000
0.006750 -0.025166 0.875000
-0.003724 -0.037347 0.882000
-0.033881 -0.022973 0.902000
0.020296 -0.005322 0.869000
-0.023835 0.026663 0.874000
-0.000456 -0.042792 0.882000
-0.007371 -0.034157 0.884000
-0.000456 0.020712 0.881000
-0.037935 -0.001412 0.884000
0.011047 -0.019719 0.873000
-0.023751 -0.037285 0.898000
-0.030259 0.006585 0.883000
0.024063 0.027037 0.863000
-0.000454 0.015221 0.878000
0.015034 -0.024446 0.875000
-0.035579 -0.019914 0.898000
-0.020197 0.012836 0.888000
0.016362 0.036882 0.869000
-0.006650 0.031733 0.885000
-0.006265 -0.014477 0.882000
0.023380 0.006088 0.864000
0.006735 0.026991 0.873000
-0.004813 0.040701 0.882000
-0.001176 -0.011507 0.877000
-0.001538 0.010162 0.878000
-0.007371 0.034608 0.884000
-0.002272 -0.020285 0.882000
-0.012549 0.016894 0.890000
0.027519 0.019156 0.860000
0.008891 -0.015407 0.873000
-0.002626 -0.016598 0.879000
0.003178 -0.042841 0.883000
-0.012611 0.047612 0.869000
0.009261 0.019468 0.874000
-0.008443 -0.029724 0.882000
-0.019630 0.026092 0.879000
0.006750 -0.021565 0.875000
-0.009951 -0.038654 0.887000
0.014858 -0.037152 0.886000
0.005298 -0.006424 0.873000
0.009621 0.033497 0.874000
0.007119 0.036098 0.876000
-0.014747 -0.035488 0.890000
-0.018125 -0.013202 0.894000
0.006390 -0.026967 0.875000
0.014948 0.036209 0.870000
-0.018125 -0.000324 0.894000
-0.039026 -0.006505 0.884000
0.025653 0.045732 0.881000
-0.022247 -0.010662 0.897000
0.020397 0.052001 0.889000
0.017772 -0.004601 0.868000
0.025809 0.028070 0.862000
-0.018105 0.007762 0.893000
-0.009575 0.027393 0.886000
-0.006991 -0.012662 0.882000
0.008163 -0.012160 0.872000
-0.000093 0.041064 0.882000
-0.013664 0.010312 0.891000
0.012055 0.004687 0.868000
0.013203 0.047472 0.873000
0.002080 -0.040160 0.880000
0.006376 -0.014329 0.873000
-0.009951 -0.034273 0.887000
0.030563 0.031765 0.866000
0.006030 -0.021925 0.875000
0.027355 0.033547 0.866000
-0.010282 -0.003595 0.884000
-0.012507 -0.022956 0.887000
-0.005895 -0.031866 0.881000
-0.040573 -0.011625 0.886000
0.033299 0.014250 0.863000
-0.022986 -0.025430 0.897000
-0.012901 0.019802 0.889000
0.000268 0.012677 0.877000
-0.024555 0.008806 0.887000
0.014724 -0.029589 0.878000
0.011752 0.020859 0.872000
0.012599 0.052984 0.881000
-0.016545 0.042605 0.869000
0.014199 0.000400 0.868000
-0.021461 -0.033845 0.895000
-0.020037 0.022525 0.881000
-0.008108 -0.034924 0.885000
0.012499 -0.026217 0.874000
-0.036851 -0.015760 0.893000
0.007804 0.030549 0.872000
-0.045051 -0.017865 0.888000
0.009676 -0.035773 0.879000
-0.001181 -0.020625 0.881000
0.020273 0.036125 0.868000
-0.017757 -0.004739 0.894000
-0.031208 0.013068 0.879000
0.018822 0.016458 0.867000
-0.011617 0.041098 0.875000
0.000631 -0.040160 0.880000
0.022826 -0.003896 0.870000
-0.007726 -0.025760 0.883000
0.014948 0.030838 0.870000
0.019201 -0.003530 0.868000
-0.002994 0.015273 0.881000
-0.021485 -0.006963 0.896000
-0.008080 -0.008306 0.882000
-0.026987 -0.005113 0.895000
0.013127 0.022550 0.868000
0.031059 0.017387 0.860000
0.015306 0.035851 0.870000
0.027197 0.023077 0.861000
0.003149 0.011207 0.875000
0.018058 -0.030087 0.882000
0.015288 0.018284 0.869000
-0.018493 -0.002164 0.894000
-0.037656 -0.007614 0.886000
-0.023751 -0.017696 0.898000
0.016096 0.047886 0.874000
-0.002991 0.014893 0.880000
-0.020356 -0.023900 0.895000
0.001354 -0.032879 0.879000
0.001357 0.040292 0.881000
-0.014432 0.042703 0.871000
-0.036156 -0.015778 0.894000
-0.018819 0.008488 0.892000
0.032159 0.015281 0.861000
-0.033138 -0.023715 0.902000
-0.005915 0.035336 0.884000
-0.022541 0.001884 0.894000
0.014948 0.040864 0.870000
0.026771 0.043242 0.882000
-0.025737 0.003707 0.890000
-0.009200 0.030641 0.885000
0.018108 0.002541 0.867000
0.020226 0.028914 0.866000
0.001356 0.024673 0.880000
0.025986 0.043144 0.880000
0.014948 0.031554 0.870000
0.020535 0.020668 0.864000
-0.010682 -0.021130 0.887000
0.016700 0.010046 0.868000
0.023736 0.026713 0.864000
0.009980 0.040692 0.874000
-0.016188 0.042605 0.869000
0.009261 0.021986 0.874000
0.008502 -0.003538 0.870000
0.026195 0.009633 0.863000
-0.003732 0.029878 0.884000
-0.033986 -0.014322 0.895000
-0.042127 -0.016037 0.888000
0.024745 0.016008 0.862000
0.025455 0.026297 0.862000
-0.009211 -0.034964 0.886000
-0.023225 0.004082 0.892000
-0.020857 0.016799 0.885000
-0.002998 0.042153 0.882000
-0.006628 0.006578 0.882000
0.022623 0.045472 0.876000
0.027873 0.017387 0.860000
0.010651 0.027257 0.870000
0.000268 -0.011855 0.876000
0.021060 0.041986 0.871000
-0.007656 0.046500 0.875000
-0.006272 -0.015220 0.883000
0.018465 0.017171 0.867000
-0.008108 0.008421 0.885000
-0.009586 -0.018210 0.887000
-0.029764 -0.021093 0.901000
-0.007761 0.016472 0.887000
-0.021854 -0.026508 0.896000
-0.022730 0.030225 0.873000
-0.017350 -0.028592 0.892000
0.019984 0.043778 0.871000
-0.009586 -0.015289 0.887000
-0.004455 -0.017764 0.883000
-0.009586 -0.035733 0.887000
-0.028603 0.001506 0.888000
-0.008414 0.040925 0.879000
-0.024120 -0.016957 0.898000
-0.013177 0.029118 0.883000
-0.012549 0.003707 0.890000
-0.018473 -0.027522 0.893000
-0.018714 0.017202 0.887000
0.019513 0.027131 0.866000
-0.025089 0.000044 0.893000
0.016022 0.041222 0.870000
0.010700 0.046447 0.874000
-0.021485 -0.021714 0.896000
0.012441 0.009711 0.870000
-0.017459 0.027900 0.879000
-0.018105 -0.028257 0.893000
-0.018105 -0.027522 0.893000
-0.010682 0.024504 0.887000
-0.008098 -0.024333 0.884000
0.000990 0.015564 0.877000
-0.006628 0.038886 0.882000
-0.006293 0.019371 0.886000
0.030351 0.024466 0.860000
-0.004091 -0.022125 0.883000
0.000269 0.020712 0.881000
-0.028280 -0.022947 0.901000
-0.003732 0.030242 0.884000
0.005670 0.030294 0.875000
0.020179 0.023513 0.864000
0.012527 0.050520 0.876000
-0.024251 0.023479 0.876000
-0.033054 0.008012 0.880000
0.003525 0.031157 0.879000
-0.004829 0.028455 0.885000
0.020891 0.020668 0.864000
-0.043905 -0.015289 0.887000
-0.015131 -0.041395 0.891000
0.007102 -0.026936 0.874000
-0.002991 -0.016617 0.880000
-0.014416 0.043728 0.870000
0.007795 0.010798 0.871000
-0.007015 -0.020719 0.885000
0.019223 -0.005322 0.869000
-0.000818 0.043919 0.881000
-0.018535 -0.043840 0.896000
-0.005558 0.029912 0.885000
-0.007354 -0.006491 0.882000
-0.041256 -0.010155 0.885000
-0.006279 0.012414 0.884000
-0.004445 -0.030053 0.881000
-0.036968 0.001504 0.887000
0.008551 0.044340 0.875000
0.013890 0.016892 0.871000
-0.019597 -0.031232 0.894000
-0.022371 0.032022 0.873000
0.016317 -0.035328 0.886000
-0.012521 0.021973 0.888000
0.007479 0.042948 0.876000
-0.018713 0.038715 0.870000
-0.003349 -0.015513 0.879000
0.002801 0.039839 0.879000
0.001354 -0.027814 0.879000
0.019201 0.035411 0.868000
0.021627 0.029592 0.865000
-0.001906 0.045732 0.881000
0.025100 0.025232 0.862000
-0.008108 -0.042209 0.885000
-0.022223 -0.002537 0.896000
-0.006628 -0.007217 0.882000
-0.000093 0.022888 0.881000
-0.001180 -0.035451 0.880000
-0.015828 -0.021178 0.889000
-0.025911 -0.005119 0.896000
-0.007752 -0.020013 0.886000
-0.014030 -0.011691 0.891000
-0.020356 -0.007691 0.895000
0.016606 -0.031176 0.882000
-0.030568 -0.005463 0.892000
-0.016635 0.005190 0.893000
0.027292 0.032047 0.864000
-0.027135 0.021676 0.876000
-0.043856 -0.023689 0.901000
0.016700 0.013976 0.868000
-0.019423 -0.044183 0.903000
-0.025570 -0.005863 0.897000
0.014623 -0.013595 0.872000
0.019157 0.005389 0.866000
0.001718 0.027932 0.880000
-0.040526 -0.020538 0.893000
0.019961 0.039073 0.870000
-0.008481 -0.040798 0.886000
0.010340 0.039613 0.874000
-0.024093 -0.006970 0.897000
-0.006628 -0.027183 0.882000
0.006735 -0.013251 0.873000
-0.013873 0.030865 0.881000
-0.012183 0.003341 0.890000
-0.014332 -0.025511 0.887000
-0.003732 0.022238 0.884000
0.010376 -0.033165 0.877000
0.014607 0.035533 0.871000
-0.032403 0.004763 0.882000
0.024447 0.032047 0.864000
-0.018735 0.015760 0.888000
0.032121 0.025174 0.860000
-0.019597 -0.023505 0.894000
-0.016635 0.003720 0.893000
0.008871 0.026213 0.871000
-0.001544 -0.032591 0.881000
0.010688 0.034178 0.873000
0.014215 0.029371 0.869000
-0.038969 -0.016092 0.891000
-0.014397 -0.014258 0.891000
-0.005915 0.035700 0.884000
-0.033971 -0.001049 0.885000
0.011406 -0.020438 0.873000
0.014640 -0.015048 0.873000
0.012584 0.052561 0.880000
-0.031653 -0.023715 0.902000
0.009946 0.011515 0.871000
-0.003361 -0.018107 0.882000
-0.011750 0.029184 0.885000
0.001351 0.016286 0.877000
0.017415 0.008974 0.868000
0.025098 0.048233 0.887000
-0.018493 0.000044 0.894000
0.000632 0.037754 0.881000
0.015324 0.044137 0.871000
-0.022883 0.002984 0.893000
-0.023592 0.004450 0.892000
0.002080 0.028657 0.880000
0.028581 0.016325 0.860000
-0.024195 0.027022 0.874000
0.005683 0.020618 0.877000
0.020787 -0.034755 0.890000
0.017077 0.037240 0.869000
-0.008462 0.034608 0.884000
0.014001 -0.030312 0.878000
-0.013282 -0.014975 0.890000
0.004220 -0.009658 0.873000
-0.019488 0.013216 0.889000
-0.014764 0.000411 0.891000
0.004229 -0.016523 0.875000
0.009271 0.037857 0.875000
-0.008108 0.031369 0.885000
-0.026351 0.025935 0.886000
-0.007015 -0.015619 0.885000
0.004978 -0.040522 0.880000
-0.016983 -0.035568 0.892000
0.000268 0.011594 0.877000
0.005340 -0.040160 0.880000
0.012139 0.048246 0.874000
0.023407 0.032084 0.865000
0.015306 0.017231 0.870000
-0.008846 0.007337 0.886000
-0.024120 -0.016218 0.898000
0.011009 -0.006760 0.870000
0.003896 -0.041656 0.881000
-0.021854 -0.027983 0.896000
0.001716 -0.020940 0.879000
-0.031127 -0.000321 0.887000
0.011354 0.005766 0.869000
0.001350 0.014826 0.876000
0.017415 0.008617 0.868000
-0.021854 -0.015076 0.896000
0.017690 0.022446 0.864000
0.018486 -0.004244 0.868000
-0.008481 0.028123 0.886000
-0.027355 -0.005481 0.895000
0.017352 -0.031211 0.883000
0.033654 0.014250 0.863000
0.011779 0.048606 0.874000
-0.004824 0.036791 0.884000
-0.003368 0.025512 0.884000
-0.018452 -0.025655 0.892000
-0.027445 0.006608 0.886000
-0.019943 0.004822 0.893000
0.000269 -0.024223 0.880000
0.014556 0.006116 0.868000
0.006044 0.043358 0.877000
0.012427 0.009342 0.869000
-0.003368 -0.044345 0.884000
0.010712 0.049742 0.875000
0.015646 0.010058 0.869000
-0.045051 -0.019692 0.888000
-0.020701 0.002252 0.894000
0.002805 0.042782 0.880000
0.010651 0.024392 0.870000
0.000992 -0.028537 0.879000
-0.011047 0.025964 0.887000
0.024418 0.009278 0.863000
0.011432 -0.029488 0.875000
-0.024120 -0.026197 0.898000
0.026843 0.013154 0.861000
0.003513 0.016268 0.876000
0.016380 0.039789 0.870000
-0.009862 0.038030 0.879000
0.013890 0.043420 0.871000
-0.022314 0.014614 0.885000
-0.003004 0.034972 0.884000
0.008502 -0.001031 0.870000
0.024063 0.009278 0.863000
0.023708 0.013185 0.863000
-0.006643 0.036064 0.884000
-0.015864 -0.038095 0.891000
-0.017370 -0.042591 0.893000
0.006735 -0.015048 0.873000
0.012139 -0.019022 0.874000
0.020891 0.021379 0.864000
-0.007379 -0.044759 0.885000
-0.004091 0.004041 0.883000
-0.019422 0.016454 0.886000
0.019334 0.046447 0.874000
-0.001182 0.038886 0.882000
0.005316 0.027084 0.876000
-0.031847 -0.013246 0.897000
0.025514 0.032403 0.864000
0.020915 0.017488 0.865000
-0.003711 -0.014428 0.879000
-0.038364 -0.017986 0.894000
-0.030534 -0.004357 0.891000
0.005316 -0.027719 0.876000
-0.001906 -0.034041 0.881000
-0.006658 0.019371 0.886000
0.013531 0.039118 0.871000
0.017751 0.007536 0.867000
0.026843 0.018470 0.861000
0.020226 0.001825 0.866000
-0.027386 -0.005856 0.896000
-0.024915 0.026303 0.874000
0.021246 0.022090 0.864000
-0.031583 -0.018477 0.900000
-0.016616 -0.029326 0.892000
0.012829 0.037727 0.872000
0.002075 -0.029589 0.878000
0.007462 -0.028375 0.874000
0.010293 0.027615 0.870000
-0.022960 -0.036833 0.896000
-0.008866 0.021973 0.888000
0.016004 0.031875 0.869000
-0.010282 0.031334 0.884000
-0.014090 0.041316 0.872000
-0.001544 -0.026427 0.881000
0.024418 0.016382 0.863000
0.022669 0.026358 0.864000
0.018529 -0.007835 0.870000
-0.001544 -0.041293 0.881000
0.011698 0.002186 0.868000
0.004595 -0.019787 0.876000
0.002080 0.028294 0.880000
0.020915 0.016776 0.865000
0.026134 0.016698 0.861000
-0.018798 0.010679 0.891000
-0.031386 -0.025657 0.905000
0.014707 -0.028111 0.877000
-0.003361 -0.024278 0.882000
0.021447 0.050424 0.887000
0.008871 0.010439 0.871000
0.018763 0.049720 0.881000
-0.017002 -0.015760 0.893000
0.016700 0.006831 0.868000
-0.001181 -0.040205 0.881000
-0.000818 -0.031467 0.880000
0.019938 -0.004964 0.869000
0.007804 0.030191 0.872000
-0.020356 -0.015427 0.895000
-0.013648 -0.005817 0.890000
0.007831 0.021651 0.875000
-0.031004 -0.008787 0.894000
-0.020400 0.022162 0.881000
0.018129 0.029695 0.868000
-0.005533 0.041743 0.881000
-0.000093 0.013399 0.877000
-0.018064 0.011779 0.891000
-0.003711 -0.012981 0.879000
0.005334 -0.039391 0.879000
-0.014332 -0.024781 0.887000
-0.009963 0.017222 0.888000
-0.033530 0.001134 0.883000
0.030316 0.018781 0.859000
0.009577 0.026899 0.870000
0.003887 0.040201 0.879000
0.032867 0.025557 0.861000
-0.010188 0.042588 0.876000
0.026488 0.017052 0.861000
0.009229 0.011156 0.871000
-0.009586 0.006980 0.887000
0.013890 0.035175 0.871000
-0.014397 0.000411 0.891000
-0.017350 -0.034466 0.892000
0.010352 0.049742 0.875000
0.018822 0.002184 0.867000
0.019513 0.013944 0.866000
-0.017261 0.040817 0.869000
-0.021854 -0.036833 0.896000
-0.005193 0.023356 0.885000
-0.011047 -0.043765 0.887000
0.011432 0.048661 0.875000
-0.016622 0.037411 0.873000
-0.028410 0.010208 0.882000
0.006376 0.027710 0.873000
0.011110 0.052442 0.878000
0.023488 0.035768 0.868000
-0.004087 -0.025730 0.882000
-0.016244 0.038804 0.872000
-0.017400 0.033574 0.876000
-0.009951 -0.014924 0.887000
0.011047 0.034178 0.873000
-0.018861 -0.018354 0.894000
0.000271 -0.044759 0.885000
0.002785 -0.013267 0.874000
0.018699 0.048467 0.878000
-0.018493 -0.015410 0.894000
0.007111 -0.029848 0.875000
-0.033092 0.004757 0.881000
0.002789 0.011928 0.875000
0.005650 -0.004264 0.872000
-0.002626 0.009088 0.879000
-0.005551 -0.045072 0.884000
0.019581 0.037598 0.869000
-0.002269 -0.036579 0.881000
0.003156 -0.027028 0.877000
-0.028280 -0.021093 0.901000
-0.019079 0.016107 0.887000
-0.023328 0.017105 0.882000
0.006044 0.024227 0.877000
-0.015131 -0.016825 0.891000
0.008551 0.047221 0.875000
-0.016225 0.039835 0.871000
-0.028651 -0.023318 0.901000
-0.022247 -0.009555 0.897000
0.009610 0.023039 0.873000
-0.003001 0.024393 0.883000
0.014540 0.026449 0.867000
0.011752 -0.013236 0.872000
0.014215 -0.003534 0.869000
-0.011437 0.014314 0.889000
-0.002994 -0.033679 0.881000
-0.011817 0.013597 0.890000
0.022034 -0.000671 0.867000
-0.000093 0.035619 0.882000
-0.015704 0.027270 0.882000
0.011779 -0.022260 0.874000
-0.015445 -0.021520 0.888000
-0.006635 0.010946 0.883000
0.014556 0.020764 0.868000
-0.027080 0.006608 0.886000
0.009261 0.020547 0.874000
0.002429 -0.015803 0.875000
-0.018125 -0.013938 0.894000
-0.012916 -0.046477 0.890000
0.030422 0.012105 0.862000
-0.029393 -0.019981 0.901000
-0.013297 0.007012 0.891000
0.018486 -0.004959 0.868000
0.007488 -0.034609 0.877000
0.025809 0.012460 0.862000
-0.013237 0.024139 0.887000
0.024063 0.016382 0.863000
-0.006251 0.042058 0.880000
0.019157 0.001468 0.866000
-0.005539 0.011660 0.882000
-0.028764 -0.004366 0.893000
-0.000093 -0.022050 0.880000
-0.010142 0.048494 0.872000
0.000994 0.025759 0.880000
-0.011564 0.046646 0.871000
-0.003724 -0.026457 0.882000
0.016700 0.006116 0.868000
0.000992 -0.025281 0.879000
-0.001182 0.029085 0.882000
0.005683 0.040471 0.877000
0.015288 -0.003891 0.869000
-0.001181 0.046819 0.881000
-0.011437 0.013948 0.889000
-0.008481 -0.019648 0.886000
-0.021415 0.023894 0.878000
0.013173 0.031590 0.871000
-0.016542 -0.023713 0.888000
-0.002998 -0.022463 0.882000
-0.025997 -0.015866 0.899000
0.002071 0.012662 0.876000
0.029678 0.014217 0.861000
-0.007708 0.038842 0.881000
0.023708 0.008567 0.863000
0.001714 -0.024168 0.878000
-0.013541 0.028754 0.883000
-0.000455 -0.037987 0.880000
-0.025997 -0.020306 0.899000
-0.013222 0.025570 0.886000
-0.013936 0.025541 0.885000
0.029289 0.015971 0.860000
0.017156 -0.012892 0.873000
-0.022223 -0.004012 0.896000
0.024398 0.041819 0.875000
-0.027321 0.011660 0.882000
0.029712 0.011396 0.862000
-0.009597 0.018318 0.888000
0.009969 -0.016485 0.873000
0.012484 0.046035 0.873000
0.018757 0.023868 0.864000
0.010328 0.014775 0.873000
0.015236 0.022141 0.866000
-0.009575 -0.041528 0.886000
-0.028675 0.013068 0.879000
-0.012156 -0.036870 0.888000
0.017772 0.012547 0.868000
0.021246 0.022801 0.864000
-0.013587 -0.024024 0.886000
-0.005533 -0.013735 0.881000
-0.004450 -0.033354 0.882000
0.020559 0.008943 0.865000
0.026936 0.031692 0.864000
-0.023242 -0.030939 0.907000
0.020891 0.023157 0.864000
0.006044 0.023145 0.877000
-0.006635 -0.000683 0.883000
-0.021627 0.033780 0.872000
0.013890 0.017609 0.871000
-0.012169 -0.013494 0.889000
-0.017281 0.044086 0.870000
0.016022 0.041938 0.870000
0.010675 0.012963 0.872000
-0.011399 -0.023659 0.886000
-0.023355 -0.005124 0.897000
-0.030811 0.013414 0.878000
0.028227 0.016679 0.860000
0.006750 -0.024446 0.875000
-0.007752 0.010984 0.886000
0.011393 -0.014672 0.872000
-0.008491 0.014647 0.887000
0.000989 -0.012576 0.876000
-0.005558 0.015342 0.885000
0.007111 0.032815 0.875000
-0.008089 -0.027213 0.883000
-0.034335 -0.002506 0.885000
-0.019268 0.025730 0.879000
-0.017002 0.003720 0.893000
-0.025535 0.012764 0.883000
-0.033417 0.008374 0.880000
0.019783 0.047744 0.878000
0.017772 0.014690 0.868000
0.015952 -0.035693 0.886000
-0.041256 -0.010520 0.885000
-0.015131 0.010679 0.891000
-0.031821 -0.000321 0.886000
0.025959 0.034656 0.867000
-0.021727 0.026724 0.876000
0.018486 0.032553 0.868000
-0.017781 0.030003 0.877000
-0.029834 -0.004729 0.892000
-0.025143 0.014564 0.882000
0.029962 0.018781 0.859000
-0.012535 -0.009835 0.889000
-0.009918 -0.003595 0.884000
-0.016188 0.042247 0.869000
0.020226 0.028201 0.866000
-0.041256 -0.010884 0.885000
0.015034 -0.023365 0.875000
0.015068 0.049855 0.877000
-0.002998 -0.023189 0.882000
0.001718 -0.040522 0.880000
0.010328 0.015853 0.873000
-0.005551 -0.023242 0.884000
0.014065 0.052681 0.882000
0.020226 0.015013 0.866000
0.007462 -0.028735 0.874000
-0.015515 -0.003627 0.892000
-0.010270 0.033115 0.883000
0.027873 0.024466 0.860000
0.004595 -0.032045 0.876000
-0.007717 -0.006854 0.882000
-0.001900 0.010162 0.878000
-0.018080 0.034217 0.874000
-0.014944 0.031192 0.880000
-0.011604 0.042131 0.874000
-0.032396 -0.024458 0.902000
-0.010706 0.011387 0.889000
0.011047 0.040645 0.873000
-0.027228 0.015600 0.879000
0.009610 -0.015767 0.873000
0.013127 0.002544 0.868000
0.018108 0.005039 0.867000
-0.010597 0.035900 0.880000
-0.017370 0.003720 0.893000
0.021957 0.011422 0.864000
-0.006620 -0.010472 0.881000
-0.005915 -0.044345 0.884000
-0.007329 0.042372 0.879000
-0.014714 -0.028098 0.888000
-0.027878 -0.015143 0.900000
-0.000093 0.036345 0.882000
0.002445 -0.042018 0.881000
0.010663 -0.008202 0.871000
0.011698 0.000400 0.868000
-0.009951 -0.017115 0.887000
0.014199 -0.002101 0.868000
0.006758 0.018792 0.876000
-0.013700 0.045161 0.870000
0.021702 -0.002815 0.868000
0.004224 0.011914 0.874000
-0.030970 -0.007307 0.893000
-0.036801 -0.002137 0.883000
0.020915 0.018556 0.865000
0.017066 -0.036098 0.887000
0.020939 0.032834 0.866000
0.000992 -0.011172 0.879000
-0.000093 -0.017302 0.878000
-0.006991 0.004400 0.882000
0.001353 -0.036455 0.878000
-0.038021 -0.008708 0.886000
0.007462 -0.019382 0.874000
-0.031918 -0.016976 0.899000
-0.006272 0.011673 0.883000
-0.027909 -0.022206 0.901000
0.022747 0.000043 0.867000
0.026550 0.030945 0.863000
-0.016249 -0.018312 0.892000
0.009261 -0.019382 0.874000
0.012111 0.019424 0.872000
0.002437 -0.027421 0.878000
-0.001182 0.021461 0.882000
0.012097 0.031590 0.871000
0.019468 0.019957 0.864000
-0.000093 -0.013657 0.876000
-0.034723 -0.015427 0.895000
0.003513 0.015547 0.876000
0.024802 0.007155 0.864000
-0.002274 0.024757 0.883000
0.030316 0.022316 0.859000
0.025809 0.023813 0.862000
-0.007387 0.011348 0.886000
-0.017370 0.007395 0.893000
-0.007023 0.028487 0.886000
-0.012901 -0.020446 0.889000
-0.028539 0.004055 0.886000
-0.016249 -0.034099 0.892000
-0.019619 -0.001798 0.895000
0.022721 0.000756 0.866000
0.018108 0.014316 0.867000
0.029391 0.010698 0.863000
-0.019943 0.005925 0.893000
0.021108 0.044598 0.873000
-0.014015 -0.041349 0.890000
0.020273 -0.003172 0.868000
-0.002272 -0.021374 0.882000
0.029003 0.029135 0.862000
-0.001545 -0.042066 0.882000
0.014232 -0.007119 0.870000
-0.001547 0.034206 0.883000
0.006023 -0.015425 0.874000
-0.005188 -0.043981 0.884000
-0.025332 0.020955 0.876000
-0.014615 0.027996 0.882000
-0.033065 -0.019588 0.900000
-0.022617 -0.006232 0.897000
-0.012549 0.013597 0.890000
-0.008089 -0.026850 0.883000
0.020939 0.028557 0.866000
0.021802 0.042393 0.872000
0.014215 -0.005322 0.869000
-0.016249 -0.032631 0.892000
-0.022049 0.010289 0.889000
0.006427 -0.039798 0.880000
-0.026776 0.005161 0.888000
0.010651 -0.007477 0.870000
-0.015757 0.022991 0.885000
-0.023724 -0.039090 0.897000
-0.013267 -0.043132 0.889000
-0.001545 -0.042792 0.882000
0.006044 0.048412 0.877000
-0.021986 0.032703 0.872000
-0.009221 -0.017845 0.887000
0.011725 0.029047 0.870000
0.024677 0.047760 0.885000
0.005683 0.040831 0.877000
-0.011296 0.037987 0.878000
0.030316 0.022670 0.859000
0.005316 -0.029521 0.876000
0.013531 -0.011787 0.871000
-0.004818 -0.021399 0.883000
-0.008481 0.029581 0.886000
-0.041536 -0.019759 0.891000
-0.015811 0.019780 0.888000
-0.011412 -0.031352 0.887000
-0.013267 -0.035082 0.889000
0.025809 0.012105 0.862000
-0.013633 0.019802 0.889000
0.002080 0.023948 0.880000
0.017394 0.028233 0.867000
-0.003361 0.042516 0.882000
-0.004465 0.027727 0.885000
-0.013648 -0.038052 0.890000
-0.022173 0.001148 0.894000
0.023024 0.009288 0.864000
0.013953 -0.021565 0.875000
0.003878 -0.020531 0.877000
0.006023 0.028102 0.874000
-0.020747 -0.008806 0.896000
0.001348 -0.013282 0.875000
-0.022247 -0.040566 0.897000
-0.012669 0.042442 0.873000
-0.003715 0.011996 0.880000
0.021602 0.024580 0.864000
-0.003357 0.043919 0.881000
-0.000819 0.034167 0.882000
-0.001544 -0.022075 0.881000
0.005304 0.007597 0.874000
0.014556 0.007188 0.868000
0.015306 -0.007477 0.870000
0.017435 0.035094 0.869000
-0.004802 -0.011547 0.880000
-0.014757 0.046539 0.869000
0.006044 0.035417 0.877000
-0.011803 -0.015690 0.889000
0.004944 0.012274 0.874000
-0.003349 -0.011534 0.879000
-0.039658 -0.015341 0.890000
0.006405 0.036500 0.877000
0.020582 0.002538 0.866000
0.008901 -0.021180 0.874000
0.019536 0.031445 0.867000
0.004605 0.034373 0.878000
-0.018473 0.005925 0.893000
-0.012128 -0.030223 0.886000
0.007102 0.015152 0.874000
-0.025145 -0.003271 0.895000
-0.022730 0.030944 0.873000
0.002071 0.015186 0.876000
0.026488 0.025912 0.861000
0.031413 0.024820 0.860000
-0.022806 0.007736 0.890000
-0.012901 -0.036912 0.889000
0.009980 0.019468 0.874000
-0.027755 -0.007700 0.896000
0.019603 0.039789 0.870000
-0.017002 -0.006572 0.893000
0.003525 0.035136 0.879000
-0.045051 -0.018596 0.888000
0.013173 -0.012146 0.871000
-0.006991 -0.031902 0.882000
0.002437 0.018112 0.878000
0.027355 0.033191 0.866000
-0.010706 0.010289 0.889000
0.029609 0.020548 0.859000
-0.007656 0.046140 0.875000
0.003517 -0.035330 0.877000
-0.011009 -0.027972 0.884000
-0.011578 0.045264 0.872000
0.032121 0.019864 0.860000
-0.025361 0.026754 0.877000
-0.018821 0.031375 0.875000
0.008182 -0.020101 0.874000
-0.006991 -0.009395 0.882000
-0.013282 -0.006916 0.890000
-0.020724 -0.039371 0.895000
0.014791 -0.032991 0.882000
0.019536 0.030731 0.867000
-0.024190 0.009536 0.887000
0.021271 0.017132 0.865000
0.033183 0.022342 0.860000
0.015517 -0.032265 0.882000
0.009621 -0.026217 0.874000
-0.004440 0.005476 0.880000
-0.006643 0.011323 0.884000
0.024063 0.013185 0.863000
-0.006613 0.041333 0.880000
0.021983 0.016420 0.865000
0.008600 0.002217 0.880000
-0.025997 -0.015496 0.899000
-0.024013 -0.000324 0.894000
0.020203 0.018200 0.865000
0.009992 0.048661 0.875000
0.016758 0.045212 0.871000
-0.025228 0.010971 0.885000
-0.021875 0.018557 0.882000
-0.024490 -0.025828 0.898000
-0.000093 -0.022412 0.880000
0.012456 0.011873 0.871000
0.009282 0.050520 0.876000
0.011766 -0.016485 0.873000
0.005676 -0.021229 0.876000
0.004244 0.032928 0.878000
-0.030911 -0.024458 0.902000
0.013780 -0.039384 0.887000
-0.018861 0.002988 0.894000
-0.009850 0.040517 0.878000
-0.027477 -0.011796 0.899000
0.008532 0.032740 0.873000
-0.014747 -0.039517 0.890000
0.008911 0.045420 0.875000
-0.009586 -0.021130 0.887000
-0.036483 -0.013923 0.893000
-0.032694 -0.019218 0.900000
-0.018861 -0.030128 0.894000
-0.038818 -0.021714 0.896000
-0.025627 -0.015496 0.899000
-0.017757 -0.005107 0.894000
0.025158 0.031692 0.864000
0.007795 -0.007844 0.871000
-0.009918 -0.007597 0.884000
-0.029022 -0.021464 0.901000
-0.016213 0.014330 0.890000
0.010328 -0.018641 0.873000
-0.014466 0.039567 0.873000
0.009577 0.002908 0.870000
0.026316 0.034656 0.867000
-0.032252 -0.015848 0.898000
0.021627 0.004671 0.865000
0.011766 0.046394 0.873000
0.020249 0.034656 0.867000
0.007119 0.046554 0.876000
-0.000464 -0.047212 0.897000
0.015341 0.045623 0.872000
-0.025136 -0.039569 0.908000
0.012055 0.025408 0.868000
0.019135 0.019268 0.865000
0.012069 -0.002461 0.869000
-0.017757 0.002620 0.894000
0.013842 0.006473 0.868000
-0.005558 0.021899 0.885000
0.018465 0.012532 0.867000
0.015985 0.007188 0.868000
0.021295 0.002181 0.866000
-0.035671 0.002948 0.882000
0.022669 0.014978 0.864000
-0.011817 0.014696 0.890000
-0.027111 0.005155 0.887000
0.014526 -0.039063 0.888000
0.015949 0.023567 0.866000
-0.005533 -0.027877 0.881000
-0.023381 -0.040242 0.898000
-0.005895 0.040655 0.881000
-0.007362 -0.002864 0.883000
-0.026767 -0.026626 0.900000
-0.011777 -0.000686 0.887000
-0.011437 0.015412 0.889000
0.013516 -0.005686 0.870000
0.020915 0.017132 0.865000
0.010688 0.034537 0.873000
0.012427 0.022576 0.869000
0.001714 -0.019471 0.878000
0.011047 0.041005 0.873000
0.001350 0.013023 0.876000
-0.015131 -0.010958 0.891000
0.010083 -0.039206 0.883000
0.028935 0.020572 0.860000
-0.027662 -0.002896 0.893000
-0.007752 -0.019283 0.886000
-0.014397 -0.012058 0.891000
-0.009190 0.001135 0.884000
0.001356 0.027208 0.880000
0.019321 -0.036220 0.890000
0.016305 0.019646 0.866000
0.002442 0.040971 0.880000
0.019938 0.038313 0.869000
0.026134 0.019179 0.861000
-0.013904 0.027664 0.883000
0.012069 -0.002818 0.869000
-0.013664 -0.000689 0.891000
0.033891 0.021634 0.860000
-0.016085 0.025483 0.883000
-0.010706 0.012118 0.889000
0.009610 -0.014329 0.873000
0.003505 -0.009669 0.874000
-0.021093 -0.039739 0.895000
0.022161 0.042752 0.872000
0.000268 0.015204 0.877000
0.008541 -0.016144 0.874000
-0.001180 -0.030743 0.880000
0.016362 0.029729 0.869000
0.010316 -0.012518 0.872000
0.009577 0.000401 0.870000
-0.030808 -0.015126 0.899000
-0.008126 0.026694 0.887000
-0.022964 0.017468 0.882000
-0.040802 -0.017559 0.891000
-0.023724 -0.028752 0.897000
0.018486 0.033625 0.868000
0.018822 0.014316 0.867000
-0.004835 -0.047362 0.886000
0.011563 -0.039660 0.885000
-0.017737 -0.040018 0.893000
0.010281 0.002904 0.869000
0.011793 0.049021 0.875000
0.005316 -0.020147 0.876000
-0.004440 -0.010460 0.880000
0.013562 -0.016485 0.873000
0.007488 -0.035330 0.877000
-0.018840 -0.038915 0.893000
0.012441 -0.006402 0.870000
0.008434 0.003753 0.901000
0.027529 0.043291 0.883000
0.029997 0.015263 0.860000
0.003203 0.008835 0.890000
-0.005915 -0.043617 0.884000
-0.008491 0.009536 0.887000
-0.008826 0.033881 0.884000
0.001356 0.022137 0.880000
0.026164 0.029135 0.862000
-0.007312 0.044802 0.877000
-0.004096 0.028059 0.884000
-0.006975 0.041696 0.880000
-0.010293 -0.010884 0.885000
0.008200 0.042948 0.876000
-0.019608 0.026785 0.878000
0.032588 0.013185 0.863000
0.020939 0.028914 0.866000
-0.025997 -0.019936 0.899000
0.005316 0.027805 0.876000
-0.023355 -0.025430 0.897000
-0.024693 0.001880 0.892000
-0.019987 -0.007691 0.895000
-0.021342 0.028854 0.875000
-0.038662 -0.006869 0.884000
-0.000455 -0.022412 0.880000
-0.007362 0.037113 0.883000
-0.017698 0.011412 0.891000
0.027647 0.031692 0.864000
0.019513 0.012161 0.866000
0.015985 0.027909 0.868000
0.023264 0.040645 0.873000
0.000269 0.028689 0.881000
-0.018861 -0.014674 0.894000
0.030705 0.018094 0.860000
-0.022322 -0.042184 0.900000
-0.022986 -0.036136 0.897000
-0.000819 0.040701 0.882000
0.024447 0.005377 0.864000
0.033810 0.013960 0.867000
-0.009963 0.023435 0.888000
-0.009586 0.024139 0.887000
0.008191 0.022011 0.875000
0.035389 0.022039 0.862000
-0.010694 -0.018961 0.888000
-0.022886 0.021027 0.879000
0.027873 0.016325 0.860000
-0.001180 -0.037987 0.880000
0.006383 0.030979 0.874000
0.021957 0.025291 0.864000
0.020559 0.017132 0.865000
-0.021805 0.003356 0.894000
-0.015900 -0.045164 0.893000
-0.002266 0.015256 0.880000
-0.034817 -0.005804 0.888000
-0.009159 0.037029 0.881000
0.015068 -0.020531 0.877000
-0.002998 -0.025730 0.882000
-0.015080 -0.027367 0.888000
-0.018100 0.032095 0.875000
0.000995 0.031953 0.881000
-0.032396 -0.023344 0.902000
-0.018452 -0.022351 0.892000
-0.010154 0.045316 0.873000
-0.007015 0.033190 0.885000
-0.004450 -0.033717 0.882000
-0.003357 -0.028965 0.881000
0.017394 0.005039 0.867000
-0.005193 0.016799 0.885000
-0.002987 -0.013342 0.879000
0.026488 0.018824 0.861000
-0.020151 0.015724 0.886000
-0.024804 -0.004381 0.896000
-0.006999 0.037113 0.883000
0.022520 0.039522 0.872000
0.007479 0.035016 0.876000
-0.026053 0.020955 0.876000
0.014623 0.044905 0.872000
-0.003004 0.030242 0.884000
-0.033644 -0.002874 0.886000
0.015068 -0.019809 0.877000
-0.003719 -0.032591 0.881000
-0.033028 -0.007726 0.899000
-0.012901 -0.002151 0.889000
-0.000455 0.016685 0.879000
0.011341 -0.001029 0.868000
-0.027477 -0.014756 0.899000
0.009632 0.043980 0.875000
0.016700 0.015047 0.868000
0.002798 -0.021277 0.878000
-0.002272 -0.040977 0.882000
0.000269 -0.023499 0.880000
-0.015148 -0.005463 0.892000
0.010663 0.030514 0.871000
0.024063 0.024196 0.863000
-0.024887 -0.015126 0.899000
-0.010657 0.000044 0.885000
-0.022960 -0.002906 0.896000
-0.002994 -0.031140 0.881000
0.014314 -0.024446 0.875000
-0.028507 0.005507 0.885000
-0.014030 0.011779 0.891000
-0.006628 0.008030 0.882000
0.023104 0.035013 0.867000
-0.031918 -0.015866 0.899000
-0.010316 0.024504 0.887000
-0.003724 -0.026094 0.882000
-0.017943 0.020077 0.885000
-0.011059 -0.044911 0.888000
0.005316 -0.029161 0.876000
0.016022 -0.008551 0.870000
-0.021116 -0.015444 0.896000
0.007437 -0.006051 0.871000
-0.021116 -0.017288 0.896000
0.011406 0.043520 0.873000
-0.021485 -0.028720 0.896000
-0.016635 0.006660 0.893000
-0.008491 0.024869 0.887000
-0.019597 -0.029024 0.894000
-0.013326 0.047255 0.869000
-0.017350 -0.020515 0.892000
-0.010247 0.035579 0.881000
0.030351 0.025882 0.860000
-0.011697 0.033040 0.881000
-0.011059 -0.038332 0.888000
-0.001547 0.032025 0.883000
0.014556 0.005402 0.868000
-0.011283 0.038666 0.877000
0.018887 -0.007477 0.870000
-0.024326 0.002614 0.892000
0.013578 -0.020821 0.874000
-0.027325 -0.004371 0.894000
-0.004818 0.039657 0.883000
-0.022912 0.019602 0.880000
-0.023724 -0.007709 0.897000
0.005298 -0.005706 0.873000
0.008911 0.038938 0.875000
-0.012916 -0.045744 0.890000
-0.023381 -0.036546 0.898000
0.002068 0.010487 0.875000
-0.011386 -0.003599 0.885000
-0.028378 0.011647 0.881000
0.005683 0.042275 0.877000
0.016041 -0.010712 0.871000
0.008891 -0.014689 0.873000
-0.012901 0.020534 0.889000
0.012111 -0.012160 0.872000
-0.031918 -0.016606 0.899000
-0.013648 -0.017173 0.890000
-0.027538 0.001873 0.889000
0.003882 0.032205 0.878000
-0.009543 -0.026850 0.883000
0.017008 -0.032702 0.884000
-0.002638 0.038930 0.883000
-0.021053 0.024255 0.878000
-0.017740 0.033536 0.875000
-0.021221 0.016435 0.885000
-0.017737 -0.018701 0.893000
-0.008126 0.013186 0.887000
-0.021732 0.008112 0.891000
0.014948 -0.009625 0.870000
0.028969 0.014926 0.861000
0.002808 -0.042018 0.881000
0.009935 0.008279 0.870000
-0.015812 0.045414 0.868000
-0.015131 -0.038828 0.891000
-0.002994 -0.026789 0.881000
-0.041349 -0.013829 0.887000
0.017655 -0.028570 0.880000
0.021277 0.047853 0.880000
-0.020356 -0.032004 0.895000
-0.003732 0.025512 0.884000
0.005298 -0.012533 0.873000
-0.012169 -0.016421 0.889000
-0.019115 0.035215 0.872000
0.009621 0.021267 0.874000
-0.028893 -0.010293 0.897000
-0.019186 0.009222 0.892000
-0.005533 0.007658 0.881000
-0.023381 -0.040981 0.898000
-0.004096 0.035336 0.884000
-0.003736 -0.045852 0.885000
-0.023503 0.025613 0.875000
0.008551 -0.031288 0.875000
0.006758 0.023839 0.876000
-0.032804 0.002588 0.883000
0.008541 -0.016864 0.874000
-0.031570 0.011259 0.879000
0.033930 0.022722 0.861000
0.017394 0.002541 0.867000
0.012484 0.047113 0.873000
0.002429 0.010847 0.875000
-0.006293 0.025205 0.886000
-0.029202 0.006593 0.884000
0.005683 0.037944 0.877000
0.016004 0.012204 0.869000
0.011393 -0.013954 0.872000
0.008972 -0.038755 0.881000
0.011406 0.046035 0.873000
0.019201 0.036125 0.868000
0.012976 0.053044 0.882000
-0.001544 -0.029327 0.881000
-0.019488 0.012484 0.889000
0.021418 -0.006410 0.871000
-0.008117 -0.022201 0.886000
-0.010645 -0.027608 0.884000
0.029426 0.008933 0.864000
0.006016 -0.013611 0.873000
0.003882 0.028591 0.878000
0.000631 -0.040522 0.880000
0.007831 0.015889 0.875000
0.015306 -0.007119 0.870000
0.028227 0.017740 0.860000
0.001348 -0.014722 0.875000
-0.008491 0.021948 0.887000
-0.000093 -0.026034 0.880000
-0.008080 0.037797 0.882000
-0.006258 -0.009747 0.881000
0.017057 0.008260 0.868000
-0.033101 -0.021464 0.901000
-0.004455 -0.019581 0.883000
-0.025257 -0.018826 0.899000
0.011860 -0.034365 0.880000
-0.029867 -0.006204 0.893000
-0.033398 -0.018826 0.899000
0.006405 0.038666 0.877000
-0.023698 -0.002537 0.896000
-0.006286 0.014249 0.885000
0.017792 -0.005322 0.869000
-0.015445 0.019780 0.888000
-0.033856 0.002585 0.882000
0.025245 0.034656 0.867000
0.005689 0.046660 0.878000
-0.028249 -0.016995 0.900000
0.021983 0.017844 0.865000
0.004955 -0.022311 0.876000
0.010340 0.038174 0.874000
-0.041308 -0.022401 0.894000
-0.021627 0.034138 0.872000
-0.039335 -0.015725 0.891000
-0.005545 -0.025033 0.883000
0.013890 0.015816 0.871000
0.023664 0.049750 0.888000
0.015628 0.000757 0.868000
0.026519 0.029490 0.862000
-0.010633 0.033115 0.883000
-0.005507 0.047329 0.877000
0.015592 0.021429 0.866000
0.010663 -0.009636 0.871000
0.020343 0.044137 0.871000
-0.012156 -0.009093 0.888000
0.015085 0.050274 0.878000
-0.006244 0.044181 0.879000
-0.000093 0.037797 0.882000
-0.024555 0.026303 0.874000
-0.041030 -0.014941 0.888000
0.018800 0.026775 0.866000
0.008191 0.036057 0.875000
-0.008836 0.031733 0.885000
0.005316 0.016989 0.876000
-0.013267 -0.032887 0.889000
0.012858 -0.025497 0.874000
-0.015526 0.039881 0.872000
-0.018355 0.039073 0.870000
0.003525 -0.040114 0.879000
0.026673 0.003611 0.867000
0.014314 -0.018684 0.875000
-0.010706 0.006264 0.889000
-0.007362 -0.026123 0.883000
0.019223 -0.006395 0.869000
-0.020261 0.029574 0.875000
-0.029425 -0.024829 0.902000
0.006766 0.048412 0.877000
-0.008846 -0.045174 0.886000
-0.027135 0.022037 0.876000
0.021345 -0.003172 0.868000
0.032475 0.021634 0.860000
-0.027952 0.014515 0.879000
0.025899 0.032796 0.865000
-0.022516 0.004455 0.893000
-0.032878 0.000044 0.885000
-0.024490 -0.011413 0.898000
-0.019987 -0.017637 0.895000
0.006368 0.009374 0.872000
0.022933 0.050115 0.888000
0.002798 -0.037178 0.878000
0.015271 0.003615 0.868000
-0.014764 -0.012424 0.891000
-0.012128 0.037969 0.886000
0.022161 0.040958 0.872000
0.011485 -0.033602 0.879000
0.001360 -0.043204 0.883000
0.014265 0.046341 0.872000
-0.005558 0.019349 0.885000
-0.030068 -0.015496 0.899000
-0.029764 -0.020722 0.901000
-0.023825 0.009536 0.887000
0.004244 0.042323 0.878000
-0.036397 -0.001408 0.882000
0.006037 -0.034209 0.876000
-0.018493 -0.017250 0.894000
-0.008491 0.015012 0.887000
0.013500 -0.003176 0.869000
0.017431 -0.035733 0.887000
0.013516 -0.007119 0.870000
0.019870 0.016439 0.866000
0.000269 -0.026367 0.879000
-0.002274 0.020759 0.883000
0.012139 -0.022979 0.874000
-0.011386 -0.002506 0.885000
0.019738 0.046914 0.876000
-0.019965 -0.033440 0.894000
0.021836 -0.031753 0.888000
0.014573 0.008269 0.869000
-0.002266 -0.017342 0.880000
0.003865 0.010835 0.874000
0.017751 0.010034 0.867000
0.025216 0.033904 0.866000
-0.000818 -0.035089 0.880000
-0.030088 0.013053 0.878000
0.015628 -0.000672 0.868000
-0.020192 0.033780 0.872000
-0.028958 -0.014016 0.899000
0.016998 0.019980 0.865000
0.010761 -0.034326 0.879000
-0.018105 -0.018701 0.893000
-0.008126 0.017932 0.887000
-0.014381 -0.038052 0.890000
0.008901 -0.026217 0.874000
-0.008866 0.019415 0.888000
-0.018121 0.030690 0.876000
0.011793 -0.029128 0.875000
-0.013648 -0.031458 0.890000
0.007479 0.040785 0.876000
-0.027107 -0.012166 0.899000
0.010761 0.053225 0.879000
-0.004440 0.010909 0.880000
-0.009748 -0.049331 0.902000
-0.011803 -0.013494 0.889000
-0.039115 -0.009802 0.886000
-0.022986 -0.023953 0.897000
-0.017002 0.000412 0.893000
-0.021093 -0.037897 0.895000
0.013953 -0.019764 0.875000
0.013516 0.011859 0.870000
-0.001182 0.036708 0.882000
0.030457 0.010698 0.863000
-0.002269 -0.032953 0.881000
0.004938 -0.006424 0.873000
-0.004440 0.006563 0.880000
-0.023354 0.014944 0.883000
0.008911 0.037497 0.875000
-0.012101 0.029515 0.884000
0.026348 0.043506 0.880000
-0.016579 0.014696 0.890000
0.003882 0.019557 0.878000
0.012947 -0.033640 0.880000
-0.018493 -0.008419 0.894000
0.008610 0.002582 0.881000
0.009969 -0.023312 0.873000
0.005670 -0.027687 0.875000
-0.015358 0.026210 0.883000
0.001354 -0.025643 0.879000
-0.040299 -0.014210 0.888000
-0.020356 -0.036424 0.895000
-0.011072 0.017607 0.889000
0.004595 -0.031685 0.876000
0.013531 -0.011070 0.871000
-0.000456 0.042468 0.881000
0.033537 0.019156 0.860000
0.014590 -0.007119 0.870000
-0.029022 -0.022576 0.901000
-0.014764 0.012512 0.891000
0.029997 0.017033 0.860000
-0.035460 -0.015427 0.895000
-0.009211 -0.033505 0.886000
-0.014399 0.047612 0.869000
-0.024013 0.000780 0.894000
-0.019071 0.039789 0.870000
0.014931 0.019357 0.869000
-0.007007 -0.023970 0.884000
-0.017350 -0.037403 0.892000
0.007795 -0.002466 0.871000
-0.022909 0.002252 0.894000
-0.019229 -0.030496 0.894000
0.014948 0.035134 0.870000
-0.002994 0.044644 0.881000
-0.016616 -0.043645 0.892000
