0.010467 -0.031981 0.855000
-0.017701 0.007293 0.839000
-0.045009 0.016755 0.846000
-0.034387 -0.007382 0.859000
-0.005541 0.016058 0.828000
0.008805 0.010986 0.831000
0.029153 -0.036246 0.856000
0.014472 -0.021624 0.863000
-0.026606 0.020439 0.826000
0.004162 0.002877 0.861000
0.020818 -0.026181 0.861000
-0.002145 0.006555 0.833000
0.038791 -0.011867 0.851000
-0.006365 -0.005187 0.847000
-0.016417 0.000042 0.844000
0.022893 -0.005529 0.846000
-0.202530 -0.212016 6.369000
0.022460 0.015072 0.830000
-0.019820 0.006618 0.841000
0.032748 0.006197 0.831000
0.011542 0.012354 0.831000
-0.045598 0.013242 0.844000
0.028951 0.010631 0.830000
-0.022866 0.020779 0.826000
0.022541 0.005870 0.833000
0.024896 -0.037611 0.855000
0.037627 0.011355 0.833000
0.013298 -0.031314 0.856000
-0.030566 0.015451 0.832000
0.047738 -0.005157 0.842000
-0.018826 0.004205 0.843000
-0.018625 0.012399 0.834000
-0.028272 0.026186 0.825000
-0.037260 0.006989 0.844000
-0.000090 -0.030502 0.853000
0.015838 -0.015886 0.860000
0.028161 0.022778 0.837000
0.003433 -0.010527 0.856000
-0.018960 -0.001006 0.849000
0.026396 -0.033506 0.858000
0.044096 -0.013283 0.852000
0.006411 0.016116 0.831000
0.046011 -0.015441 0.855000
0.049357 -0.006226 0.846000
0.026527 0.011301 0.829000
-0.004529 0.013364 0.830000
0.032982 -0.023072 0.864000
-0.012190 0.002116 0.840000
0.023163 -0.034132 0.856000
0.005417 0.002794 0.836000
-0.030983 0.011712 0.834000
-0.013864 -0.019380 0.858000
-0.044225 -0.019572 0.851000
0.031795 -0.006196 0.842000
-0.039858 -0.015090 0.855000
-0.033994 -0.012671 0.858000
0.000260 -0.008354 0.850000
-0.002572 -0.018385 0.861000
0.028260 -0.029725 0.861000
-0.030462 -0.007020 0.858000
0.021197 -0.019116 0.862000
-0.007411 -0.004490 0.847000
0.001323 -0.012685 0.859000
0.026376 0.021692 0.835000
0.018679 0.011983 0.829000
-0.015294 -0.016574 0.859000
0.000965 -0.028814 0.855000
-0.016909 0.012055 0.834000
0.029777 0.017891 0.834000
-0.007245 0.019125 0.828000
-0.018498 -0.010930 0.860000
-0.028854 0.012711 0.832000
-0.026334 0.006602 0.839000
-0.025901 -0.009150 0.859000
0.035246 -0.010803 0.850000
-0.011013 -0.023210 0.856000
0.009752 -0.036513 0.854000
0.034968 0.002103 0.835000
0.017199 -0.000304 0.840000
-0.012610 -0.002393 0.845000
-0.001844 -0.032219 0.852000
-0.049409 0.018846 0.862000
0.037740 -0.011867 0.851000
0.029300 -0.004799 0.840000
-0.019806 0.024178 0.826000
-0.028914 -0.003121 0.854000
-0.048143 0.008050 0.846000
-0.047671 0.017534 0.850000
0.030120 0.017547 0.834000
-0.036407 -0.018470 0.865000
-0.002916 -0.010905 0.858000
0.009683 -0.008335 0.848000
0.009158 0.009629 0.832000
0.044301 0.002794 0.836000
0.008816 0.009287 0.832000
0.033835 -0.003766 0.841000
-0.003239 -0.008004 0.850000
-0.000796 -0.025354 0.857000
-0.021846 0.021459 0.826000
0.004147 -0.025383 0.858000
0.021322 0.001423 0.839000
0.025982 -0.035189 0.856000
0.040113 -0.004810 0.842000
-0.030214 -0.001009 0.851000
-0.011026 -0.022179 0.857000
-0.030528 -0.025147 0.850000
0.007714 -0.019116 0.862000
-0.003597 -0.031869 0.852000
0.002738 -0.013039 0.859000
-0.002548 -0.030151 0.853000
0.010186 0.009972 0.832000
-0.042768 0.015655 0.843000
-0.035532 0.023896 0.828000
-0.017274 -0.003815 0.852000
-0.007842 -0.023563 0.856000
0.020464 -0.027953 0.861000
-0.038991 -0.018564 1.005000
0.017506 -0.011922 0.855000
-0.033066 0.023838 0.826000
-0.022616 0.005933 0.842000
0.040494 -0.011503 0.850000
-0.006102 -0.020463 0.859000
0.039233 -0.014001 0.853000
0.019040 -0.003784 0.845000
0.015507 -0.002731 0.842000
-0.017912 -0.001705 0.849000
-0.030006 0.026898 0.826000
0.046698 -0.005157 0.842000
-0.019560 -0.012346 0.860000
0.021703 -0.011909 0.854000
0.037777 -0.005516 0.844000
-0.016747 0.020439 0.826000
0.049124 -0.004117 0.842000
0.021197 -0.025857 0.862000
0.020385 0.011301 0.829000
0.033655 -0.014017 0.854000
-0.045063 0.004922 0.847000
0.009158 0.006890 0.832000
0.017816 -0.037874 0.853000
0.016369 0.007241 0.833000
0.022616 -0.025147 0.862000
-0.039956 0.020318 0.835000
-0.027253 0.024828 0.825000
0.005899 -0.010879 0.856000
0.008287 -0.008335 0.848000
-0.046054 0.016755 0.846000
0.037163 0.020391 0.838000
0.028268 0.009948 0.830000
0.048949 0.000041 0.839000
0.034116 0.010302 0.831000
0.040515 0.001418 0.836000
-0.000441 -0.031555 0.853000
0.029056 0.005527 0.833000
-0.031665 0.002817 0.843000
0.019969 -0.035852 0.855000
0.024063 -0.022335 0.863000
-0.032228 -0.011964 0.858000
-0.029083 -0.011978 0.859000
0.006753 0.016116 0.831000
0.047110 0.002797 0.837000
0.040123 0.003134 0.835000
-0.024967 0.018444 0.828000
-0.016546 0.012384 0.833000
-0.035051 0.008695 0.841000
0.026094 0.002453 0.837000
-0.043913 0.016735 0.845000
0.019044 0.013706 0.830000
-0.031890 -0.025467 0.849000
0.034049 -0.026272 0.864000
0.032180 0.016174 0.834000
-0.045945 0.009073 0.844000
0.026043 -0.033153 0.858000
-0.008959 0.014713 0.829000
-0.012028 -0.027693 0.853000
0.018869 -0.010139 0.853000
0.020927 0.002797 0.837000
0.044252 -0.015441 0.855000
-0.006045 -0.007664 0.851000
-0.034700 -0.006314 0.858000
0.020044 0.012324 0.829000
0.017502 0.001421 0.838000
0.005906 -0.026765 0.857000
-0.044156 0.009063 0.843000
0.023884 0.017848 0.832000
0.033369 -0.001683 0.838000
0.019642 -0.000305 0.841000
-0.020574 -0.016202 0.858000
-0.036083 -0.024418 0.849000
-0.037875 -0.022698 0.850000
0.029036 -0.020914 0.863000
0.010908 -0.021954 0.862000
0.031011 -0.011140 0.849000
0.030848 -0.022361 0.864000
-0.093481 -0.125942 3.648000
-0.014502 -0.024562 0.854000
0.024249 -0.033819 0.857000
-0.023290 -0.021399 0.854000
0.012240 0.014766 0.832000
-0.037172 -0.009845 0.858000
0.035692 -0.005516 0.844000
-0.037263 -0.000659 0.852000
0.037082 -0.005864 0.844000
0.030573 0.000730 0.837000
0.033633 0.018622 0.836000
0.007112 0.017869 0.833000
0.044447 -0.013985 0.852000
-0.021457 -0.027278 0.851000
0.026427 -0.031777 0.859000
0.009820 -0.015178 0.860000
0.009180 0.003817 0.834000
0.036986 0.014458 0.834000
-0.023575 0.027271 0.827000
0.021025 -0.035148 0.855000
-0.007595 0.021537 0.829000
-0.018479 0.004205 0.843000
0.037924 0.006547 0.832000
-0.021107 -0.026227 0.851000
0.032827 0.015126 0.833000
0.017035 0.008260 0.832000
-0.031026 0.021459 0.826000
-0.002194 -0.033271 0.852000
0.014338 -0.011571 0.855000
0.039923 -0.000993 0.838000
-0.005917 0.006555 0.833000
0.033303 -0.013314 0.854000
-0.042971 0.005271 0.847000
0.040762 0.004504 0.834000
0.030918 0.000386 0.837000
-0.044156 0.013920 0.843000
-0.001453 0.015054 0.829000
0.009501 0.009629 0.832000
-0.048143 0.012925 0.846000
-0.045706 0.006309 0.846000
0.040123 0.002791 0.835000
-0.037251 0.013116 0.836000
-0.030144 -0.012685 0.859000
-0.018742 -0.022480 0.855000
0.028268 0.013364 0.830000
-0.027794 -0.023453 0.852000
-0.025509 0.002827 0.846000
0.047012 -0.014720 0.854000
0.018388 -0.005187 0.847000
-0.031205 -0.010564 0.859000
0.009997 -0.006218 0.845000
0.042493 -0.010080 0.848000
0.030915 -0.039065 0.856000
0.035988 -0.011867 0.851000
0.042893 -0.011140 0.849000
-0.006102 -0.011978 0.859000
0.029292 0.007898 0.830000
-0.006087 -0.023590 0.857000
0.046442 -0.011503 0.850000
0.013936 0.013722 0.831000
0.011302 -0.037695 0.865000
-0.018447 0.019759 0.826000
0.030317 0.009948 0.830000
-0.025430 0.012711 0.832000
0.001279 0.013364 0.830000
0.035439 -0.000648 0.838000
0.004443 -0.006930 0.847000
0.013284 0.007927 0.833000
0.027030 -0.041351 0.867000
-0.015593 -0.021801 0.856000
0.024941 0.005527 0.833000
0.020068 0.015755 0.830000
0.013284 0.007584 0.833000
0.001280 0.011670 0.831000
-0.013395 0.015736 0.829000
-0.015554 0.010351 0.835000
0.030756 -0.006889 0.842000
0.017053 -0.007655 0.850000
0.017669 -0.019493 0.863000
0.023798 0.013348 0.829000
-0.013896 -0.011638 0.860000
0.008596 -0.005169 0.844000
0.039045 0.003474 0.834000
-0.042274 0.004574 0.847000
-0.014819 -0.027310 0.852000
0.013725 -0.001685 0.839000
-0.013306 -0.002393 0.845000
0.017194 -0.013361 0.857000
-0.050120 0.005290 0.850000
0.014989 -0.008725 0.852000
0.020273 -0.037874 0.853000
-0.045435 -0.013666 0.854000
0.022433 -0.012978 0.855000
-0.040480 -0.041853 1.273000
-0.035035 0.001789 0.849000
-0.009570 -0.027693 0.853000
-0.042173 -0.017491 0.852000
0.021881 -0.026535 0.861000
0.025527 -0.002035 0.841000
0.024418 -0.021979 0.863000
-0.025751 -0.003824 0.854000
-0.024876 0.024489 0.825000
0.028581 -0.018363 0.860000
-0.009289 0.018103 0.828000
0.010357 -0.007270 0.846000
0.011577 -0.026827 0.859000
0.024255 0.019926 0.833000
0.009060 -0.030925 0.855000
-0.011999 -0.029730 0.851000
-0.024580 -0.026896 0.850000
-0.042116 -0.006667 0.858000
0.033553 0.015831 0.834000
-0.032228 -0.013024 0.858000
0.025627 0.018555 0.833000
0.036157 -0.015090 0.855000
0.015130 -0.016240 0.860000
-0.008204 -0.023238 0.857000
0.029125 0.019630 0.835000
0.021907 -0.025147 0.862000
-0.008307 0.008602 0.832000
-0.026361 -0.025176 0.851000
-0.017022 -0.020063 0.857000
0.044460 -0.002721 0.839000
0.010541 -0.023700 0.861000
-0.022499 0.021772 0.825000
0.046421 0.001075 0.837000
-0.023019 -0.017594 0.857000
-0.007271 0.009618 0.831000
0.006273 -0.024352 0.859000
-0.010993 0.021511 0.828000
-0.010002 -0.012700 0.860000
0.006091 0.004504 0.834000
0.031168 -0.021624 0.863000
0.032829 -0.032876 0.860000
-0.031594 0.015451 0.832000
-0.017767 0.020779 0.826000
0.008769 -0.022283 0.861000
-0.001162 -0.034928 0.867000
0.035869 -0.002033 0.840000
0.023570 0.006212 0.833000
0.023571 -0.015496 0.858000
-0.011675 0.016740 0.828000
-0.022392 -0.011992 0.860000
-0.030169 0.004882 0.840000
0.028919 -0.004102 0.839000
0.016409 0.004853 0.835000
-0.030713 0.009332 0.836000
-0.033828 0.027304 0.828000
-0.006116 -0.018030 0.861000
-0.046567 0.003886 0.849000
0.017669 -0.020559 0.863000
-0.016804 -0.001003 0.846000
-0.002821 0.013022 0.830000
0.005913 -0.026090 0.858000
0.006769 0.004498 0.833000
-0.018144 -0.012700 0.860000
0.015286 0.011997 0.830000
0.032748 0.010986 0.831000
0.048893 -0.005864 0.844000
0.023296 -0.007637 0.848000
-0.023669 -0.020016 0.855000
0.050231 -0.005549 0.849000
-0.045009 0.017103 0.846000
-0.036466 -0.010199 0.858000
-0.033186 0.018466 0.829000
0.007714 -0.016987 0.862000
-0.002548 -0.029800 0.853000
0.006266 -0.026796 0.858000
0.011833 -0.009426 0.852000
-0.021583 -0.018630 0.856000
0.010908 -0.019471 0.862000
-0.040467 -0.000660 0.853000
-0.039624 -0.021998 0.850000
-0.033680 -0.009150 0.859000
-0.013432 -0.005926 0.853000
0.025982 -0.014050 0.856000
0.000254 0.009276 0.831000
-0.042573 -0.017161 0.853000
0.035523 0.024242 0.840000
0.004142 -0.011245 0.857000
-0.013149 0.006915 0.835000
-0.020781 -0.025907 0.852000
-0.020486 0.019759 0.826000
0.038656 0.008955 0.833000
0.027817 0.001419 0.837000
-0.007525 -0.012700 0.860000
-0.011362 0.014730 0.830000
-0.006448 -0.021852 0.858000
-0.016466 0.015736 0.829000
0.036862 0.021451 0.839000
0.042937 -0.005510 0.843000
-0.014604 -0.012700 0.860000
0.018627 -0.014789 0.858000
-0.049071 0.013336 0.850000
0.026943 -0.005850 0.842000
0.032484 0.004498 0.833000
-0.025980 -0.000658 0.850000
0.001280 0.008592 0.831000
-0.046300 -0.014067 0.857000
-0.035789 0.015145 0.834000
0.036897 0.010314 0.832000
-0.020511 0.025229 0.827000
-0.016107 -0.002047 0.846000
-0.013395 0.015395 0.829000
0.030390 0.014766 0.832000
-0.050880 0.006697 0.851000
-0.019492 -0.018299 0.857000
0.006062 0.014389 0.830000
-0.022160 0.021772 0.825000
0.025570 -0.039676 0.854000
-0.037878 -0.010905 0.858000
0.022132 -0.033467 0.857000
-0.025042 0.005586 0.842000
-0.044313 0.006309 0.846000
-0.033327 0.000392 0.850000
0.037866 -0.007619 0.846000
0.002016 -0.009788 0.853000
-0.036984 0.024979 0.830000
0.026550 -0.024821 0.863000
-0.003989 -0.013778 0.861000
-0.035986 -0.016497 0.855000
-0.015211 0.010695 0.835000
0.046792 -0.011853 0.850000
-0.023937 -0.024154 0.852000
-0.025901 -0.013746 0.859000
-0.004273 -0.004839 0.847000
0.035655 0.015850 0.835000
-0.022894 0.019102 0.827000
-0.004339 -0.018717 0.860000
0.006403 0.014389 0.830000
0.040399 -0.009382 0.848000
0.032026 0.008581 0.830000
0.030492 -0.025561 0.864000
-0.036819 0.015488 0.834000
-0.037350 -0.016829 0.854000
0.014655 0.007241 0.833000
0.022998 -0.024466 0.863000
-0.058114 0.013250 0.972000
0.045258 -0.004112 0.841000
0.014656 -0.037172 0.853000
0.034915 0.025340 0.842000
-0.045304 0.015344 0.845000
-0.028889 0.010327 0.833000
-0.019636 0.000391 0.848000
0.012608 -0.029939 0.857000
-0.024230 -0.028295 0.850000
0.020576 -0.009415 0.851000
0.009741 -0.034013 0.853000
-0.033546 0.010389 0.838000
0.025720 -0.016574 0.859000
-0.021935 -0.018983 0.856000
0.009501 0.006547 0.832000
-0.029197 0.012369 0.832000
-0.031594 0.015793 0.832000
0.035389 -0.020180 0.862000
0.034707 0.018988 0.837000
0.010857 0.010302 0.831000
0.036560 0.023551 0.840000
-0.014250 -0.016594 0.860000
-0.032627 -0.026546 0.850000
0.034363 0.020366 0.837000
-0.030909 0.015108 0.832000
-0.040162 -0.016478 0.854000
0.036730 0.017245 0.836000
-0.016689 -0.009139 0.858000
-0.014402 0.017080 0.828000
0.020752 0.009948 0.830000
-0.028730 -0.008443 0.859000
0.008131 0.009629 0.832000
-0.007162 -0.019403 0.859000
0.025658 0.020637 0.834000
0.006997 -0.022283 0.861000
0.040097 -0.010441 0.849000
0.013251 -0.009437 0.853000
-0.040148 0.012473 0.839000
-0.039108 -0.015775 0.854000
0.012682 -0.023018 0.862000
0.047511 0.002456 0.838000
-0.009368 0.005884 0.835000
0.019310 -0.013714 0.857000
0.014501 -0.004822 0.844000
-0.008949 0.019807 0.828000
0.013267 -0.034052 0.854000
-0.022965 -0.005588 0.855000
-0.025989 0.018103 0.828000
-0.043882 -0.006667 0.858000
0.031767 -0.018717 0.860000
-0.044381 -0.001012 0.854000
0.011972 -0.022309 0.862000
-0.020317 0.013412 0.833000
-0.037172 -0.006667 0.858000
-0.010987 -0.006988 0.854000
0.023310 0.003826 0.836000
-0.025102 0.004210 0.844000
-0.038666 -0.019595 0.852000
0.026469 -0.011839 0.849000
-0.040590 0.010426 0.841000
0.028415 -0.037611 0.855000
0.034855 -0.009742 0.849000
0.045732 0.003486 0.837000
0.029160 0.021030 0.836000
-0.031540 -0.026166 0.849000
-0.010260 -0.029063 0.852000
-0.019094 -0.005588 0.855000
-0.031366 0.025538 0.826000
0.005920 -0.013746 0.859000
0.007112 0.005527 0.833000
-0.018128 0.018081 0.827000
0.008405 -0.024381 0.860000
0.024716 -0.027598 0.861000
0.022039 0.000041 0.840000
-0.050238 0.003198 0.852000
0.019703 0.013348 0.829000
-0.047671 0.003191 0.850000
0.019310 -0.014067 0.857000
0.005391 0.008260 0.832000
0.038656 0.008269 0.833000
-0.022912 -0.003820 0.853000
-0.045382 -0.015405 0.853000
0.033926 -0.012231 0.852000
-0.009013 0.006563 0.834000
-0.029016 -0.006307 0.857000
-0.024059 0.004558 0.844000
0.038485 -0.012933 0.852000
0.027776 -0.015125 0.857000
-0.014197 0.006923 0.836000
0.024277 -0.032799 0.858000
0.029153 -0.015107 0.856000
-0.033987 0.001440 0.849000
0.006076 0.017848 0.832000
-0.004877 0.008934 0.831000
0.002014 -0.034323 0.852000
-0.026552 0.008977 0.835000
0.026304 -0.037611 0.855000
0.003781 -0.029869 0.855000
0.020141 0.006212 0.833000
0.002033 -0.013408 0.860000
-0.041325 -0.024069 0.849000
-0.017112 0.001431 0.844000
-0.017448 0.024548 0.827000
-0.006920 0.013364 0.830000
0.035227 0.003812 0.833000
-0.039858 -0.014738 0.855000
-0.010212 -0.005542 0.848000
-0.029437 -0.011271 0.859000
-0.043771 -0.023370 0.849000
0.004026 0.005870 0.833000
-0.041974 0.010772 0.841000
-0.017335 0.008319 0.838000
-0.035191 0.025600 0.828000
-0.050122 0.013078 0.856000
-0.003850 0.009276 0.831000
-0.013149 0.007258 0.835000
-0.002554 -0.009107 0.855000
-0.011339 -0.025617 0.854000
0.042937 -0.005857 0.843000
0.022198 0.006555 0.833000
-0.013654 -0.002045 0.845000
0.047856 0.000041 0.838000
0.013970 -0.035107 0.854000
0.004162 -0.015550 0.861000
-0.020221 -0.008433 0.858000
0.007670 -0.012303 0.857000
-0.019584 0.015090 0.831000
0.022354 -0.010127 0.852000
-0.027436 0.004887 0.841000
-0.004518 0.016058 0.828000
-0.033586 0.009020 0.839000
0.039352 -0.009382 0.848000
0.021170 0.006212 0.833000
0.035396 0.019333 0.837000
0.024601 -0.014772 0.857000
0.030156 0.019287 0.835000
0.005391 0.006890 0.832000
0.023245 -0.016574 0.859000
0.012608 -0.029587 0.857000
-0.041422 0.001093 0.851000
-0.036213 0.022192 0.828000
0.030422 -0.020535 0.862000
-0.027881 0.002473 0.844000
-0.044503 0.012185 0.843000
-0.019289 0.013069 0.833000
-0.015065 0.022165 0.827000
0.027711 -0.038315 0.855000
-0.021807 -0.026227 0.851000
-0.009532 0.005126 0.882000
0.035312 0.016194 0.835000
-0.038232 -0.005255 0.858000
0.008032 -0.027149 0.858000
0.026344 0.019607 0.834000
-0.016374 -0.013408 0.860000
-0.021705 0.001785 0.847000
-0.023319 0.016097 0.830000
0.001326 -0.018739 0.861000
0.033714 0.022460 0.838000
0.020745 -0.015143 0.858000
-0.026224 -0.007727 0.858000
-0.021871 0.007302 0.840000
-0.020094 0.009009 0.838000
-0.048549 0.007363 0.847000
0.011875 -0.010867 0.855000
0.020487 -0.024437 0.862000
-0.032705 0.002817 0.843000
-0.035448 -0.010210 0.859000
-0.030640 0.010682 0.834000
0.006295 -0.017697 0.862000
0.019090 -0.021269 0.863000
-0.027142 0.012026 0.832000
-0.037702 -0.017181 0.854000
0.028302 0.014406 0.831000
0.010198 0.016841 0.833000
0.001319 -0.026734 0.856000
-0.035233 0.019831 0.829000
0.020321 -0.035852 0.855000
-0.009979 -0.019733 0.858000
-0.038938 -0.008786 0.858000
-0.020214 0.004899 0.843000
0.005170 -0.034674 0.852000
0.016652 0.011314 0.830000
-0.042723 -0.023719 0.849000
-0.011858 0.000734 0.841000
0.043993 -0.012203 0.850000
0.012255 0.005527 0.833000
-0.008277 0.014371 0.829000
0.002038 -0.016277 0.862000
-0.021255 0.004552 0.843000
0.026250 -0.004464 0.842000
-0.017790 -0.013054 0.860000
-0.020166 0.006272 0.841000
0.013610 0.015451 0.832000
-0.025690 -0.024154 0.852000
0.014389 -0.013730 0.858000
-0.032435 0.001433 0.845000
0.037808 0.000041 0.837000
-0.031558 -0.011271 0.859000
0.000596 0.011670 0.831000
0.010541 -0.016613 0.861000
0.010092 -0.034013 0.853000
-0.012655 -0.004844 0.848000
0.018188 -0.035810 0.854000
0.005049 0.008260 0.832000
0.032513 -0.030433 0.861000
-0.017416 -0.016221 0.859000
0.026457 -0.018009 0.860000
-0.009547 -0.030430 0.851000
-0.034027 -0.024447 0.850000
-0.026574 0.023130 0.825000
0.011569 0.006212 0.833000
-0.043681 -0.024763 0.861000
-0.044121 -0.023370 0.849000
0.026933 0.006882 0.831000
0.008414 -0.022637 0.861000
0.035010 0.018622 0.836000
0.017762 0.006563 0.834000
-0.006912 0.014713 0.829000
0.031951 -0.001337 0.837000
0.032991 -0.007619 0.846000
-0.027142 0.013054 0.832000
0.012373 -0.002728 0.841000
-0.028079 -0.026546 0.850000
-0.043075 -0.003129 0.856000
-0.004676 -0.033467 0.857000
0.022055 -0.037919 0.854000
-0.031615 -0.022725 0.851000
-0.020826 0.022479 0.826000
0.031187 0.018599 0.835000
-0.013158 -0.018674 0.858000
-0.028576 0.001779 0.844000
-0.015083 0.023555 0.828000
-0.011718 -0.008061 0.856000
-0.029882 0.014081 0.832000
-0.048606 0.005626 0.848000
0.027071 -0.035230 0.857000
0.025600 -0.036556 0.855000
-0.000088 0.012339 0.830000
0.020297 -0.037216 0.854000
-0.024520 0.009676 0.836000
0.029195 -0.000992 0.837000
-0.022111 0.011052 0.836000
0.001326 -0.019448 0.861000
-0.028696 -0.007020 0.858000
-0.031522 -0.006667 0.858000
0.002016 -0.031555 0.853000
0.019922 -0.010841 0.853000
0.019432 0.007232 0.832000
-0.028986 0.027238 0.826000
-0.015703 0.000042 0.843000
0.025504 0.010618 0.829000
0.032759 -0.010092 0.849000
-0.018983 -0.002057 0.850000
0.002987 0.017463 0.830000
-0.036338 -0.002773 0.855000
-0.000799 -0.013054 0.860000
-0.030109 -0.007020 0.858000
-0.039200 -0.012993 0.856000
0.030915 -0.038008 0.856000
0.028540 -0.002028 0.838000
-0.007137 -0.024620 0.856000
0.026933 0.007566 0.831000
0.040316 -0.001685 0.839000
0.028061 0.018577 0.834000
0.019044 0.015072 0.830000
-0.013460 0.012041 0.833000
0.023812 -0.037567 0.854000
-0.020852 0.026250 0.827000
0.021327 -0.011192 0.853000
-0.033637 -0.025467 0.849000
-0.028663 -0.015830 0.857000
-0.032619 -0.010564 0.859000
-0.016546 0.012726 0.833000
0.011944 -0.024735 0.860000
-0.029163 -0.024476 0.851000
-0.034336 -0.025816 0.849000
-0.032666 -0.000308 0.851000
0.027327 -0.038622 0.854000
-0.036466 -0.005608 0.858000
-0.015517 0.012384 0.833000
-0.004649 -0.031167 0.852000
-0.025548 -0.013392 0.859000
-0.049008 -0.001013 0.855000
0.037419 0.014493 0.836000
0.029540 0.001075 0.837000
-0.022111 0.010708 0.836000
-0.037172 -0.006314 0.858000
0.018583 -0.012993 0.856000
0.035439 0.020736 0.838000
-0.004698 -0.015904 0.861000
-0.037350 -0.017532 0.854000
0.012313 -0.023346 0.861000
0.022812 -0.002040 0.843000
0.011875 -0.033037 0.855000
-0.033058 -0.028795 0.910000
0.007274 -0.034674 0.852000
-0.035676 -0.004185 0.856000
-0.000088 0.007908 0.831000
-0.011745 -0.019380 0.858000
0.025001 0.022380 0.835000
-0.038180 -0.023370 0.849000
0.025907 0.015090 0.831000
-0.006714 -0.004839 0.847000
-0.021923 0.005586 0.842000
-0.037702 -0.002067 0.854000
-0.045544 0.011491 0.843000
-0.049711 0.014118 0.855000
0.013267 -0.037216 0.854000
-0.002135 0.017101 0.829000
0.041942 -0.000303 0.837000
0.018366 -0.004485 0.846000
0.006761 0.006547 0.832000
0.024983 -0.015496 0.858000
-0.033446 0.022165 0.827000
0.032196 -0.028695 0.862000
-0.003622 -0.011258 0.858000
-0.021558 -0.005588 0.855000
0.024628 0.020293 0.834000
-0.013476 0.010682 0.834000
0.026581 -0.022361 0.864000
0.013619 -0.010503 0.854000
0.006083 0.005184 0.833000
-0.024930 -0.027946 0.850000
0.028336 0.016478 0.832000
0.018018 -0.004485 0.846000
0.010655 -0.003770 0.842000
0.009134 -0.021599 0.862000
0.001316 -0.030889 0.854000
0.009147 0.011328 0.831000
0.021977 -0.009065 0.851000
0.031989 -0.002373 0.838000
-0.009592 -0.024591 0.855000
-0.029882 0.013396 0.832000
-0.038575 0.001441 0.850000
-0.009208 -0.029414 0.852000
-0.037758 0.018533 0.832000
0.021627 -0.029507 0.865000
0.004133 -0.029869 0.855000
-0.023857 0.022451 0.825000
-0.013448 -0.025617 0.854000
-0.024580 -0.001008 0.850000
-0.026946 0.026898 0.826000
-0.035276 0.018488 0.830000
0.000595 0.015054 0.829000
0.021750 0.013007 0.829000
-0.041422 0.001443 0.851000
0.036818 0.020046 0.838000
0.000259 -0.005542 0.848000
-0.035159 -0.020998 0.852000
-0.037790 -0.003833 0.856000
-0.015936 0.007276 0.837000
0.030301 0.025940 0.839000
0.016782 -0.011206 0.854000
-0.027188 -0.018609 0.855000
-0.037088 0.003183 0.848000
-0.036604 -0.001362 0.853000
-0.009642 0.014713 0.829000
0.019774 0.007232 0.832000
0.017314 -0.021979 0.863000
0.011861 -0.010151 0.854000
-0.002479 0.020196 0.830000
-0.038180 -0.025117 0.849000
-0.034417 -0.022374 0.851000
-0.016446 0.017421 0.828000
-0.040467 -0.001011 0.853000
0.004521 -0.016277 0.862000
-0.016709 -0.009857 0.859000
-0.000430 0.011328 0.831000
-0.016446 0.017080 0.828000
-0.031026 0.025878 0.826000
0.026559 0.009265 0.830000
-0.020598 -0.010210 0.859000
0.040256 -0.007262 0.845000
0.006956 -0.029904 0.856000
-0.001798 0.009618 0.831000
-0.035018 0.016478 0.832000
0.030134 -0.008295 0.844000
0.023353 -0.021269 0.863000
0.031262 0.000730 0.837000
0.021197 -0.025147 0.862000
0.023218 -0.015143 0.858000
-0.030677 0.010008 0.835000
0.043268 0.004858 0.836000
-0.041871 -0.016459 0.853000
-0.002824 0.008250 0.831000
-0.028343 -0.006667 0.858000
-0.017091 0.002123 0.843000
-0.015312 -0.012700 0.860000
-0.037920 -0.021674 0.851000
-0.026767 0.014748 0.831000
0.016060 -0.036821 0.853000
0.008708 -0.031277 0.855000
-0.038146 0.017526 0.833000
-0.019950 0.013739 0.832000
0.036686 0.001760 0.835000
-0.030151 0.017805 0.830000
-0.039624 -0.021299 0.850000
0.001322 -0.024324 0.858000
0.002392 -0.017697 0.862000
0.034500 0.012711 0.832000
-0.004319 -0.009118 0.856000
0.002035 -0.015195 0.861000
-0.022977 0.016438 0.830000
-0.036862 -0.007736 0.859000
-0.017790 -0.011284 0.860000
0.013806 -0.004822 0.844000
-0.012084 -0.008423 0.857000
-0.025735 0.005586 0.842000
-0.039228 -0.023021 0.849000
-0.044329 -0.015405 0.853000
0.005495 -0.008335 0.848000
-0.028429 -0.025497 0.850000
0.017858 -0.034092 0.855000
0.024544 -0.036908 0.855000
0.011213 0.015793 0.832000
0.005586 -0.020535 0.862000
0.028954 0.027008 0.840000
-0.000444 -0.022938 0.859000
-0.030636 -0.002064 0.853000
0.011926 0.004504 0.834000
-0.011661 0.019102 0.827000
-0.037132 -0.024768 0.849000
-0.015666 -0.012700 0.860000
-0.031026 0.026898 0.826000
0.008805 0.012012 0.831000
0.005043 0.017826 0.831000
-0.000771 0.012681 0.830000
0.018360 0.011314 0.830000
-0.014519 -0.006644 0.855000
-0.021432 -0.028645 0.850000
-0.002217 -0.016967 0.861000
-0.044121 -0.021623 0.849000
-0.029403 -0.014083 0.858000
0.046131 -0.001683 0.838000
-0.026020 0.017783 0.829000
0.009433 -0.028528 0.857000
0.005727 0.016800 0.831000
-0.024060 0.014423 0.832000
0.031340 -0.016555 0.858000
-0.039345 0.006989 0.844000
0.034800 0.007908 0.831000
0.034438 -0.015460 0.856000
-0.034850 0.025259 0.828000
0.015183 -0.020914 0.863000
0.015165 -0.018406 0.862000
-0.003925 -0.005187 0.847000
-0.021506 0.019419 0.826000
0.024634 -0.006922 0.846000
0.012925 0.014766 0.832000
0.006642 -0.016259 0.861000
0.043956 0.001762 0.836000
-0.037746 -0.015441 0.855000
-0.028343 -0.014789 0.858000
-0.037371 0.025351 0.831000
0.023653 -0.028307 0.861000
-0.001863 -0.016259 0.861000
0.027071 -0.034525 0.857000
0.013298 -0.032018 0.856000
0.001659 -0.009054 0.850000
-0.044925 0.002144 0.851000
0.022433 0.013689 0.829000
0.007688 -0.024706 0.859000
-0.005035 -0.022205 0.858000
-0.039269 0.015506 0.835000
-0.028696 -0.014083 0.858000
-0.025811 -0.017926 0.856000
0.038179 -0.013299 0.853000
0.017356 0.008934 0.831000
0.000618 -0.016632 0.862000
0.013376 -0.024409 0.861000
0.018515 0.003486 0.837000
-0.035175 -0.042193 1.252000
-0.049653 0.008069 0.848000
-0.008608 0.018784 0.828000
0.013643 0.005877 0.834000
-0.030249 -0.022751 0.852000
-0.012126 -0.011284 0.860000
-0.021715 0.012399 0.834000
-0.041822 -0.017842 0.852000
0.020250 -0.010127 0.852000
0.016821 -0.012993 0.856000
-0.000445 -0.019802 0.861000
-0.026608 -0.013392 0.859000
0.036906 -0.002033 0.840000
0.037083 -0.012933 0.852000
-0.029478 -0.027246 0.850000
0.038836 -0.012933 0.852000
-0.049304 0.011560 0.848000
-0.023641 -0.021750 0.854000
0.020649 -0.036161 0.854000
-0.022992 -0.018630 0.856000
-0.042823 -0.004902 0.858000
0.036646 -0.010453 0.850000
0.040123 0.002447 0.835000
-0.015666 -0.011284 0.860000
-0.037305 0.005606 0.845000
0.010467 -0.011219 0.855000
0.022287 -0.024466 0.863000
0.028767 -0.038315 0.855000
-0.014725 0.022165 0.827000
0.042293 -0.012917 0.851000
-0.037667 0.022929 0.830000
-0.029630 0.023810 0.825000
-0.039755 0.013148 0.838000
0.045688 -0.010790 0.849000
-0.003281 -0.016259 0.861000
-0.028112 -0.023775 0.851000
-0.019798 -0.021776 0.855000
-0.031375 -0.002770 0.854000
0.032009 -0.036994 0.857000
-0.023459 0.011726 0.835000
-0.032473 0.009343 0.837000
0.004166 -0.019116 0.862000
-0.008277 0.021537 0.829000
-0.008940 -0.018363 0.860000
0.016953 -0.003784 0.845000
-0.036519 0.000743 0.851000
-0.017314 0.008998 0.837000
0.010443 -0.036470 0.853000
-0.033287 -0.006667 0.858000
0.000595 0.015736 0.829000
0.028370 0.016841 0.833000
-0.001509 -0.019448 0.861000
0.047142 -0.011153 0.850000
-0.021858 -0.003469 0.853000
-0.039457 0.011782 0.839000
-0.042673 0.003881 0.848000
0.005579 -0.020865 0.861000
0.009926 0.000041 0.839000
-0.019206 -0.010576 0.860000
-0.011389 0.010314 0.832000
-0.031670 0.012055 0.834000
0.025223 0.007566 0.831000
-0.046326 0.001793 0.851000
0.030301 0.025595 0.839000
-0.039786 0.005265 0.846000
-0.038604 0.007675 0.843000
0.029160 0.002106 0.836000
0.026471 0.026599 0.838000
-0.036999 -0.017532 0.854000
0.026624 -0.038270 0.854000
-0.039578 -0.023719 0.849000
-0.043926 0.001094 0.852000
0.027276 0.015090 0.831000
-0.010987 -0.026320 0.854000
-0.015630 -0.017968 0.858000
-0.025895 0.024489 0.825000
0.017444 -0.009426 0.852000
0.026063 0.003482 0.836000
0.003679 0.007575 0.832000
0.032437 -0.034252 0.859000
0.028644 0.014406 0.831000
0.023826 0.008923 0.830000
-0.038238 0.015163 0.835000
-0.005376 -0.024620 0.856000
-0.036690 -0.002773 0.855000
-0.032115 -0.004181 0.855000
-0.044536 -0.003132 0.857000
-0.040115 -0.017161 0.853000
0.015520 -0.018761 0.862000
-0.012408 -0.023535 0.855000
-0.040419 -0.019245 0.852000
-0.009035 0.005203 0.836000
-0.034067 -0.021674 0.851000
-0.032277 -0.024097 0.850000
-0.018304 -0.002410 0.851000
-0.033915 -0.004538 0.856000
-0.036508 -0.008443 0.859000
0.023190 -0.014772 0.857000
0.026628 -0.006204 0.843000
0.035481 0.022142 0.839000
-0.019514 -0.008433 0.858000
-0.000088 0.015395 0.829000
-0.044277 -0.017842 0.852000
0.033260 -0.030114 0.862000
-0.048778 0.003194 0.851000
0.021197 -0.024792 0.862000
-0.014725 0.019102 0.827000
-0.046293 0.009768 0.844000
-0.006116 -0.016613 0.861000
-0.044225 -0.018872 0.851000
0.022758 -0.037216 0.854000
0.048258 0.000041 0.839000
-0.036862 -0.008089 0.859000
0.048662 -0.002033 0.840000
0.021352 -0.036513 0.854000
-0.023431 0.012742 0.834000
0.014019 -0.029587 0.857000
-0.012446 0.008623 0.834000
0.021152 -0.004485 0.846000
0.022118 0.009606 0.830000
0.033674 0.019677 0.837000
0.045179 -0.009011 0.846000
-0.022693 -0.008433 0.858000
0.009081 -0.003132 0.857000
-0.022885 -0.024154 0.852000
-0.013896 -0.015886 0.860000
0.028540 -0.002718 0.838000
-0.034377 -0.023747 0.850000
-0.009653 0.014047 0.830000
0.024510 0.015072 0.830000
-0.014217 -0.018321 0.858000
-0.013786 0.013054 0.832000
-0.032934 -0.013024 0.858000
0.029335 -0.006189 0.841000
-0.013142 -0.021474 0.857000
0.011861 -0.010503 0.854000
0.026186 0.012665 0.829000
0.007274 -0.035025 0.852000
-0.025246 0.020779 0.826000
-0.015027 -0.001000 0.844000
0.008473 0.007232 0.832000
-0.033326 -0.010564 0.859000
0.026998 0.005527 0.833000
-0.015356 0.000042 0.843000
0.011223 -0.014453 0.859000
-0.018809 0.019102 0.827000
0.026273 -0.038270 0.854000
0.027263 -0.012933 0.852000
-0.039367 0.000393 0.852000
0.013345 -0.014807 0.859000
0.025181 -0.001343 0.841000
0.023461 0.020429 0.854000
0.006573 -0.034674 0.852000
0.021745 -0.001691 0.842000
-0.046293 0.013937 0.844000
-0.014402 0.017421 0.828000
-0.000088 0.015054 0.829000
-0.032627 -0.024797 0.850000
-0.021218 0.017421 0.828000
0.031636 -0.009371 0.847000
0.030537 0.020342 0.836000
-0.015703 0.000389 0.843000
-0.009874 -0.005898 0.849000
0.019686 -0.015143 0.858000
-0.036996 0.012113 0.838000
-0.004976 -0.006590 0.848000
-0.041135 0.016942 0.838000
0.032626 -0.022716 0.864000
-0.024088 0.003520 0.845000
0.022994 0.002797 0.837000
-0.044503 0.009410 0.843000
-0.034053 0.006280 0.842000
0.023571 0.020877 0.858000
0.033392 0.009265 0.830000
0.026559 0.013706 0.830000
-0.026255 -0.009503 0.859000
0.036774 0.000041 0.837000
-0.006967 0.006194 0.879000
0.029610 -0.003757 0.839000
0.024821 0.011642 0.829000
-0.021243 0.017101 0.829000
0.010198 -0.018406 0.862000
0.014656 -0.009437 0.853000
-0.023403 0.013412 0.833000
-0.043513 0.015674 0.844000
0.030210 -0.039769 0.856000
-0.035660 0.017826 0.831000
0.007343 -0.023319 0.860000
-0.001111 0.016077 0.829000
0.026780 -0.031070 0.859000
-0.017294 -0.025587 0.853000
0.031656 -0.015830 0.857000
-0.005735 -0.022885 0.857000
0.009158 0.016820 0.832000
-0.012342 0.019783 0.827000
0.029363 0.015108 0.832000
0.010198 -0.020535 0.862000
-0.025896 0.008987 0.836000
-0.033796 -0.002064 0.853000
0.014831 -0.004122 0.843000
-0.021653 0.002824 0.845000
-0.019184 -0.015160 0.859000
0.006932 -0.035417 0.853000
0.041204 0.001418 0.836000
0.011889 -0.030257 0.856000
0.049999 0.004628 0.857000
-0.004187 0.020538 0.830000
-0.046326 0.019656 0.851000
0.003453 -0.020157 0.861000
-0.019821 -0.020392 0.856000
-0.040722 0.001443 0.851000
0.027776 -0.015478 0.857000
0.005540 -0.030573 0.855000
0.038451 0.001074 0.836000
-0.014051 -0.004495 0.848000
0.025129 -0.024466 0.863000
-0.011007 0.015736 0.829000
0.035261 -0.003770 0.842000
-0.028646 0.021119 0.826000
0.029070 -0.023072 0.864000
-0.028034 0.018784 0.828000
0.020039 -0.015143 0.858000
0.019445 -0.019493 0.863000
0.000263 -0.021195 0.860000
-0.019423 -0.023508 0.854000
-0.003258 -0.009107 0.855000
-0.026234 0.026186 0.825000
-0.036168 0.000042 0.851000
0.003095 -0.021903 0.860000
0.009191 0.003134 0.835000
0.025455 -0.026566 0.862000
0.033693 -0.025561 0.864000
-0.023965 -0.003118 0.853000
0.015703 0.005533 0.834000
0.025873 -0.002728 0.841000
-0.000439 -0.007995 0.849000
0.002304 0.015414 0.830000
-0.017624 -0.027310 0.852000
-0.022730 0.028519 0.887000
-0.018111 0.004893 0.842000
-0.019821 -0.007004 0.856000
0.047156 -0.006558 0.844000
-0.005547 0.014371 0.829000
-0.004529 0.011314 0.830000
-0.024566 0.020099 0.826000
-0.023808 -0.011992 0.860000
-0.023263 -0.003820 0.853000
-0.036562 -0.000659 0.852000
-0.019014 0.010364 0.836000
-0.033366 -0.022374 0.851000
-0.049071 0.004590 0.850000
0.018431 -0.007296 0.849000
0.016893 -0.002038 0.842000
0.012598 0.007584 0.833000
-0.002479 0.010631 0.830000
-0.011206 -0.002043 0.844000
0.015183 -0.021269 0.863000
-0.022186 0.025198 0.826000
0.019941 0.001768 0.839000
-0.005761 -0.016613 0.861000
-0.007271 0.008934 0.831000
0.030463 0.017547 0.834000
-0.003860 0.006212 0.833000
0.011184 -0.011584 0.856000
0.010247 0.000730 0.837000
-0.030039 -0.004890 0.856000
0.017465 -0.010139 0.853000
-0.047082 0.020030 0.852000
-0.040879 0.004922 0.847000
0.030354 0.013722 0.831000
0.022223 -0.006233 0.847000
-0.020598 -0.015867 0.859000
-0.033586 0.009365 0.839000
-0.022839 0.023470 0.825000
0.000618 -0.015195 0.861000
0.014656 -0.036119 0.853000
-0.027793 0.015090 0.831000
-0.006825 -0.017322 0.861000
0.007788 0.017505 0.832000
-0.036819 0.014801 0.834000
0.005225 -0.020511 0.861000
0.008060 -0.021574 0.861000
0.020464 -0.026890 0.861000
-0.028443 0.016780 0.830000
-0.027749 0.005227 0.840000
0.039970 -0.001685 0.839000
0.006193 -0.006240 0.848000
0.010579 0.001762 0.836000
-0.043809 0.008369 0.843000
-0.046030 -0.016790 0.852000
-0.010717 0.007584 0.833000
-0.005547 0.014030 0.829000
-0.037569 -0.020973 0.851000
-0.016020 -0.014116 0.860000
0.036994 -0.004117 0.842000
0.037821 -0.006218 0.845000
0.026527 0.009936 0.829000
-0.021846 0.024178 0.826000
0.032681 -0.008325 0.847000
-0.010019 0.008602 0.832000
-0.045304 0.006650 0.845000
-0.044132 -0.003129 0.856000
0.003803 -0.013762 0.860000
0.031380 0.012012 0.831000
-0.033366 -0.000308 0.851000
-0.002824 0.008934 0.831000
0.032827 0.004841 0.833000
0.019044 0.009948 0.830000
-0.014250 -0.011992 0.860000
-0.026574 0.023470 0.825000
0.013475 -0.005871 0.845000
-0.042320 0.012849 0.841000
-0.020486 0.022139 0.826000
-0.009294 -0.018363 0.860000
-0.011375 0.013722 0.831000
0.030770 0.005184 0.833000
-0.072302 0.035306 1.359000
-0.031375 -0.003121 0.854000
-0.016260 -0.005582 0.854000
-0.013023 0.021144 0.827000
0.046821 -0.000993 0.838000
-0.026577 -0.007374 0.858000
0.035135 -0.001340 0.839000
0.011903 -0.029234 0.857000
0.022891 -0.029656 0.859000
0.002304 0.015072 0.830000
-0.039897 0.009733 0.841000
0.005579 -0.014841 0.861000
0.021729 -0.012978 0.855000
-0.044872 -0.023048 0.850000
-0.006222 0.019466 0.828000
-0.000797 -0.011258 0.858000
0.006745 0.015072 0.830000
0.013762 -0.020203 0.863000
-0.050061 0.008079 0.849000
-0.025555 0.024149 0.825000
0.005043 0.018168 0.831000
0.032679 0.022460 0.838000
-0.027451 0.015432 0.831000
-0.025548 -0.008796 0.859000
0.029036 -0.020559 0.863000
-0.042924 0.000042 0.853000
-0.043064 0.014250 0.842000
0.018905 0.001423 0.839000
-0.025772 0.012026 0.832000
-0.039880 0.003532 0.848000
-0.032742 -0.001713 0.853000
-0.006237 0.012339 0.830000
0.029021 0.005863 0.832000
0.016802 -0.011922 0.855000
0.029398 0.016155 0.833000
-0.022288 -0.006299 0.856000
0.028096 -0.014755 0.856000
-0.034468 0.024208 0.827000
0.019044 0.015414 0.830000
-0.050063 0.012711 0.855000
0.027260 -0.020559 0.863000
0.039259 -0.007967 0.846000
0.018316 -0.016240 0.860000
-0.020103 -0.024533 0.853000
-0.005761 -0.015195 0.861000
0.004490 -0.028143 0.856000
-0.016086 0.018762 0.827000
0.015988 0.014406 0.831000
-0.044277 -0.017491 0.852000
0.011550 -0.012656 0.857000
0.025779 -0.029016 0.861000
-0.011064 -0.012700 0.860000
0.020464 -0.027244 0.861000
0.029998 -0.012203 0.850000
-0.021507 -0.004171 0.853000
-0.006470 -0.017676 0.861000
-0.045435 -0.014720 0.854000
0.026869 0.010618 0.829000
0.030390 0.015108 0.832000
-0.022481 -0.028645 0.850000
-0.013919 0.002116 0.840000
-0.017042 -0.017614 0.858000
-0.040209 -0.013682 0.855000
-0.037175 -0.025497 0.850000
0.011542 0.010644 0.831000
-0.006109 -0.019071 0.860000
0.024821 0.010277 0.829000
0.027229 -0.019471 0.862000
0.034720 -0.022335 0.863000
0.034842 0.012369 0.832000
-0.025901 -0.011625 0.859000
-0.046435 0.021458 0.853000
0.016431 -0.011206 0.854000
-0.042573 -0.016108 0.853000
0.030012 0.006882 0.831000
0.046476 0.005560 0.838000
-0.053112 -0.001091 0.920000
0.020915 -0.028795 0.865000
0.042236 0.001418 0.836000
0.019044 0.010631 0.830000
0.024220 -0.035189 0.856000
0.008424 -0.017342 0.862000
-0.016222 0.012055 0.834000
0.011590 -0.024381 0.860000
-0.020293 0.013739 0.832000
-0.030649 0.023130 0.825000
0.013682 -0.028209 0.858000
-0.030383 0.020123 0.827000
-0.030169 0.005227 0.840000
-0.014604 -0.016594 0.860000
0.044114 -0.002030 0.839000
0.031038 0.012354 0.831000
-0.045203 -0.024111 0.863000
0.003785 -0.028495 0.856000
-0.034375 0.015812 0.833000
0.022998 -0.020914 0.863000
-0.024537 0.022451 0.825000
0.021750 0.015054 0.829000
0.001280 0.009960 0.831000
0.014690 -0.011571 0.855000
0.019066 0.008934 0.831000
-0.038513 0.009041 0.841000
-0.026163 -0.017221 0.856000
0.008405 -0.023673 0.860000
0.020745 -0.015496 0.858000
-0.010871 -0.001349 0.845000
0.027193 0.026976 0.839000
0.037477 -0.013299 0.853000
0.026550 -0.020559 0.863000
0.000938 0.007908 0.831000
-0.025216 0.021772 0.825000
0.032233 -0.026952 0.863000
-0.035448 -0.009503 0.859000
0.031875 0.003134 0.835000
0.038702 0.004160 0.834000
0.013953 0.015451 0.832000
-0.037658 -0.018916 0.853000
-0.005200 0.017080 0.828000
-0.035566 0.004911 0.845000
0.032906 0.017912 0.835000
0.022485 -0.014772 0.857000
-0.046987 0.012895 0.844000
-0.019514 0.017762 0.828000
0.007779 0.012012 0.831000
-0.032935 0.006610 0.840000
-0.011299 -0.030780 0.851000
-0.014697 -0.002045 0.845000
0.046682 -0.010429 0.848000
0.006573 -0.034323 0.852000
-0.037652 0.005954 0.845000
-0.011389 0.010657 0.832000
0.016046 0.005877 0.834000
0.039045 0.011369 0.834000
-0.012084 -0.020768 0.857000
0.004152 -0.013392 0.859000
-0.042723 -0.023021 0.849000
-0.008146 -0.031831 0.851000
-0.016828 0.015072 0.830000
0.021855 0.006212 0.833000
0.007334 -0.025060 0.859000
0.037341 -0.003770 0.842000
-0.021897 0.006618 0.841000
0.028714 -0.024494 0.864000
-0.010756 0.005203 0.836000
0.022092 0.010959 0.829000
-0.022038 -0.011638 0.860000
-0.052175 0.002857 0.855000
-0.024566 0.026898 0.826000
-0.029863 -0.000308 0.851000
-0.024077 -0.017594 0.857000
-0.045329 -0.017141 0.852000
-0.013638 -0.001000 0.844000
0.014322 -0.010854 0.854000
-0.032589 -0.026166 0.849000
-0.033013 0.004893 0.842000
-0.022772 0.011726 0.835000
-0.011365 -0.007709 0.856000
-0.047377 0.002144 0.851000
-0.040674 0.002141 0.850000
-0.013935 0.001080 0.841000
0.009820 -0.024027 0.860000
-0.006825 -0.016259 0.861000
0.018337 -0.025118 0.861000
-0.013400 -0.029730 0.851000
-0.004877 0.021589 0.831000
-0.001453 0.014713 0.829000
0.030351 -0.032168 0.860000
-0.038711 -0.001011 0.853000
0.030955 -0.003408 0.838000
0.047913 -0.000995 0.839000
-0.034210 0.019489 0.829000
0.025071 -0.011140 0.849000
-0.034634 0.017484 0.831000
-0.023614 -0.022427 0.853000
0.021427 -0.033467 0.857000
-0.038535 0.016174 0.834000
0.023326 -0.025857 0.862000
-0.024754 -0.017573 0.856000
-0.026146 0.011355 0.833000
0.011930 -0.014453 0.859000
0.041397 -0.009022 0.847000
0.001964 0.011670 0.831000
-0.016767 0.023187 0.827000
0.037083 -0.012582 0.852000
-0.019729 -0.003465 0.852000
-0.016374 -0.012700 0.860000
-0.017253 -0.027978 0.851000
-0.005206 0.014371 0.829000
-0.011731 -0.020768 0.857000
0.027551 -0.028662 0.861000
0.010528 0.015108 0.832000
0.031559 -0.025205 0.864000
-0.033066 0.022819 0.826000
0.004353 0.015414 0.830000
0.028363 -0.007245 0.843000
0.027615 -0.025887 0.863000
0.020321 -0.035148 0.855000
0.012579 -0.032333 0.855000
-0.040148 0.011437 0.839000
0.032945 0.018622 0.836000
-0.017294 -0.004522 0.853000
0.002719 -0.032257 0.853000
0.017869 0.001423 0.839000
-0.073263 -0.079793 2.397000
-0.033327 0.000742 0.850000
-0.013476 0.009652 0.834000
-0.036390 0.003183 0.848000
-0.046435 0.021809 0.853000
-0.032550 0.007984 0.839000
0.006940 -0.031943 0.854000
0.022598 -0.006939 0.848000
-0.014217 -0.009139 0.858000
-0.030649 0.024828 0.825000
0.016450 -0.011922 0.855000
-0.030971 0.002470 0.843000
-0.010299 0.018421 0.827000
0.018019 0.010289 0.830000
0.000263 -0.019802 0.861000
-0.037834 -0.013009 0.857000
-0.029917 0.012041 0.833000
-0.038450 -0.002773 0.855000
0.021202 -0.006590 0.848000
-0.028786 0.005227 0.840000
0.009672 -0.007628 0.847000
-0.036296 -0.016829 0.854000
0.005547 -0.028847 0.856000
-0.030815 -0.013377 0.858000
0.000618 -0.018739 0.861000
0.012255 0.016155 0.833000
-0.036686 0.026035 0.831000
-0.020561 0.017101 0.829000
-0.046786 0.000393 0.853000
-0.022561 -0.023831 0.853000
-0.007879 -0.013054 0.860000
-0.022885 -0.003114 0.852000
-0.028305 0.007955 0.836000
0.040908 -0.000648 0.837000
0.024192 -0.036556 0.855000
0.027102 -0.015849 0.858000
-0.012117 0.005884 0.835000
0.024716 -0.027953 0.861000
-0.029162 0.016116 0.831000
-0.028643 0.001086 0.846000
-0.033987 -0.025467 0.849000
-0.035875 0.013116 0.836000
-0.042773 -0.020949 0.850000
0.032084 -0.033191 0.859000
-0.025048 -0.003824 0.854000
0.037302 -0.010092 0.849000
0.029057 -0.007245 0.843000
0.039141 -0.011867 0.851000
-0.031912 -0.010564 0.859000
-0.041184 0.013509 0.839000
0.041593 -0.012567 0.851000
-0.041265 -0.013682 0.855000
0.002731 -0.011245 0.857000
-0.002197 -0.033661 0.853000
-0.035094 -0.009150 0.859000
0.020321 -0.012274 0.855000
0.047110 0.001419 0.837000
0.022092 0.015054 0.829000
-0.043422 -0.022322 0.849000
-0.033406 0.023838 0.826000
-0.009909 -0.029063 0.852000
-0.002926 -0.013778 0.861000
0.025904 -0.003424 0.842000
0.018781 -0.006597 0.849000
-0.014384 0.019442 0.827000
-0.025766 0.004552 0.843000
0.032720 -0.009382 0.848000
0.033615 -0.012948 0.853000
-0.034726 -0.024097 0.850000
0.005920 -0.024706 0.859000
-0.035532 0.023555 0.828000
-0.049421 0.004940 0.850000
-0.034318 0.009376 0.840000
0.029962 -0.033191 0.859000
-0.013799 -0.025617 0.854000
0.020189 0.004853 0.835000
-0.034033 -0.010564 0.859000
0.033473 0.012711 0.832000
-0.007288 0.006898 0.833000
0.000254 0.013022 0.830000
-0.046272 0.003191 0.850000
0.025861 -0.012582 0.852000
0.004147 -0.025030 0.858000
-0.032046 0.026218 0.826000
-0.020174 -0.019687 0.856000
-0.016001 -0.009503 0.859000
0.014811 -0.022664 0.862000
0.030705 -0.031814 0.860000
-0.024783 -0.007012 0.857000
-0.002479 0.010289 0.830000
-0.015338 0.001081 0.842000
0.033970 -0.020890 0.862000
-0.028889 0.002470 0.843000
0.033260 -0.020535 0.862000
0.025129 -0.021269 0.863000
-0.011676 -0.006628 0.853000
-0.038530 0.002488 0.849000
-0.045262 -0.038129 1.205000
0.029540 -0.036288 0.857000
-0.029026 0.000739 0.847000
0.012704 -0.002379 0.840000
-0.001146 -0.028110 0.855000
0.030987 -0.016555 0.858000
-0.012491 0.004175 0.837000
-0.018787 0.021459 0.826000
0.026012 -0.033819 0.857000
-0.023780 -0.009503 0.859000
-0.013274 -0.000305 0.843000
0.020951 -0.009777 0.852000
-0.026362 0.018125 0.829000
0.033250 0.003134 0.835000
-0.044329 -0.023831 0.853000
-0.019423 -0.022805 0.854000
-0.010524 -0.002393 0.845000
0.034956 -0.004469 0.843000
0.027519 -0.030398 0.860000
0.005573 -0.014116 0.860000
0.000263 -0.020487 0.860000
-0.035148 0.023527 0.827000
0.004012 0.014389 0.830000
0.013268 0.015451 0.832000
-0.034227 -0.003477 0.855000
-0.002828 0.007232 0.832000
0.000613 -0.029483 0.854000
-0.005688 -0.007305 0.850000
0.032906 0.003134 0.835000
-0.012685 -0.005556 0.850000
0.040515 0.000729 0.836000
0.029858 -0.037303 0.856000
0.002392 -0.016632 0.862000
0.037170 -0.007619 0.846000
0.032679 0.022115 0.838000
-0.011689 0.015395 0.829000
-0.026144 0.003515 0.844000
0.002706 -0.008344 0.849000
-0.013164 0.005547 0.836000
-0.016685 0.004882 0.840000
-0.012176 0.003149 0.839000
-0.038540 -0.011950 0.857000
-0.013023 0.019783 0.827000
0.015728 -0.010854 0.854000
0.006964 -0.011598 0.857000
-0.036476 -0.023048 0.850000
0.029056 0.016155 0.833000
-0.033466 0.012084 0.836000
0.002741 -0.021903 0.860000
-0.007533 -0.014487 0.861000
-0.013753 0.014389 0.830000
0.033966 -0.012948 0.853000
-0.019537 -0.015867 0.859000
-0.038495 -0.012993 0.856000
-0.012088 0.008612 0.833000
0.041892 0.008299 0.836000
-0.046381 0.000743 0.852000
-0.017687 -0.006292 0.855000
-0.001117 0.005870 0.833000
-0.024461 0.011712 0.834000
0.021777 0.015414 0.830000
0.036215 -0.002033 0.840000
-0.046987 0.009073 0.844000
0.028096 -0.014403 0.856000
-0.024609 -0.025527 0.851000
0.020109 -0.027598 0.861000
0.012598 0.005870 0.833000
0.034116 0.009276 0.831000
-0.046402 0.016407 0.846000
0.047419 -0.014738 0.855000
-0.020009 -0.001006 0.849000
-0.040243 0.010080 0.841000
0.003457 -0.016277 0.862000
0.005182 -0.031943 0.854000
0.035783 0.020391 0.838000
0.025218 -0.037919 0.854000
-0.027175 0.011012 0.833000
0.026719 0.020661 0.835000
-0.016106 0.024237 0.828000
0.050164 -0.001345 0.842000
-0.047391 0.013258 0.845000
-0.023088 0.012742 0.834000
0.022971 -0.019116 0.862000
0.026073 -0.016574 0.859000
0.020794 -0.016948 0.860000
-0.030897 0.003849 0.841000
-0.017436 -0.015178 0.860000
0.023513 0.017142 0.831000
-0.013081 -0.005926 0.853000
0.018323 -0.003085 0.844000
0.023461 -0.037216 0.854000
0.047166 0.004525 0.838000
-0.016747 0.021799 0.826000
-0.025577 -0.011638 0.860000
0.002747 -0.016987 0.862000
0.031915 -0.024850 0.864000
0.030670 -0.017635 0.859000
0.027243 0.013706 0.830000
-0.010524 -0.002741 0.845000
-0.006793 -0.023590 0.857000
-0.049071 0.004240 0.850000
-0.019332 -0.028995 0.850000
-0.027484 0.011684 0.832000
0.028816 0.021718 0.836000
-0.014849 0.011369 0.834000
-0.003159 0.016419 0.829000
-0.021884 -0.004527 0.854000
0.011145 -0.035417 0.853000
0.002987 0.015414 0.830000
0.037284 0.005184 0.833000
-0.017082 -0.013762 0.860000
0.039186 0.000041 0.837000
0.044009 0.006242 0.837000
-0.015993 0.004190 0.840000
-0.004529 0.012681 0.830000
0.009661 -0.006574 0.846000
0.029119 -0.038315 0.855000
-0.009559 -0.029414 0.852000
0.035527 0.011684 0.832000
-0.023126 0.000740 0.848000
0.026581 -0.024139 0.864000
0.039875 -0.000303 0.837000
0.016230 -0.018051 0.862000
-0.040467 -0.017863 0.853000
-0.011007 0.015054 0.829000
0.012327 -0.017697 0.862000
0.038405 0.002103 0.835000
0.037329 0.013772 0.834000
0.035485 0.010644 0.831000
0.030457 -0.026597 0.863000
0.011708 -0.004469 0.843000
-0.033746 0.004899 0.843000
0.025690 -0.015496 0.858000
-0.037128 0.009041 0.841000
0.009855 0.006212 0.833000
0.035312 0.002103 0.835000
-0.011760 0.007936 0.834000
-0.005590 0.006895 1.108000
0.022774 0.013689 0.829000
0.009489 0.012354 0.831000
-0.041529 0.016617 0.839000
-0.040770 0.000393 0.852000
0.018561 -0.011922 0.855000
0.019525 -0.008714 0.851000
-0.039718 0.000042 0.852000
0.004453 -0.008694 0.849000
-0.029894 0.003161 0.842000
-0.035532 0.021851 0.828000
0.027308 0.016820 0.832000
-0.011786 -0.015195 0.861000
-0.018498 -0.011992 0.860000
-0.041529 0.015235 0.839000
-0.006395 -0.032182 0.851000
0.021805 -0.015143 0.858000
0.002351 -0.006930 0.847000
-0.028730 -0.008796 0.859000
0.041495 -0.010790 0.849000
0.035184 -0.016536 0.857000
-0.031064 0.027611 0.827000
-0.030686 0.021799 0.826000
-0.037525 -0.010552 0.858000
0.018192 0.001766 0.838000
0.014003 0.002791 0.835000
0.047279 -0.002724 0.840000
-0.028034 0.018444 0.828000
0.006069 0.012012 0.831000
0.036560 -0.008684 0.848000
0.007643 -0.032998 0.854000
0.019135 0.006220 0.834000
-0.018852 -0.010576 0.860000
-0.036782 0.002488 0.849000
0.014355 -0.012289 0.856000
0.032324 -0.015107 0.856000
0.003084 -0.027118 0.857000
0.013314 -0.029939 0.857000
-0.017722 0.006610 0.840000
-0.038879 0.002488 0.849000
0.023589 -0.005529 0.846000
-0.040277 -0.022671 0.849000
-0.016020 -0.013408 0.860000
0.044062 -0.001338 0.838000
0.027374 0.019264 0.834000
-0.020244 -0.015514 0.859000
0.012991 -0.027181 0.859000
0.000937 0.012681 0.830000
0.010705 -0.006922 0.846000
0.023433 -0.038577 0.853000
-0.005047 -0.012700 0.860000
-0.044925 -0.018872 0.851000
-0.025901 -0.011978 0.859000
-0.044925 0.001443 0.851000
0.016104 0.002108 0.837000
