-0.025637 0.027361 0.862000
-0.001145 0.038003 0.854000
-0.027370 -0.009973 0.839000
0.008060 0.007484 0.861000
0.021352 -0.014017 0.854000
0.022598 -0.020899 0.848000
0.002031 0.009588 0.859000
-0.001477 -0.020429 0.843000
0.036834 0.003986 0.871000
0.019525 -0.016770 0.851000
-0.017975 0.008107 0.852000
0.002401 0.023540 0.865000
0.001646 -0.018694 0.843000
0.020407 -0.033306 0.844000
-0.016728 0.018094 0.860000
0.025602 0.001827 0.867000
0.009912 0.016119 0.868000
0.022084 0.010415 0.869000
-0.014992 -0.012088 0.842000
0.010151 0.027940 0.858000
-0.027186 0.005947 0.844000
0.017394 0.016101 0.867000
-0.031169 0.024762 0.858000
0.019922 -0.015054 0.853000
0.005261 0.019669 0.867000
-0.018175 -0.002393 0.845000
-0.029236 0.005593 0.843000
0.032457 0.000401 0.869000
-0.015759 0.000390 0.846000
-0.007723 -0.015919 0.843000
0.028030 -0.013314 0.854000
0.011778 -0.012523 0.848000
0.016136 0.026849 0.857000
-0.027436 -0.001689 0.841000
0.002409 0.018620 0.868000
0.023272 -0.006683 0.860000
-0.036609 0.009780 0.845000
-0.028094 -0.003070 0.840000
-0.028496 0.016523 0.852000
0.035537 0.019089 0.857000
0.029962 -0.007382 0.859000
0.037741 0.017013 0.859000
-0.033170 -0.014234 0.846000
-0.004676 0.034962 0.857000
0.003732 -0.017674 0.844000
0.043245 0.010698 0.863000
0.027517 -0.025467 0.849000
0.017690 0.002888 0.864000
0.008840 0.014333 0.868000
0.037741 -0.017989 0.859000
0.011509 -0.002418 0.854000
0.015525 -0.029797 0.843000
0.005982 0.016476 0.868000
0.041495 0.001835 0.871000
-0.011887 -0.009326 0.843000
0.021527 -0.004919 0.861000
0.031450 0.016698 0.861000
0.004422 -0.019735 0.843000
-0.035860 0.019329 0.852000
0.008606 -0.028477 0.845000
-0.032153 0.021886 0.856000
-0.037820 0.003503 0.841000
-0.025696 0.029914 0.864000
-0.006002 -0.020130 0.845000
-0.041675 0.017863 0.849000
0.030951 0.020853 0.857000
0.036637 -0.019027 0.858000
-0.028406 -0.008246 0.839000
0.038136 -0.005316 0.868000
0.016939 0.021684 0.862000
-0.011193 -0.008632 0.843000
0.004186 0.013231 0.866000
-0.000091 0.006736 0.856000
0.031778 0.001475 0.870000
-0.029688 -0.017020 0.846000
-0.010858 -0.003085 0.844000
-0.011943 0.002133 0.847000
0.030175 -0.014386 0.855000
0.019445 0.019934 0.863000
0.011819 -0.006963 0.851000
-0.004947 -0.008979 0.843000
-0.015366 0.033076 0.863000
-0.038558 -0.007583 0.842000
0.001330 0.011409 0.863000
-0.019844 -0.005850 0.842000
-0.032282 -0.009304 0.841000
-0.035009 -0.007219 0.840000
-0.006418 0.040815 0.854000
0.018422 0.002891 0.865000
-0.030456 -0.018456 0.848000
0.025071 -0.018478 0.849000
0.019759 -0.025028 0.846000
0.038538 -0.003176 0.869000
0.017077 0.011131 0.869000
-0.023835 0.024849 0.861000
0.046743 0.010331 0.862000
-0.022366 0.020902 0.859000
0.005122 -0.024969 0.844000
-0.018165 0.020242 0.861000
-0.050356 0.008829 0.854000
-0.019273 0.034497 0.863000
-0.041724 0.019633 0.850000
-0.015401 0.031016 0.865000
-0.039090 0.011881 0.846000
-0.028475 0.028425 0.862000
-0.008537 0.038048 0.855000
0.034643 0.000759 0.870000
0.011158 -0.002770 0.854000
0.027582 -0.016770 0.851000
-0.007490 0.011669 0.856000
0.000978 0.015013 0.866000
0.035759 0.001835 0.871000
-0.007551 0.016382 0.863000
0.012946 0.029284 0.856000
-0.041072 0.021408 0.851000
-0.010524 -0.017695 0.845000
-0.015722 -0.004474 0.844000
0.032513 0.016344 0.861000
0.016623 0.019601 0.864000
0.029187 -0.009834 0.857000
-0.036566 -0.010032 0.844000
-0.020488 -0.010676 0.840000
-0.010773 0.029592 0.865000
-0.025696 0.035959 0.864000
-0.008836 0.004590 0.850000
-0.035355 0.002116 0.840000
0.031276 -0.003165 0.866000
-0.033092 -0.012811 0.844000
0.001328 0.027361 0.862000
-0.024898 0.039023 0.861000
-0.028079 0.014735 0.850000
0.017567 0.025821 0.858000
-0.001477 -0.010020 0.843000
0.013523 -0.017758 0.848000
-0.030515 -0.000996 0.840000
0.003080 0.005327 0.856000
-0.001519 0.018242 0.867000
-0.006342 -0.018717 0.844000
0.013634 -0.003125 0.855000
0.024838 -0.014001 0.853000
0.023299 -0.005273 0.861000
0.032495 0.006130 0.870000
-0.013479 0.039149 0.856000
-0.038813 -0.001687 0.840000
-0.032190 0.024380 0.857000
0.043245 -0.021979 0.863000
0.019411 -0.035823 0.846000
-0.007533 0.014572 0.861000
-0.019219 -0.002045 0.845000
-0.034952 -0.014948 0.847000
0.017526 -0.008413 0.856000
0.025304 0.004335 0.869000
-0.013234 0.032010 0.863000
0.016605 -0.033346 0.845000
-0.025340 0.017225 0.852000
0.025632 0.012547 0.868000
-0.027186 0.006294 0.844000
-0.026052 0.030625 0.864000
-0.033827 0.008041 0.845000
0.009973 -0.024593 0.843000
0.039877 -0.006737 0.867000
0.036948 0.018737 0.857000
0.016861 -0.003136 0.858000
0.042436 0.012446 0.861000
-0.037172 -0.007929 0.842000
0.005913 0.006046 0.858000
0.019434 -0.023664 0.847000
0.027292 -0.003158 0.864000
0.019333 -0.006667 0.858000
-0.024872 0.011211 0.848000
-0.010429 0.026062 0.866000
0.036792 0.005056 0.870000
-0.020197 0.040958 0.857000
0.010984 0.014690 0.868000
-0.040162 -0.017181 0.854000
0.033576 -0.011652 0.861000
-0.034481 -0.011769 0.844000
0.004128 0.034840 0.854000
0.040617 -0.019071 0.860000
-0.027347 0.024820 0.860000
-0.039275 0.018584 0.850000
0.036904 -0.022153 0.856000
0.033420 0.020853 0.857000
0.045177 -0.012789 0.866000
0.038268 0.000402 0.871000
0.004495 0.031788 0.857000
0.028700 -0.014352 0.853000
0.020431 -0.035085 0.845000
0.035951 -0.004953 0.867000
-0.003559 -0.017653 0.843000
-0.012567 0.024280 0.866000
-0.031652 0.016173 0.852000
-0.028295 0.011184 0.846000
-0.029442 -0.003066 0.839000
-0.021884 0.017265 0.854000
-0.036519 0.017555 0.851000
-0.019891 -0.002043 0.844000
0.006339 0.015405 0.868000
0.019847 0.001823 0.865000
0.040403 -0.013100 0.863000
-0.010152 -0.005857 0.843000
-0.017852 0.033431 0.863000
0.033058 -0.004947 0.866000
0.008116 0.012175 0.867000
-0.034318 0.000733 0.840000
0.021652 0.015369 0.866000
-0.023863 0.025232 0.862000
0.013112 -0.030875 0.844000
-0.016611 0.009884 0.854000
0.023937 -0.027466 0.846000
-0.021032 0.003881 0.848000
0.031324 -0.029276 0.848000
0.007750 0.021072 0.866000
0.049023 -0.012146 0.871000
0.003461 0.025972 0.863000
0.002345 -0.009348 0.845000
-0.016592 0.008468 0.853000
-0.017294 0.009170 0.853000
0.011577 0.003931 0.859000
-0.020488 -0.011368 0.840000
-0.011635 0.005639 0.850000
0.040664 -0.016613 0.861000
0.021102 -0.034001 0.844000
0.028116 -0.030600 0.846000
-0.035913 -0.011783 0.845000
-0.018896 0.022394 0.862000
-0.033867 0.009791 0.846000
0.015271 0.010046 0.868000
-0.045945 0.002821 0.844000
0.014622 -0.012567 0.851000
-0.040626 0.017863 0.849000
0.022406 -0.014369 0.854000
-0.021230 -0.004464 0.842000
-0.039927 -0.014285 0.849000
-0.006080 0.036683 0.856000
0.016098 0.028898 0.855000
0.003481 0.019335 0.868000
-0.038180 0.016465 0.849000
-0.000436 -0.016960 0.843000
0.002370 0.035191 0.854000
-0.047027 0.018255 0.851000
0.003080 0.033160 0.856000
-0.020032 0.005639 0.850000
-0.032353 0.016173 0.852000
-0.037000 -0.012145 0.846000
-0.041120 0.022134 0.852000
-0.018655 0.005996 0.851000
0.040263 -0.020841 0.860000
-0.015259 0.012740 0.857000
0.044821 0.007171 0.866000
0.016004 0.013634 0.869000
0.023589 -0.027814 0.846000
0.015232 -0.022591 0.846000
0.042929 -0.004259 0.871000
-0.043965 0.015014 0.846000
0.003120 0.016458 0.867000
-0.041678 -0.000305 0.842000
0.005954 0.023513 0.864000
0.015025 -0.005582 0.854000
-0.016863 0.003536 0.849000
0.048629 0.008222 0.864000
0.007377 0.023513 0.864000
0.029988 0.003982 0.870000
-0.015081 0.001785 0.847000
0.157466 -0.111931 3.584000
-0.021858 0.013032 0.853000
-0.036562 -0.019595 0.852000
0.000622 0.017171 0.867000
0.002690 -0.016632 0.844000
-0.049302 0.014102 0.854000
0.019378 -0.004559 0.860000
-0.028061 -0.007901 0.839000
0.029919 0.000400 0.868000
-0.033249 -0.016711 0.848000
-0.038121 -0.001341 0.840000
-0.025667 0.028458 0.863000
0.042436 -0.018385 0.861000
-0.026523 0.008041 0.845000
0.007544 -0.024940 0.843000
0.010626 0.016119 0.868000
0.018518 -0.013299 0.853000
-0.029444 0.013320 0.849000
-0.028112 0.016504 0.851000
-0.021602 -0.003428 0.843000
0.013189 -0.012887 0.849000
0.043853 0.004687 0.868000
0.031822 -0.023453 0.852000
0.039246 -0.016259 0.861000
-0.018782 -0.008266 0.841000
-0.002865 -0.019735 0.843000
0.014215 0.014349 0.869000
-0.043757 0.003161 0.842000
0.027768 -0.034778 0.846000
0.032990 -0.019664 0.855000
-0.035397 -0.007574 0.841000
-0.025577 0.024466 0.860000
0.021246 -0.000313 0.864000
0.038627 0.003986 0.871000
0.031304 0.021559 0.857000
0.009312 -0.015975 0.846000
-0.008878 0.039409 0.854000
-0.032704 0.017575 0.852000
0.037697 -0.023618 0.858000
-0.032474 0.009095 0.846000
-0.002202 0.035936 0.855000
0.029264 -0.035950 0.849000
0.028464 -0.032689 0.846000
-0.000091 0.007089 0.856000
-0.010368 0.015989 0.861000
-0.008417 -0.016960 0.843000
-0.027830 0.035603 0.864000
0.032046 -0.014436 0.858000
-0.037084 -0.004107 0.840000
0.006171 -0.017348 0.845000
-0.000436 -0.017653 0.843000
0.003429 0.035936 0.855000
0.012313 0.024849 0.861000
0.003798 0.003931 0.859000
-0.039298 -0.006551 0.843000
-0.020646 0.022014 0.861000
-0.037437 -0.014966 0.848000
0.018670 -0.032959 0.844000
0.028227 -0.006683 0.860000
-0.035871 -0.010727 0.844000
0.008041 0.027619 0.859000
0.012055 -0.025981 0.843000
-0.046640 0.004558 0.844000
0.027391 -0.010175 0.856000
0.029892 -0.031682 0.847000
0.037697 -0.022912 0.858000
0.019342 -0.030838 0.843000
0.014725 0.027555 0.857000
0.023571 0.022643 0.858000
-0.023937 0.017225 0.852000
0.019157 0.004676 0.866000
0.038449 -0.006023 0.867000
-0.013432 0.043927 0.853000
0.029609 0.019841 0.859000
0.002750 0.011054 0.863000
0.018670 -0.033306 0.844000
0.015891 -0.024622 0.844000
-0.038135 0.014352 0.848000
-0.029026 -0.018086 0.847000
-0.017438 -0.006204 0.843000
0.027647 0.014978 0.864000
-0.023100 0.038624 0.860000
-0.014871 0.040511 0.855000
0.002340 -0.022511 0.843000
0.033536 -0.030780 0.851000
0.008238 -0.022858 0.843000
0.014405 0.025851 0.859000
0.008444 0.022446 0.864000
-0.008547 0.012021 0.856000
0.015165 0.022749 0.862000
-0.027925 0.020476 0.856000
0.024617 0.009353 0.870000
0.008356 0.033473 0.855000
-0.042975 0.024295 0.854000
-0.018102 0.016640 0.858000
-0.027370 -0.008937 0.839000
0.016508 0.025468 0.858000
-0.024494 0.007711 0.847000
0.013905 -0.013252 0.850000
0.038982 -0.012389 0.863000
0.020654 0.007912 0.869000
0.007037 0.011805 0.866000
-0.014519 0.009895 0.855000
-0.024953 -0.010318 0.839000
0.047618 0.007163 0.865000
0.023881 -0.030875 0.844000
0.028781 -0.002452 0.866000
0.043195 -0.020180 0.862000
-0.016057 0.021330 0.862000
0.014456 0.022749 0.862000
0.030634 0.020524 0.858000
-0.016845 0.028914 0.866000
0.033067 -0.017241 0.857000
0.004422 -0.024246 0.843000
0.037605 -0.010270 0.864000
-0.019961 0.001088 0.847000
0.017214 -0.004195 0.858000
-0.019094 0.013063 0.855000
0.012961 0.027908 0.857000
-0.003212 -0.015919 0.843000
0.024889 0.012889 0.867000
0.020770 0.022670 0.859000
-0.027379 0.026620 0.861000
-0.013204 0.018115 0.861000
0.027839 0.006846 0.870000
0.008483 0.013261 0.868000
-0.019184 0.018427 0.859000
0.037379 -0.005310 0.867000
0.030104 -0.021374 0.853000
-0.027794 0.016874 0.852000
-0.011827 0.030625 0.864000
0.044873 -0.010306 0.867000
0.019938 0.008269 0.869000
0.040994 -0.026394 0.868000
-0.009503 0.001088 0.847000
0.009973 -0.022858 0.843000
-0.024049 0.043025 0.856000
-0.040277 0.016815 0.849000
-0.046695 0.003520 0.845000
0.038094 -0.018696 0.859000
0.030704 0.005772 0.870000
-0.030143 0.012971 0.849000
-0.002590 0.023594 0.867000
-0.018249 0.028880 0.865000
-0.000805 0.018242 0.867000
0.012227 0.031362 0.855000
-0.018742 0.012711 0.855000
0.007679 0.005693 0.858000
-0.023154 0.007031 0.849000
-0.021975 -0.001348 0.844000
-0.043022 0.016795 0.848000
-0.004364 0.026388 0.865000
0.030457 0.014961 0.863000
-0.047767 0.019818 0.858000
0.005116 -0.022511 0.843000
-0.029653 0.010128 0.845000
0.041161 -0.012404 0.864000
-0.012524 0.033786 0.863000
0.000955 -0.007967 0.846000
-0.030169 -0.001687 0.840000
0.029402 -0.015756 0.853000
-0.002909 0.009907 0.856000
0.009060 0.033121 0.855000
-0.020951 0.038933 0.859000
-0.005076 0.018200 0.865000
0.044006 -0.014537 0.864000
-0.001130 -0.018000 0.843000
0.020297 -0.013314 0.854000
0.006519 -0.013870 0.845000
-0.002171 -0.011061 0.843000
0.015838 0.024466 0.860000
0.023952 0.021609 0.859000
0.010946 0.021048 0.865000
0.022275 -0.019876 0.849000
0.021848 -0.025725 0.846000
-0.026255 0.023023 0.859000
-0.012234 -0.012796 0.843000
-0.002926 0.030164 0.861000
-0.025012 -0.013458 0.841000
0.045481 -0.015622 0.865000
-0.021280 0.019112 0.858000
0.019938 0.013277 0.869000
0.011550 0.001453 0.857000
0.007300 0.032417 0.855000
0.036034 -0.001745 0.869000
-0.038620 -0.017821 0.851000
-0.002521 -0.021148 0.844000
0.010667 -0.026328 0.843000
-0.001149 0.010271 0.857000
-0.000805 0.023238 0.867000
0.009522 0.021404 0.865000
-0.036304 0.010488 0.846000
0.038448 0.016659 0.859000
0.014972 -0.013268 0.851000
0.027039 -0.030216 0.845000
0.002376 0.006384 0.856000
0.014019 -0.000310 0.857000
0.018958 0.025439 0.857000
0.006997 0.026620 0.861000
0.028834 0.022617 0.857000
-0.028948 0.019045 0.855000
-0.022885 0.016173 0.852000
0.028391 0.013927 0.865000
-0.019821 0.015192 0.856000
-0.011635 0.005989 0.850000
0.026936 -0.003158 0.864000
0.025660 -0.010187 0.857000
-0.029300 0.019397 0.855000
-0.009805 -0.010367 0.843000
-0.020126 0.011290 0.854000
-0.049122 0.015915 0.857000
-0.043075 0.026466 0.856000
0.008759 0.026943 0.860000
-0.019318 0.030660 0.865000
-0.015775 0.028201 0.866000
0.007402 0.020026 0.867000
0.012014 0.020692 0.865000
-0.045250 0.011505 0.844000
0.016566 -0.029450 0.843000
0.007741 0.022116 0.865000
-0.041727 0.009757 0.843000
-0.006335 -0.018347 0.843000
0.029205 0.001115 0.868000
0.012749 -0.027715 0.843000
0.020559 0.002535 0.865000
-0.014992 -0.009662 0.842000
-0.002171 -0.018000 0.843000
-0.017811 0.035834 0.861000
0.045890 0.006459 0.866000
0.042179 0.011054 0.863000
-0.016631 0.010951 0.855000
-0.018165 0.020950 0.861000
0.120610 -0.060310 2.368000
0.037779 -0.004959 0.868000
-0.023909 0.015453 0.851000
0.008116 0.012532 0.867000
-0.033170 -0.014931 0.846000
0.036476 0.002911 0.871000
-0.017152 -0.001351 0.846000
0.040947 -0.007808 0.867000
-0.000089 -0.020082 0.843000
-0.021381 0.003881 0.848000
-0.023019 0.019442 0.857000
-0.014749 0.003183 0.848000
-0.024494 0.006665 0.847000
0.029187 -0.009481 0.857000
0.023763 0.000399 0.865000
0.023626 0.020926 0.860000
-0.024870 0.039332 0.860000
0.028615 0.018470 0.861000
0.026019 0.005050 0.869000
0.044310 -0.019138 0.863000
0.017294 0.000397 0.862000
0.008616 -0.014583 0.846000
0.014183 0.008964 0.867000
0.025632 0.002901 0.868000
0.002754 0.025291 0.864000
0.030491 -0.019290 0.854000
0.019689 -0.031532 0.843000
-0.001477 -0.016266 0.843000
-0.014250 0.016325 0.860000
0.020649 -0.013314 0.854000
0.022110 0.008637 0.870000
0.020552 -0.036692 0.850000
0.023433 -0.014703 0.853000
0.008365 0.030694 0.856000
-0.031081 0.010488 0.846000
-0.022402 0.003179 0.847000
0.012549 -0.004522 0.853000
-0.011887 -0.008979 0.843000
0.030670 -0.008089 0.859000
0.018935 -0.009823 0.856000
0.030879 -0.016849 0.855000
0.006332 0.020026 0.867000
-0.016824 0.001785 0.847000
0.008473 0.020026 0.867000
0.028834 -0.008776 0.857000
0.015412 0.029637 0.856000
0.033303 -0.021399 0.854000
-0.008079 -0.003779 0.844000
-0.017785 -0.005510 0.843000
-0.017091 -0.013837 0.843000
0.024343 -0.020201 0.848000
-0.018144 0.019864 0.860000
-0.025644 -0.010663 0.839000
0.002045 0.024252 0.865000
0.002766 0.018263 0.868000
0.034205 0.018073 0.859000
0.015538 0.002884 0.863000
-0.004947 -0.013143 0.843000
0.001320 0.005333 0.857000
0.014484 -0.028062 0.843000
0.019112 0.018534 0.864000
-0.009122 -0.003085 0.844000
0.046657 -0.016372 0.867000
-0.046293 0.003863 0.844000
0.039816 0.016993 0.858000
-0.018896 0.035166 0.862000
0.036766 -0.014487 0.861000
0.038403 0.017699 0.858000
0.018066 0.003959 0.865000
-0.046084 0.020756 0.853000
0.040280 0.006831 0.868000
-0.002563 0.011696 0.858000
-0.022481 0.009138 0.850000
-0.045009 0.014666 0.846000
-0.037569 0.019306 0.851000
-0.004017 0.021453 0.867000
-0.005761 0.031582 0.861000
0.026850 -0.018500 0.850000
-0.041282 0.004887 0.841000
-0.013767 0.007406 0.852000
0.015746 -0.004884 0.855000
0.032829 -0.011638 0.860000
0.001693 0.021810 0.867000
-0.024516 0.040040 0.860000
0.026427 0.020548 0.859000
0.006503 -0.024246 0.843000
0.045166 0.013831 0.859000
-0.016146 0.002485 0.848000
0.037508 -0.001031 0.870000
-0.012248 -0.002390 0.844000
0.031915 -0.006714 0.864000
-0.019682 0.005989 0.850000
0.023881 -0.034696 0.844000
-0.001872 0.025320 0.865000
-0.042622 0.015729 0.847000
-0.018111 -0.013474 0.842000
0.020156 -0.001378 0.863000
-0.008417 -0.011755 0.843000
0.034750 -0.022128 0.855000
-0.009208 0.007406 0.852000
-0.016088 -0.002045 0.845000
-0.014002 0.000042 0.845000
-0.012625 0.001783 0.846000
0.022210 -0.006683 0.860000
0.012213 -0.003121 0.854000
0.010577 0.007155 0.864000
-0.036175 0.005593 0.843000
0.021398 -0.038567 0.885000
-0.012924 0.028201 0.866000
-0.004725 0.018934 0.866000
0.014954 -0.016401 0.850000
-0.006690 -0.019064 0.844000
-0.015338 -0.007583 0.842000
-0.028409 0.025882 0.860000
0.011361 -0.025981 0.843000
0.033812 -0.016202 0.858000
-0.008961 0.016363 0.862000
-0.026144 0.000736 0.844000
0.020369 0.025086 0.857000
-0.014333 0.030304 0.865000
0.000263 0.031155 0.859000
-0.019105 -0.009293 0.840000
-0.016469 0.024608 0.865000
-0.025359 -0.003074 0.841000
0.026913 -0.015037 0.852000
0.026581 -0.003158 0.864000
0.018692 -0.025347 0.845000
0.014573 0.011488 0.869000
0.023896 0.025791 0.857000
0.038092 -0.006737 0.867000
-0.014350 0.025349 0.866000
0.033183 -0.011284 0.860000
-0.018938 0.003183 0.848000
0.018301 -0.029103 0.843000
-0.018089 -0.008266 0.841000
-0.033915 0.023647 0.856000
-0.013290 -0.003432 0.844000
-0.019196 -0.002737 0.844000
0.038405 -0.007442 0.866000
0.045324 0.010686 0.862000
0.019062 -0.023984 0.846000
0.002731 0.031788 0.857000
-0.020030 0.028880 0.865000
-0.041568 0.024998 0.854000
0.002687 -0.021470 0.843000
0.037193 0.000402 0.871000
0.035116 -0.008136 0.864000
-0.009132 -0.018391 0.845000
-0.012879 0.019934 0.863000
-0.023181 0.010537 0.850000
-0.008972 0.017447 0.863000
0.019870 0.003963 0.866000
-0.041282 0.001426 0.841000
0.015857 0.023431 0.861000
0.005122 -0.016632 0.844000
0.000969 0.009577 0.858000
0.032308 -0.005654 0.865000
-0.009111 -0.008632 0.843000
-0.046512 0.016097 0.848000
0.029562 0.010403 0.868000
-0.009933 0.039761 0.854000
0.003834 0.021096 0.867000
-0.023808 0.038978 0.860000
-0.025048 0.019374 0.854000
0.014035 0.026528 0.858000
-0.019821 0.015544 0.856000
0.001993 -0.014184 0.843000
-0.032397 -0.013159 0.844000
-0.030533 0.027651 0.860000
-0.037040 -0.000995 0.839000
-0.034481 0.007337 0.844000
0.022223 -0.025058 0.847000
-0.046457 0.015381 0.847000
-0.004665 0.037344 0.855000
-0.031169 -0.004793 0.839000
0.032739 0.010748 0.867000
-0.007393 -0.019782 0.845000
0.042781 -0.007817 0.868000
-0.025312 0.036273 0.863000
-0.019492 0.015210 0.857000
0.032626 -0.007069 0.864000
0.036552 -0.021801 0.856000
0.038847 -0.022965 0.860000
-0.027188 0.019749 0.855000
-0.043809 0.010797 0.843000
0.024745 0.018491 0.862000
-0.010224 0.003536 0.849000
0.024721 -0.018129 0.849000
-0.002171 -0.015225 0.843000
-0.002947 0.023238 0.867000
0.013236 -0.006621 0.852000
0.023598 0.021609 0.859000
0.043039 0.007528 0.866000
-0.002171 -0.014878 0.843000
-0.029253 0.032403 0.864000
-0.005995 -0.005169 0.844000
0.025071 0.019179 0.861000
-0.026366 -0.004453 0.840000
0.003113 0.013571 0.865000
0.035744 -0.012020 0.862000
-0.012943 -0.003432 0.844000
0.020987 0.006116 0.868000
0.039163 -0.006380 0.867000
0.004128 0.034488 0.854000
0.034831 0.019795 0.857000
-0.016786 0.033076 0.863000
0.024475 0.000043 0.865000
0.027061 0.002544 0.868000
0.018103 -0.018500 0.850000
0.016041 -0.013634 0.852000
-0.031206 -0.008602 0.840000
0.001320 0.008860 0.857000
0.015646 0.013277 0.869000
0.003037 -0.024275 0.844000
-0.006840 0.016737 0.863000
-0.022243 -0.004804 0.841000
-0.037474 0.004887 0.841000
0.008406 -0.009565 0.898000
0.028914 0.004340 0.870000
0.004853 0.007458 0.858000
-0.017954 0.006347 0.851000
0.009973 -0.023205 0.843000
-0.027830 0.033470 0.864000
0.008840 0.018263 0.868000
-0.037040 -0.002376 0.839000
0.010430 -0.004517 0.852000
0.034277 -0.025557 0.852000
0.006611 0.030729 0.857000
0.001299 -0.014531 0.843000
0.024447 -0.001380 0.864000
-0.018983 0.005290 0.850000
-0.027881 0.008031 0.844000
0.032829 -0.010930 0.860000
0.010345 -0.029868 0.845000
0.014866 -0.022912 0.845000
0.017710 0.003959 0.865000
0.023784 -0.014703 0.853000
-0.018060 0.014135 0.856000
-0.026082 0.032440 0.865000
0.007215 -0.014913 0.845000
0.020383 -0.030491 0.843000
-0.021355 0.037606 0.861000
-0.022089 0.024523 0.862000
0.039601 -0.015195 0.861000
-0.009716 0.024636 0.866000
-0.007376 -0.017307 0.843000
-0.026020 -0.011368 0.840000
-0.025827 0.007693 0.845000
0.024305 -0.008443 0.859000
0.034006 -0.022102 0.854000
-0.038270 0.018956 0.851000
-0.022243 -0.014496 0.841000
0.010163 0.005346 0.859000
-0.017912 0.003536 0.849000
0.022518 -0.035780 0.845000
0.010895 0.025203 0.861000
0.000258 -0.019388 0.843000
-0.011540 -0.006204 0.843000
-0.014315 -0.013837 0.843000
-0.024059 -0.000653 0.844000
-0.031355 0.008031 0.844000
-0.019729 0.045629 0.852000
0.010516 0.027619 0.859000
-0.017707 0.012726 0.856000
0.032702 -0.003878 0.866000
-0.020622 0.021280 0.860000
0.038361 -0.009926 0.865000
0.015042 -0.003125 0.855000
-0.011498 0.026775 0.866000
0.015077 -0.001369 0.857000
-0.036999 0.022538 0.854000
0.023028 -0.016070 0.851000
0.044208 0.012446 0.861000
-0.020150 0.013415 0.855000
0.040356 -0.023018 0.862000
-0.006418 0.009181 0.854000
0.032409 -0.031756 0.849000
-0.002205 0.034921 0.856000
0.028391 -0.003161 0.865000
0.020987 0.006473 0.868000
0.047535 -0.008193 0.870000
-0.007029 -0.017653 0.843000
-0.044156 0.001429 0.843000
-0.013511 0.013108 0.858000
0.016136 -0.002779 0.857000
0.011536 0.029989 0.856000
0.009064 -0.008747 0.890000
0.014187 -0.020502 0.846000
0.035973 0.017013 0.859000
0.038094 0.016659 0.859000
0.000259 -0.006922 0.846000
-0.003906 -0.018347 0.843000
-0.037865 0.005240 0.842000
-0.016020 0.036146 0.860000
0.009912 0.017906 0.868000
0.008424 0.024877 0.862000
0.015967 0.017171 0.867000
0.047425 -0.013175 0.868000
0.008943 -0.078631 2.485000
0.025330 -0.035823 0.846000
0.026723 -0.035474 0.846000
-0.027316 0.023377 0.859000
-0.027533 0.002821 0.844000
0.024923 -0.030527 0.844000
0.017628 0.022368 0.861000
-0.009933 0.040112 0.854000
-0.004605 -0.020106 0.844000
0.017321 -0.023287 0.846000
-0.020574 0.018052 0.858000
-0.011129 0.029592 0.865000
0.024946 0.010773 0.869000
-0.014332 -0.015243 0.844000
0.042830 0.004335 0.869000
0.024983 -0.008786 0.858000
-0.034604 0.010849 0.847000
-0.044837 0.025057 0.856000
0.024147 0.014300 0.866000
0.017260 -0.030838 0.843000
0.007910 -0.019087 0.845000
-0.032163 0.010152 0.847000
0.029051 -0.016459 0.853000
0.034478 -0.018299 0.857000
-0.035566 -0.011783 0.845000
-0.020142 -0.012405 0.840000
0.023994 -0.019503 0.848000
0.010021 -0.015646 0.847000
0.039474 0.008597 0.866000
-0.019050 0.009170 0.853000
-0.000092 0.022881 0.867000
0.002725 0.034529 0.855000
0.082751 -0.052103 1.737000
0.016392 -0.013634 0.852000
0.038940 -0.003180 0.870000
-0.018584 0.032758 0.864000
0.009798 0.028646 0.858000
0.024953 -0.029520 0.845000
-0.040021 0.020357 0.851000
0.013096 -0.028062 0.843000
-0.034870 0.007693 0.845000
0.032409 -0.030009 0.849000
-0.016495 0.002136 0.848000
-0.041678 0.007666 0.842000
-0.040277 -0.013935 0.849000
-0.021231 0.041968 0.856000
-0.021525 -0.013096 0.840000
-0.038467 0.000041 0.840000
-0.026052 0.034181 0.864000
-0.022288 0.043025 0.856000
-0.000443 0.007793 0.856000
0.026723 -0.035823 0.846000
-0.035913 0.009432 0.845000
0.012870 -0.007313 0.851000
-0.027830 0.032403 0.864000
-0.023481 0.037606 0.861000
-0.009111 -0.015572 0.843000
0.032759 -0.030359 0.849000
0.000606 -0.022538 0.844000
0.023784 -0.014001 0.853000
0.020877 -0.019876 0.849000
0.036979 0.009666 0.866000
-0.017355 0.041263 0.856000
-0.000436 -0.015919 0.843000
-0.000796 0.033199 0.857000
-0.026051 -0.002728 0.841000
0.012413 0.011475 0.868000
0.023190 0.024733 0.857000
-0.034277 -0.002030 0.839000
-0.048232 0.019510 0.860000
0.005605 0.011435 0.865000
0.020440 -0.005621 0.860000
0.025618 -0.032959 0.844000
0.000622 0.018955 0.867000
-0.032359 -0.012102 0.843000
-0.047137 0.019000 0.853000
-0.011854 0.026419 0.866000
0.024923 -0.033306 0.844000
0.028249 -0.022348 0.850000
-0.005006 0.039012 0.853000
-0.031860 -0.005138 0.839000
-0.000448 0.025320 0.865000
0.016117 -0.004890 0.856000
-0.033405 0.017575 0.852000
-0.031702 0.006989 0.844000
0.037697 0.017699 0.858000
0.015271 0.015762 0.868000
-0.037385 -0.003066 0.839000
0.016700 0.009331 0.868000
-0.026334 -0.006865 0.839000
-0.033518 0.009791 0.846000
-0.020694 0.024906 0.863000
0.007368 0.024551 0.863000
0.042790 0.013154 0.861000
-0.026020 -0.005144 0.840000
-0.012538 0.030625 0.864000
0.006867 -0.016304 0.845000
-0.011887 -0.004816 0.843000
0.008395 0.027619 0.859000
-0.021454 0.029592 0.865000
0.007891 -0.024940 0.843000
0.006867 -0.014913 0.845000
0.042633 -0.012418 0.865000
0.044717 0.009288 0.864000
0.043195 -0.016277 0.862000
0.021900 -0.023343 0.848000
0.026437 -0.025786 0.848000
0.038050 0.018406 0.858000
-0.051183 0.012815 0.862000
-0.024985 0.030269 0.864000
0.022545 -0.036171 0.846000
0.030598 0.021911 0.857000
-0.020933 -0.001695 0.844000
-0.005294 -0.008979 0.843000
0.021402 -0.011936 0.856000
0.018648 -0.031185 0.843000
-0.016378 -0.012781 0.842000
-0.000091 0.006384 0.856000
0.005267 0.015762 0.868000
0.022918 0.020926 0.860000
0.000263 0.029455 0.861000
-0.016412 0.034811 0.862000
0.007768 0.017548 0.868000
-0.028406 -0.004793 0.839000
0.037300 -0.021827 0.857000
0.033381 -0.018983 0.856000
-0.035944 -0.020344 0.854000
-0.001514 0.026713 0.864000
0.036308 0.008607 0.867000
-0.026082 -0.001691 0.842000
0.018066 0.003603 0.865000
0.035102 -0.021776 0.855000
0.032159 0.016344 0.861000
0.005475 -0.011435 0.845000
-0.024487 0.040701 0.859000
0.013112 0.017885 0.867000
0.016604 0.001819 0.863000
-0.013912 0.017761 0.861000
-0.007196 0.016737 0.863000
-0.034522 0.008389 0.845000
0.003073 0.035191 0.854000
-0.008204 0.036020 0.857000
0.014811 0.022039 0.862000
0.045113 0.014521 0.858000
0.011819 -0.006613 0.851000
0.018822 0.006109 0.867000
0.043954 0.002550 0.870000
-0.006508 0.026062 0.866000
0.024576 -0.030180 0.844000
0.025839 -0.004220 0.863000
-0.012211 0.024280 0.866000
-0.004693 0.031899 0.860000
-0.018261 0.003187 0.849000
0.039463 0.017346 0.858000
0.039208 -0.005673 0.868000
-0.023263 0.017596 0.853000
0.020779 -0.035432 0.845000
0.031619 -0.017573 0.856000
0.037917 -0.011324 0.863000
-0.002524 -0.006566 0.845000
0.021830 -0.007029 0.859000
-0.022719 0.039640 0.859000
0.014556 0.010403 0.868000
0.030492 -0.005647 0.864000
0.027776 -0.008776 0.857000
-0.025901 0.022670 0.859000
0.001993 -0.021817 0.843000
0.030140 -0.017181 0.854000
0.029630 0.003266 0.870000
0.012070 -0.028790 0.844000
0.033655 -0.022453 0.854000
-0.023226 -0.009973 0.839000
0.020086 0.021988 0.860000
0.016604 0.020644 0.863000
0.038627 0.000043 0.871000
-0.011405 0.013477 0.859000
0.011903 0.002159 0.857000
0.014707 0.028227 0.856000
0.015178 -0.027021 0.843000
-0.028094 -0.003416 0.840000
0.038405 0.009310 0.866000
-0.024523 0.010163 0.848000
0.024231 0.005050 0.869000
-0.011553 -0.016285 0.844000
-0.010773 0.029236 0.865000
0.004904 0.014673 0.867000
0.003109 0.024935 0.864000
-0.010368 0.015635 0.861000
0.018713 -0.000667 0.862000
0.018018 -0.035126 0.846000
0.045731 0.009633 0.863000
-0.029300 0.019045 0.855000
-0.007814 0.007766 0.853000
0.040263 0.014555 0.860000
-0.045143 0.007666 0.842000
-0.023531 0.013336 0.850000
0.038985 0.002911 0.871000
0.016900 -0.000665 0.860000
0.254850 -0.186117 5.591000
0.031742 0.001116 0.869000
0.023937 -0.027814 0.846000
-0.022183 0.011263 0.852000
0.035001 0.000401 0.870000
0.044006 0.008933 0.864000
0.027123 0.008279 0.870000
0.014068 0.003228 0.860000
0.003034 -0.019041 0.843000
-0.002217 0.030164 0.861000
0.029683 -0.023775 0.851000
-0.032435 0.008736 0.845000
-0.013605 -0.009315 0.842000
0.022826 0.009353 0.870000
0.045534 -0.012076 0.866000
0.026562 -0.015037 0.852000
-0.019228 0.036897 0.861000
-0.000089 -0.018694 0.843000
-0.022522 0.033508 0.865000
0.022059 0.012904 0.868000
-0.026554 -0.016672 0.846000
0.007037 0.020716 0.866000
-0.031763 0.020804 0.855000
0.022391 0.013960 0.867000
-0.051478 0.011737 0.861000
0.038403 0.018406 0.858000
-0.018605 0.029948 0.865000
0.011903 0.001453 0.857000
0.014271 -0.013268 0.851000
-0.018605 0.031372 0.865000
-0.020670 0.023103 0.862000
0.019581 0.007912 0.869000
-0.033484 0.020077 0.854000
0.046247 -0.017066 0.866000
-0.015223 0.010599 0.855000
-0.011887 -0.008285 0.843000
0.013603 -0.005224 0.853000
0.034912 -0.015867 0.859000
-0.040638 0.006973 0.842000
-0.023600 -0.006527 0.840000
0.009290 -0.021148 0.844000
-0.019161 0.039594 0.858000
-0.008764 -0.015919 0.843000
-0.020386 0.027100 0.865000
0.018980 0.024409 0.858000
-0.030384 -0.015975 0.846000
-0.033558 -0.015994 0.847000
-0.024190 0.038669 0.861000
-0.025012 -0.004112 0.841000
-0.014871 0.010599 0.855000
-0.007943 0.023594 0.867000
-0.007533 0.014217 0.861000
0.045586 0.005039 0.867000
-0.027475 0.035248 0.864000
-0.019867 -0.014878 0.843000
-0.037216 -0.008979 0.843000
0.024573 -0.011232 0.856000
-0.024813 0.005613 0.846000
-0.046695 0.012910 0.845000
0.006178 -0.011101 0.846000
-0.012974 -0.016672 0.846000
-0.036126 -0.017450 0.850000
-0.031280 0.002467 0.842000
0.014536 -0.021546 0.846000
0.014937 -0.017430 0.849000
0.034872 -0.016908 0.858000
-0.022858 0.010900 0.851000
0.019175 -0.017821 0.851000
-0.030169 -0.008947 0.840000
0.000979 0.021096 0.867000
0.012549 -0.005224 0.853000
0.046603 0.005746 0.866000
0.003457 0.027006 0.862000
-0.045490 0.005240 0.842000
0.025270 -0.032264 0.844000
0.028249 -0.019549 0.850000
0.012042 0.010034 0.867000
-0.037216 0.006981 0.843000
-0.002572 0.012800 0.861000
-0.034972 0.023647 0.856000
0.006989 0.027297 0.860000
0.028834 -0.009129 0.857000
-0.043359 0.005580 0.841000
-0.026268 0.012258 0.848000
-0.005432 0.018200 0.865000
-0.027411 0.016854 0.851000
0.041824 -0.023400 0.863000
0.020630 0.005759 0.868000
-0.022562 -0.006873 0.840000
-0.010884 0.000042 0.846000
-0.033320 0.001080 0.841000
-0.012864 0.018491 0.862000
0.005213 0.028680 0.859000
-0.005035 0.034297 0.858000
0.038494 -0.004601 0.868000
-0.005781 0.017467 0.864000
0.017711 -0.020201 0.848000
-0.017624 0.007757 0.852000
-0.038813 0.000041 0.840000
0.005968 0.012518 0.866000
0.005261 0.020383 0.867000
0.015764 0.027875 0.856000
-0.014332 -0.002737 0.844000
-0.036168 -0.019222 0.851000
0.021011 0.012204 0.869000
0.016238 -0.031222 0.844000
0.021500 -0.025725 0.846000
0.007334 0.028326 0.859000
0.036623 -0.007086 0.866000
-0.011540 -0.009673 0.843000
-0.022261 0.043678 0.855000
0.043445 -0.010306 0.867000
0.046711 -0.010317 0.868000
-0.002930 0.013524 0.862000
0.013921 -0.009765 0.851000
-0.007915 0.029202 0.864000
-0.016132 0.026775 0.866000
0.013507 -0.018783 0.847000
-0.046490 0.020780 0.854000
0.038005 0.010367 0.865000
0.023812 -0.012963 0.854000
-0.014672 0.031336 0.864000
-0.033875 0.021508 0.855000
0.023078 0.015369 0.866000
0.000952 -0.012796 0.843000
-0.015366 0.021710 0.863000
0.006339 0.017548 0.868000
0.043039 -0.011007 0.866000
0.011093 -0.009742 0.849000
0.026881 -0.016770 0.851000
0.027423 0.023322 0.857000
-0.017438 -0.005857 0.843000
0.031673 -0.030672 0.848000
0.019310 -0.008423 0.857000
-0.020166 -0.007227 0.841000
-0.028061 -0.009627 0.839000
-0.011090 0.017427 0.862000
0.000258 -0.019041 0.843000
-0.014350 0.025706 0.866000
-0.031206 -0.000996 0.840000
-0.024898 0.024849 0.861000
-0.020878 0.016953 0.856000
-0.046896 0.020453 0.855000
-0.030897 0.000042 0.841000
0.044413 -0.013130 0.865000
0.015543 -0.031917 0.844000
0.007750 0.011449 0.866000
-0.015338 -0.008622 0.842000
0.036057 -0.013069 0.861000
-0.043565 0.013605 0.845000
0.034126 -0.017947 0.857000
0.005469 -0.014548 0.844000
-0.027119 0.030269 0.864000
-0.012538 0.021023 0.864000
-0.007741 -0.019434 0.845000
-0.043268 0.000042 0.846000
0.004181 0.012503 0.865000
0.037150 0.004698 0.870000
0.014556 0.016476 0.868000
0.016431 -0.010854 0.854000
0.026780 0.020902 0.859000
-0.045275 0.019656 0.851000
0.024051 -0.016751 0.850000
0.000972 0.011028 0.861000
-0.028178 0.017596 0.853000
-0.024667 0.018649 0.853000
-0.028376 0.024437 0.859000
-0.013945 0.020644 0.863000
0.024249 -0.010892 0.857000
-0.031503 -0.017758 0.848000
0.018150 0.013277 0.869000
-0.038650 0.009073 0.844000
-0.052005 0.006752 0.858000
0.028834 -0.009481 0.857000
0.015042 -0.003829 0.855000
-0.039506 0.025027 0.855000
-0.023863 0.026297 0.862000
0.022236 0.020596 0.861000
0.038538 -0.003534 0.869000
0.009197 0.013976 0.868000
-0.025577 0.023758 0.860000
-0.000089 -0.013837 0.843000
-0.027252 0.021206 0.857000
-0.021000 0.022368 0.861000
-0.011000 0.010951 0.855000
-0.050120 0.010187 0.850000
0.014914 0.015047 0.868000
0.021805 -0.008786 0.858000
-0.014706 0.026419 0.866000
-0.036168 -0.018872 0.851000
0.010553 0.006429 0.862000
0.021377 -0.012274 0.855000
0.040758 0.011764 0.863000
0.011328 0.018242 0.867000
0.009455 0.027619 0.859000
0.021727 0.007196 0.869000
0.024809 -0.015387 0.852000
0.034128 -0.005304 0.866000
-0.039764 0.022511 0.853000
-0.021633 0.039947 0.858000
-0.007376 -0.012449 0.843000
-0.044732 0.023592 0.854000
0.002687 -0.020776 0.843000
-0.030851 0.026205 0.859000
0.026181 -0.016420 0.851000
-0.017395 0.038887 0.858000
-0.020291 0.037252 0.861000
0.007750 0.021429 0.866000
-0.029437 0.025498 0.859000
0.117777 -0.080056 2.706000
-0.004374 0.021810 0.867000
-0.021206 0.042974 0.855000
-0.021181 0.015508 0.854000
0.002690 -0.012464 0.844000
-0.014992 -0.011741 0.842000
-0.015205 0.008829 0.854000
0.038361 0.010011 0.865000
-0.019960 0.023458 0.862000
0.022287 -0.002089 0.863000
-0.021181 0.013399 0.854000
0.010021 -0.011811 0.847000
-0.005023 0.035978 0.856000
-0.008417 -0.012102 0.843000
-0.047503 0.013986 0.847000
0.030491 -0.018938 0.854000
0.040048 -0.023755 0.863000
-0.019469 0.041968 0.856000
-0.016222 0.044928 0.852000
0.012461 -0.018783 0.847000
0.034994 -0.012360 0.861000
0.018713 -0.001377 0.862000
-0.028013 0.013305 0.848000
-0.022166 0.029948 0.865000
0.007197 -0.021470 0.843000
-0.023563 0.034537 0.864000
-0.031169 -0.005138 0.839000
-0.039485 -0.012508 0.847000
-0.005369 0.037696 0.855000
-0.025014 0.031728 0.865000
-0.050063 0.012711 0.855000
-0.019651 0.033825 0.864000
0.011402 -0.020154 0.846000
0.041399 -0.006037 0.869000
-0.020386 0.028168 0.865000
0.009511 0.022801 0.864000
0.002687 -0.019041 0.843000
0.007938 -0.009382 0.848000
0.014134 0.021023 0.864000
-0.017436 0.018094 0.860000
0.035951 0.010391 0.867000
0.005469 -0.014201 0.844000
0.026673 0.001113 0.867000
0.001648 -0.011074 0.844000
0.040664 -0.015904 0.861000
-0.013219 0.018491 0.862000
-0.002916 0.033237 0.858000
0.034881 0.010034 0.867000
0.038316 -0.010270 0.864000
0.013438 0.020336 0.865000
0.039693 0.012119 0.863000
0.038896 -0.003534 0.869000
0.011805 -0.008704 0.850000
0.029954 0.001474 0.869000
0.008626 -0.010765 0.847000
-0.003906 -0.014531 0.843000
-0.039764 0.023213 0.853000
0.026181 -0.015719 0.851000
0.024663 -0.025755 0.847000
0.001648 -0.015938 0.844000
-0.042371 0.002814 0.842000
-0.006848 0.028491 0.864000
-0.001157 0.027037 0.863000
0.008585 -0.024593 0.843000
-0.028923 0.007684 0.844000
0.019801 -0.001023 0.863000
0.031767 0.017740 0.860000
0.035827 -0.008847 0.864000
-0.007112 0.006713 0.853000
-0.016631 0.010599 0.855000
0.027647 0.015334 0.864000
0.021703 -0.014369 0.854000
-0.031552 -0.000304 0.840000
0.296323 -0.189136 6.220000
-0.031386 0.029558 0.864000
-0.002207 0.033904 0.857000
-0.019543 -0.003085 0.844000
0.036637 -0.018321 0.858000
0.019663 -0.009129 0.857000
0.003433 0.005327 0.856000
-0.036562 0.019329 0.852000
0.012696 0.021710 0.863000
0.036242 -0.020416 0.857000
-0.013952 -0.011395 0.842000
-0.016298 0.012373 0.856000
-0.026585 0.011197 0.847000
-0.022881 -0.007901 0.839000
0.014204 -0.019829 0.847000
0.039208 -0.005316 0.868000
0.006157 -0.020429 0.843000
-0.006515 0.023594 0.867000
0.025333 0.008637 0.870000
-0.025282 0.037295 0.862000
-0.044156 0.010797 0.843000
-0.007814 0.041118 0.853000
-0.051944 0.007802 0.857000
-0.028957 -0.016304 0.845000
-0.034277 -0.005138 0.839000
-0.039252 0.006626 0.842000
0.023218 -0.009139 0.858000
-0.011854 0.027131 0.866000
-0.030971 0.005246 0.843000
0.016136 -0.002074 0.857000
0.024860 0.000043 0.866000
-0.033281 0.000041 0.840000
-0.033327 0.014735 0.850000
0.031767 0.018448 0.860000
0.043903 -0.007110 0.869000
0.027071 -0.008776 0.857000
0.019198 -0.016089 0.852000
0.028556 0.005414 0.870000
0.003816 0.025617 0.863000
0.026469 -0.023719 0.849000
0.024008 -0.006336 0.861000
-0.012958 -0.000306 0.845000
-0.008271 0.019245 0.864000
-0.003567 -0.005523 0.845000
0.048872 0.009267 0.862000
0.037785 -0.015886 0.860000
-0.004600 -0.014878 0.843000
-0.036826 -0.007583 0.842000
0.019310 0.026144 0.857000
-0.035218 0.008041 0.845000
-0.003614 0.035626 0.856000
0.003037 -0.011074 0.844000
-0.003212 -0.016266 0.843000
-0.010636 0.040464 0.854000
-0.022089 0.036940 0.862000
0.035225 -0.016908 0.858000
0.025187 -0.000313 0.865000
-0.039578 0.016465 0.849000
-0.009230 0.039761 0.854000
0.001333 0.014283 0.865000
-0.014332 -0.002043 0.844000
-0.018698 0.046385 0.853000
0.011617 0.005719 0.862000
-0.035776 0.015785 0.850000
-0.024523 0.009814 0.848000
0.001671 0.033512 0.856000
0.046049 -0.008541 0.869000
0.029928 -0.035209 0.848000
0.013127 0.016476 0.868000
-0.027815 -0.000305 0.842000
-0.020537 -0.014167 0.842000
0.009144 0.023485 0.863000
0.043398 0.014184 0.859000
0.019207 -0.048549 1.270000
0.005586 0.025587 0.862000
-0.007029 -0.010714 0.843000
-0.047225 0.022368 0.861000
0.024975 0.008995 0.870000
0.001646 -0.020082 0.843000
-0.046916 0.016116 0.849000
-0.025161 0.005613 0.846000
-0.039485 0.013986 0.847000
-0.032896 -0.004102 0.839000
-0.027475 0.036670 0.864000
0.006519 -0.012826 0.845000
-0.002581 0.014978 0.864000
0.038448 -0.020110 0.859000
0.029306 -0.076150 1.992000
0.008116 0.013246 0.867000
-0.006335 -0.012102 0.843000
0.036948 -0.020063 0.857000
0.021907 -0.003860 0.862000
0.013872 -0.018107 0.848000
0.014862 0.019624 0.865000
0.024982 -0.036171 0.846000
-0.051005 0.012063 0.859000
-0.040962 -0.007485 0.871000
0.024923 -0.032264 0.844000
-0.026428 -0.001345 0.842000
0.008069 0.024877 0.862000
-0.005035 0.033590 0.858000
0.040758 -0.013455 0.863000
-0.022666 0.019089 0.857000
-0.006793 0.035315 0.857000
0.044567 0.004330 0.868000
-0.018501 -0.003779 0.844000
-0.030805 0.012258 0.848000
0.010369 -0.017737 0.847000
0.029104 0.013571 0.865000
-0.038742 0.011881 0.846000
-0.001510 0.029135 0.862000
0.006681 0.002538 0.866000
-0.010698 0.013477 0.859000
-0.006335 -0.010367 0.843000
-0.000092 0.021096 0.867000
-0.015648 0.016306 0.859000
0.007013 0.024196 0.863000
0.019938 0.010058 0.869000
0.018935 -0.010175 0.856000
-0.044104 0.002814 0.842000
-0.024956 0.036983 0.863000
-0.000783 -0.012796 0.843000
-0.044523 0.000742 0.850000
0.034364 -0.009192 0.863000
-0.045084 0.022889 0.854000
-0.001479 -0.022190 0.844000
0.025455 0.017782 0.862000
0.026088 -0.025437 0.848000
0.021527 0.020950 0.861000
-0.037746 0.023972 0.855000
0.033569 0.001117 0.870000
0.013097 0.008241 0.866000
0.004079 -0.011769 0.844000
0.009070 0.031046 0.856000
-0.040865 0.024647 0.854000
0.028983 -0.020623 0.851000
-0.025221 0.012258 0.848000
-0.004369 0.019290 0.866000
-0.004369 0.019646 0.866000
0.042570 -0.001749 0.871000
-0.031860 -0.004448 0.839000
-0.026680 -0.008246 0.839000
0.024692 -0.022994 0.848000
0.011302 0.008231 0.865000
-0.029253 0.033825 0.864000
-0.042124 0.011852 0.844000
0.019201 0.007545 0.868000
-0.039945 0.007319 0.842000
0.012608 0.028613 0.857000
0.000258 -0.012796 0.843000
-0.012263 -0.001349 0.845000
0.000605 -0.013837 0.843000
-0.010871 -0.017695 0.845000
0.003807 0.028038 0.861000
-0.030143 0.013670 0.849000
0.007919 -0.012145 0.846000
0.023163 0.025761 0.856000
-0.028262 -0.016652 0.845000
0.038851 -0.004959 0.868000
-0.003971 0.034257 0.857000
-0.023226 -0.008937 0.839000
-0.017082 0.036500 0.860000
-0.012480 0.015617 0.860000
-0.018961 0.027456 0.865000
0.005625 0.017906 0.868000
0.004079 -0.015243 0.844000
0.029017 -0.018193 0.852000
0.012170 -0.006613 0.851000
0.027899 -0.021648 0.850000
0.002763 0.015744 0.867000
0.014501 -0.024275 0.844000
0.022184 -0.007029 0.859000
-0.002865 -0.015572 0.843000
-0.020526 0.015544 0.856000
0.022132 -0.009834 0.857000
-0.037044 0.012243 0.847000
-0.009805 -0.007939 0.843000
0.040994 0.005759 0.868000
0.019468 0.018179 0.864000
-0.020454 0.010926 0.853000
0.040094 -0.024850 0.864000
0.017260 -0.031185 0.843000
0.045125 0.007163 0.865000
-0.013066 0.007757 0.852000
0.046689 0.011028 0.861000
0.010718 -0.018086 0.847000
0.019736 -0.025694 0.845000
0.005573 0.027651 0.860000
-0.006463 0.032253 0.860000
0.004133 0.035584 0.855000
-0.027827 0.017947 0.853000
-0.012013 0.008809 0.852000
-0.032320 -0.010355 0.842000
-0.001512 0.027748 0.863000
0.011184 0.030341 0.856000
0.007394 0.011449 0.866000
0.036327 -0.017281 0.859000
0.004786 -0.010404 0.846000
0.010345 -0.019782 0.845000
-0.025389 -0.001345 0.842000
-0.000443 0.008498 0.856000
-0.030842 0.012971 0.849000
-0.024637 -0.005490 0.840000
-0.022027 0.001086 0.846000
-0.038859 0.005234 0.841000
0.014150 0.005383 0.865000
-0.033972 0.000387 0.840000
0.032098 -0.026546 0.850000
-0.016050 -0.013490 0.843000
0.020511 0.019578 0.863000
-0.026423 0.018298 0.853000
-0.012379 0.009521 0.853000
-0.043626 0.022862 0.853000
-0.014689 0.023896 0.865000
0.016450 -0.008052 0.855000
-0.035313 -0.003412 0.839000
0.002741 0.029067 0.860000
-0.023572 -0.010318 0.839000
0.025307 0.023322 0.857000
-0.013250 0.021735 0.864000
0.029562 0.001115 0.868000
-0.008951 0.031936 0.861000
-0.032435 -0.014218 0.845000
-0.002575 0.029135 0.862000
-0.004616 -0.004137 0.846000
-0.015447 0.003183 0.848000
-0.031375 0.018671 0.854000
0.018188 -0.012260 0.854000
0.036141 -0.010258 0.863000
0.035237 0.010034 0.867000
-0.028529 0.017596 0.853000
0.008585 -0.021470 0.843000
-0.020951 0.019841 0.859000
-0.011745 0.013108 0.858000
0.015077 0.027555 0.857000
0.039163 -0.007451 0.867000
-0.021073 0.034537 0.864000
-0.018144 0.037562 0.860000
0.018316 0.023404 0.860000
-0.011246 0.001436 0.847000
-0.029129 0.014735 0.850000
-0.037702 0.022538 0.854000
0.044717 -0.015604 0.864000
0.022465 -0.031879 0.843000
0.037206 -0.010968 0.863000
0.030777 0.015653 0.862000
0.033926 -0.025206 0.852000
-0.016417 -0.004822 0.844000
-0.018918 0.024551 0.863000
0.023078 0.002181 0.866000
-0.040984 -0.000652 0.842000
-0.032078 0.019374 0.854000
0.021011 0.012919 0.869000
0.031324 -0.032068 0.848000
0.019536 0.005039 0.867000
-0.024494 0.006317 0.847000
0.016392 -0.013985 0.852000
-0.025419 -0.000999 0.843000
-0.007162 0.033983 0.859000
0.041853 0.002194 0.871000
0.014137 -0.026675 0.843000
0.019201 0.006831 0.868000
0.030527 -0.014386 0.855000
-0.034174 0.008041 0.845000
-0.003906 -0.015225 0.843000
0.033453 -0.002812 0.867000
-0.009111 -0.016266 0.843000
0.010667 -0.025981 0.843000
-0.012234 -0.004122 0.843000
-0.020386 0.031016 0.865000
0.038448 -0.019756 0.859000
-0.011854 0.025349 0.866000
0.023909 -0.035780 0.845000
-0.022965 0.043678 0.855000
-0.034849 0.020054 0.853000
-0.019520 -0.004122 0.843000
-0.010061 0.029236 0.865000
0.016488 0.027202 0.857000
-0.006478 0.030909 0.862000
-0.048925 0.020003 0.866000
0.043752 0.014891 0.859000
-0.014992 -0.008276 0.842000
0.014707 -0.002072 0.856000
0.010394 -0.009043 0.849000
0.012284 0.003931 0.859000
0.040731 0.004698 0.870000
-0.008868 0.041469 0.853000
-0.007045 -0.003436 0.845000
-0.010014 0.014926 0.861000
-0.006335 -0.011061 0.843000
-0.021032 0.003183 0.848000
0.026377 0.009700 0.869000
-0.019173 -0.005163 0.843000
0.017607 -0.031532 0.843000
-0.024133 0.021962 0.859000
0.011930 0.004285 0.859000
-0.010152 -0.006898 0.843000
-0.029823 -0.002379 0.840000
-0.017172 0.000390 0.847000
0.026150 -0.017450 0.850000
0.010756 -0.008354 0.850000
-0.020742 0.028524 0.865000
-0.030824 -0.006865 0.839000
0.047108 -0.020397 0.903000
-0.029825 0.025882 0.860000
0.024923 -0.030875 0.844000
-0.028854 -0.013127 0.842000
-0.012928 -0.007939 0.843000
0.035001 0.005772 0.870000
0.002763 0.021453 0.867000
0.024780 -0.015719 0.851000
0.014901 -0.019829 0.847000
0.022132 0.026849 0.857000
-0.014234 0.014891 0.859000
-0.043422 0.018562 0.849000
-0.023282 -0.013804 0.841000
0.041421 -0.015568 0.862000
-0.016767 0.020620 0.862000
0.014117 0.021710 0.863000
-0.045411 0.015729 0.847000
0.019157 0.016082 0.866000
-0.029721 0.022264 0.857000
0.008943 -0.021496 0.844000
0.027519 0.019510 0.860000
0.046300 -0.012090 0.867000
0.003803 0.029067 0.860000
-0.026428 -0.014514 0.842000
-0.017181 0.031016 0.865000
-0.035692 0.012956 0.848000
0.034599 -0.013408 0.860000
-0.027403 -0.011022 0.840000
-0.022851 0.028491 0.864000
0.026765 0.008995 0.870000
-0.012595 -0.002390 0.844000
-0.012219 -0.011741 0.842000
0.019491 0.017132 0.865000
0.040094 -0.011692 0.864000
-0.011246 0.002482 0.847000
-0.024841 0.040701 0.859000
0.020226 0.003963 0.866000
0.019782 -0.022966 0.847000
0.016821 0.028227 0.856000
-0.018089 -0.012073 0.841000
-0.019474 -0.007227 0.841000
0.012946 0.029637 0.856000
0.012667 0.023785 0.861000
0.013806 -0.030527 0.844000
0.028733 -0.013314 0.854000
0.028326 0.016026 0.863000
-0.026670 0.040087 0.861000
-0.022235 0.045384 0.854000
0.004142 0.032140 0.857000
-0.022089 0.036230 0.862000
-0.021810 0.029592 0.865000
-0.026743 -0.012766 0.841000
0.019513 0.003607 0.866000
0.018865 0.008985 0.869000
-0.036869 -0.008979 0.843000
0.030528 -0.004586 0.865000
0.041352 -0.007459 0.868000
0.025861 -0.015037 0.852000
0.041042 0.005050 0.869000
0.015060 0.028932 0.856000
-0.040467 0.023213 0.853000
-0.001498 0.035936 0.855000
0.017174 0.029284 0.856000
0.011671 0.008954 0.866000
-0.006508 0.026419 0.866000
0.019365 -0.027054 0.844000
0.022223 -0.024361 0.847000
0.036792 -0.001389 0.870000
-0.034498 0.020054 0.853000
0.013810 0.007884 0.866000
0.013970 -0.004176 0.854000
-0.033209 -0.015994 0.847000
0.005816 -0.026359 0.844000
-0.014672 0.023157 0.864000
-0.034808 -0.020647 0.852000
-0.025607 0.039023 0.861000
-0.001160 0.024964 0.865000
-0.022697 0.000390 0.845000
-0.016728 0.036146 0.860000
-0.044121 0.018911 0.849000
-0.046293 0.011852 0.844000
-0.022666 0.042369 0.857000
0.024838 -0.014352 0.853000
0.011171 -0.001717 0.855000
-0.008636 0.028168 0.865000
-0.000785 -0.023608 0.845000
-0.013219 0.032683 0.862000
0.029003 0.016363 0.862000
0.045837 0.007163 0.865000
-0.015241 0.011669 0.856000
-0.014451 0.005996 0.851000
-0.044903 0.012547 0.844000
0.024429 -0.015719 0.851000
0.025333 0.009353 0.870000
-0.028797 0.028038 0.861000
-0.034705 -0.008266 0.841000
-0.026807 -0.014531 0.843000
0.043145 0.012800 0.861000
0.021197 0.019556 0.862000
0.047838 -0.013191 0.869000
-0.022804 0.006681 0.849000
0.035348 -0.012715 0.861000
-0.046323 0.024935 0.864000
0.018865 0.010415 0.869000
0.022459 -0.011936 0.856000
0.006867 -0.017695 0.845000
0.027679 0.013927 0.865000
0.042212 -0.001749 0.871000
0.011917 0.027234 0.858000
-0.024953 -0.007901 0.839000
0.038493 -0.017302 0.860000
-0.026268 0.012956 0.848000
-0.004671 0.010259 0.856000
0.005599 0.024224 0.864000
0.006681 0.021785 0.866000
-0.008527 0.010235 0.854000
-0.039897 0.002811 0.841000
0.015196 -0.031917 0.844000
0.025750 0.020572 0.860000
-0.040936 0.002811 0.841000
-0.000092 0.018242 0.867000
0.012810 -0.018434 0.847000
0.018995 -0.030144 0.843000
0.003461 0.010698 0.863000
0.043095 0.013139 0.860000
0.021011 0.007196 0.869000
0.048251 0.006846 0.870000
0.017301 -0.025347 0.845000
0.002342 -0.015590 0.844000
0.018167 -0.014352 0.853000
0.020431 -0.035432 0.845000
-0.047335 0.005252 0.844000
-0.039321 0.020357 0.851000
-0.036349 -0.000995 0.839000
-0.023072 0.002479 0.846000
0.001675 0.031118 0.858000
0.040778 0.001477 0.871000
-0.041773 0.020707 0.851000
-0.001500 0.034921 0.856000
-0.000804 0.015351 0.865000
-0.000447 0.027393 0.863000
0.018323 -0.032612 0.844000
0.044717 -0.019871 0.864000
