-0.001456 0.033901 0.831000
0.013037 -0.007053 0.862000
-0.009013 0.004504 0.834000
0.030843 -0.004176 0.854000
-0.014836 -0.039279 0.853000
0.005872 -0.007673 0.852000
0.009798 -0.005255 0.858000
-0.033608 -0.023217 0.831000
0.002331 0.009376 0.840000
-0.014167 -0.041482 0.855000
0.014003 -0.030257 0.856000
0.004723 0.030628 0.835000
-0.027142 -0.007835 0.832000
0.022947 0.039481 0.848000
0.004876 -0.026566 0.862000
-0.005768 -0.042886 0.862000
0.024809 0.033706 0.852000
0.013391 -0.015213 0.862000
-0.006610 0.010682 0.834000
-0.005244 0.007258 0.835000
0.010198 -0.016987 0.862000
0.014796 0.038809 0.841000
0.000614 -0.017221 0.856000
-0.008223 -0.038494 0.859000
0.009466 -0.027920 0.860000
0.000255 0.028155 0.833000
0.001326 -0.027244 0.861000
-0.024060 -0.012971 0.832000
-0.005041 -0.033191 0.859000
0.018167 -0.030853 0.853000
0.015113 0.002164 0.859000
-0.000772 0.035270 0.831000
-0.004349 -0.040403 0.862000
0.004166 -0.024792 0.862000
-0.021053 -0.015080 0.835000
0.009626 0.023288 0.843000
-0.022084 -0.017486 0.835000
0.011262 -0.019825 0.862000
0.005573 -0.015532 0.860000
-0.027827 -0.022217 0.832000
0.005761 0.030321 0.836000
0.010032 0.013654 0.848000
0.000256 0.015544 0.837000
-0.017939 0.007593 0.834000
0.016585 -0.010601 0.862000
0.007661 -0.041178 0.856000
-0.016963 -0.044597 0.854000
0.024372 0.040576 0.849000
-0.024745 -0.015026 0.832000
-0.005554 0.025320 0.830000
-0.031289 -0.011959 0.833000
0.012284 -0.001725 0.859000
-0.034571 -0.082268 1.493000
0.003016 0.021770 0.838000
0.003688 0.040202 0.834000
-0.003994 -0.043951 0.862000
0.010591 0.037936 0.837000
-0.002824 0.026035 0.831000
0.024838 -0.019267 0.853000
-0.019150 -0.029069 0.842000
-0.014849 0.011369 0.834000
0.031730 0.010649 0.859000
-0.006945 0.032954 0.833000
0.006619 -0.050456 0.858000
-0.005250 0.003138 0.836000
-0.001484 -0.012857 0.847000
-0.007087 -0.020249 0.850000
0.012764 0.049369 0.844000
0.009466 -0.028274 0.860000
0.015875 -0.006344 0.862000
0.015448 -0.021146 0.858000
0.013986 -0.031277 0.855000
0.012343 0.047695 0.839000
-0.017562 -0.035600 0.849000
0.027359 -0.008052 0.855000
0.012255 -0.029939 0.857000
-0.023005 -0.009878 0.831000
0.016625 0.022675 0.846000
0.012520 0.014403 0.851000
0.022003 -0.025907 0.852000
-0.007297 0.008279 0.834000
0.021780 -0.013009 0.857000
-0.003534 0.004864 0.837000
-0.024774 -0.002702 0.833000
0.001683 -0.037564 0.862000
0.026273 -0.014017 0.854000
0.008268 0.016755 0.846000
0.011944 -0.022965 0.860000
-0.024774 -0.018473 0.833000
0.010528 -0.026858 0.860000
-0.007649 0.034408 0.835000
0.021197 0.001107 0.862000
0.031972 -0.012289 0.856000
0.029997 0.027297 0.860000
-0.009013 0.031278 0.834000
0.004757 0.011810 0.841000
-0.003182 0.013101 0.835000
-0.002482 0.033559 0.831000
-0.006016 -0.015994 0.847000
0.003714 0.011796 0.840000
-0.024089 -0.001330 0.833000
-0.009446 -0.013820 0.842000
-0.029132 -0.033494 0.840000
-0.005306 -0.013870 0.845000
-0.020046 -0.015442 0.836000
-0.010043 -0.000302 0.834000
-0.033306 -0.024957 0.832000
-0.035103 -0.027420 0.834000
-0.017376 -0.019665 0.840000
-0.016889 0.007241 0.833000
0.007005 -0.020180 0.862000
-0.002885 -0.016032 0.849000
0.000945 0.012443 0.837000
0.033183 0.013847 0.860000
0.012373 0.031886 0.841000
0.003433 -0.013346 0.856000
0.029003 0.014943 0.862000
0.019709 -0.012332 0.859000
0.003023 0.016291 0.840000
0.012012 0.031849 0.840000
0.040590 0.008107 0.852000
-0.014332 -0.021496 0.844000
0.008869 0.028979 0.837000
-0.014903 -0.009949 0.837000
-0.024461 -0.018838 0.834000
0.007845 0.046604 0.838000
-0.015898 -0.007520 0.835000
0.034979 -0.002413 0.852000
-0.008681 -0.001677 0.835000
0.018670 0.007122 0.860000
0.009017 -0.001359 0.851000
0.019571 -0.026991 0.853000
-0.035746 -0.023958 0.833000
-0.025057 -0.012614 0.831000
0.011388 0.021952 0.845000
0.023269 0.041178 0.847000
0.005927 -0.015886 0.860000
0.019423 -0.001731 0.862000
-0.013290 -0.027748 0.844000
0.027841 0.001457 0.859000
0.026874 0.013170 0.862000
-0.007984 0.033681 0.834000
-0.020734 -0.015786 0.836000
0.013050 0.028045 0.840000
-0.010374 0.017184 0.833000
0.011249 -0.008108 0.861000
-0.003227 -0.014251 0.847000
-0.019404 -0.017549 0.838000
-0.014146 0.009298 0.833000
0.000618 -0.038274 0.862000
0.013360 -0.002081 0.860000
0.003697 0.028600 0.836000
-0.016631 -0.045001 0.855000
0.021502 -0.005267 0.860000
-0.011139 0.039062 0.839000
0.015340 -0.038531 0.852000
0.009060 -0.003477 0.855000
0.015820 0.004992 0.859000
-0.013274 -0.016613 0.843000
0.000278 -0.009693 0.910000
-0.016903 -0.039537 0.851000
0.044656 0.010612 0.856000
-0.009770 -0.011713 0.840000
0.014639 -0.038531 0.852000
0.020818 -0.004564 0.861000
0.017628 0.036863 0.844000
-0.020958 -0.034389 0.845000
0.021527 -0.003856 0.861000
0.019876 -0.032182 0.851000
-0.001805 0.021667 0.834000
0.015830 -0.043148 1.019000
-0.003572 -0.012842 0.846000
-0.015898 -0.007863 0.835000
0.033891 0.013139 0.860000
0.000597 0.031545 0.832000
0.014776 -0.019071 0.860000
0.015025 -0.034404 0.854000
0.006215 -0.006263 0.851000
0.001630 0.025129 0.835000
0.013774 0.033657 0.842000
0.020902 0.031528 0.850000
-0.018261 -0.038745 0.849000
0.000960 -0.013252 0.850000
0.027327 -0.011206 0.854000
0.014305 -0.037172 0.853000
-0.017954 -0.041989 0.851000
0.012270 -0.028562 0.858000
0.023245 -0.004907 0.859000
0.016098 0.012359 0.855000
0.035288 -0.004161 0.851000
0.003084 -0.014419 0.857000
0.013251 0.010223 0.853000
0.015394 -0.031277 0.855000
0.013905 0.018234 0.850000
0.003102 -0.025147 0.862000
-0.003508 0.027403 0.831000
-0.022084 -0.016799 0.835000
0.016743 0.019329 0.852000
-0.004894 0.014801 0.834000
0.017878 0.014487 0.856000
0.032286 0.000394 0.855000
0.021152 0.038692 0.846000
0.030843 -0.005582 0.854000
-0.027305 -0.030963 0.837000
0.016230 -0.008117 0.862000
-0.012774 0.006555 0.833000
-0.027093 -0.040986 0.852000
0.044447 0.014419 0.852000
-0.012774 0.002784 0.833000
-0.011746 0.005184 0.833000
-0.027782 -0.033880 0.841000
0.018605 -0.019005 0.857000
-0.000433 0.008998 0.837000
0.009832 -0.010943 0.861000
0.016900 -0.014824 0.860000
0.016841 -0.022179 0.857000
0.042393 0.014436 0.853000
-0.022717 -0.013330 0.833000
0.027229 0.011041 0.862000
-0.011690 -0.036161 0.854000
0.008069 -0.025147 0.862000
-0.034634 -0.021164 0.831000
0.010895 -0.009171 0.861000
0.009914 0.030738 0.838000
0.002392 -0.027985 0.862000
-0.001456 0.030481 0.831000
-0.027451 -0.012272 0.831000
0.005553 -0.042637 0.857000
0.004411 0.010772 0.841000
0.022003 0.030199 0.852000
-0.019655 0.004504 0.834000
-0.030872 -0.024585 0.831000
-0.025896 -0.025421 0.836000
0.002028 -0.018321 0.858000
0.005579 -0.032914 0.861000
-0.015247 0.028290 0.837000
0.041291 0.010211 0.852000
-0.003170 0.035312 0.832000
0.030770 -0.009426 0.852000
0.017983 -0.010589 0.861000
0.000970 -0.046980 0.859000
-0.011416 -0.003735 0.834000
-0.023600 -0.029691 0.840000
0.014288 -0.039934 0.852000
-0.000091 -0.031533 0.862000
-0.006335 -0.012102 0.843000
0.009102 -0.031070 0.859000
-0.021525 -0.028308 0.840000
0.022029 -0.023831 0.853000
-0.010730 0.000041 0.834000
-0.016012 0.035694 0.841000
-0.003508 0.025351 0.831000
-0.020070 -0.016839 0.837000
0.020369 -0.015478 0.857000
0.033926 -0.003114 0.852000
-0.029610 -0.028793 0.834000
0.007652 -0.042890 0.855000
0.005892 -0.048520 0.855000
0.003714 0.011451 0.840000
0.016450 -0.027054 0.855000
-0.032964 -0.026669 0.832000
-0.012851 0.034877 0.838000
-0.020439 -0.026171 0.838000
0.027965 -0.017842 0.852000
-0.015192 -0.003735 0.834000
0.015430 0.007097 0.857000
-0.020883 -0.030108 0.842000
-0.017010 -0.023785 0.839000
0.004385 0.029976 0.836000
-0.020415 -0.019250 0.837000
0.031656 0.005686 0.857000
0.024362 0.016344 0.861000
0.023868 0.025409 0.856000
-0.001474 0.006272 0.841000
-0.010067 -0.006152 0.836000
-0.009700 0.030591 0.834000
-0.016645 -0.012375 0.838000
0.018388 0.027582 0.847000
0.017134 0.017265 0.854000
0.010908 -0.013794 0.862000
0.009809 -0.028949 0.859000
0.011847 -0.042087 0.853000
-0.011760 0.028875 0.834000
0.009488 -0.014504 0.862000
-0.025460 -0.003387 0.833000
0.013037 -0.016277 0.862000
-0.007964 0.018875 0.832000
0.021552 0.002171 0.862000
0.015196 0.024705 0.844000
0.004757 0.014579 0.841000
0.016821 0.010964 0.856000
0.006650 -0.028340 0.862000
0.007706 -0.014132 0.861000
-0.011051 -0.044858 0.859000
-0.009013 0.031621 0.834000
0.028382 -0.008042 0.854000
0.010882 -0.024735 0.860000
-0.003170 0.033600 0.832000
-0.003508 0.024667 0.831000
0.019198 -0.031167 0.852000
-0.035060 -0.026015 0.833000
-0.015502 0.028413 0.851000
0.035988 -0.002410 0.851000
0.028834 -0.000663 0.857000
0.008365 -0.004890 0.856000
0.017899 -0.021474 0.857000
-0.006937 0.019560 0.832000
0.006135 0.023551 0.840000
0.011223 -0.027888 0.859000
0.017362 0.022030 0.848000
-0.011830 0.038026 0.839000
0.001628 0.028875 0.834000
-0.026457 -0.007150 0.832000
0.006802 0.028290 0.837000
0.032524 -0.005569 0.852000
0.040892 0.005996 0.851000
0.017567 -0.019380 0.858000
0.031730 0.009235 0.859000
0.023701 0.036426 0.850000
0.025455 0.013170 0.862000
0.041319 -0.037987 1.380000
0.018670 -0.010930 0.860000
0.001285 0.040546 0.834000
-0.010436 0.036601 0.838000
0.020345 0.018715 0.856000
-0.010387 0.029561 0.834000
0.014137 0.033003 0.843000
-0.018692 -0.022351 0.837000
0.031619 0.002508 0.856000
0.018736 0.025490 0.847000
0.019709 0.011002 0.859000
-0.002153 0.017589 0.836000
-0.004671 -0.026381 0.856000
0.020951 -0.026959 0.852000
0.007197 0.012185 0.843000
0.018935 -0.021801 0.856000
-0.078044 -0.024041 2.173000
0.023980 -0.001373 0.860000
0.015358 0.015139 0.853000
0.021427 -0.014067 0.857000
0.023681 0.010686 0.862000
0.014639 0.015471 0.852000
0.006810 0.045914 0.838000
0.023001 0.034677 0.850000
0.019310 -0.017241 0.857000
-0.003635 -0.036103 0.861000
0.027711 -0.007700 0.855000
0.015891 0.025747 0.844000
-0.007533 -0.041419 0.861000
0.005231 -0.021954 0.862000
0.029712 0.016008 0.862000
-0.035703 -0.021190 0.832000
0.002309 0.032230 0.832000
0.038836 0.001094 0.852000
0.017219 0.043655 0.841000
0.006940 -0.047409 0.854000
-0.006979 0.038969 0.837000
0.011577 -0.003847 0.859000
0.011210 -0.029268 0.858000
0.016953 0.027169 0.845000
0.007826 0.044428 0.836000
-0.003994 -0.043241 0.862000
0.008258 0.018474 0.845000
0.025921 -0.014369 0.854000
-0.033266 -0.017402 0.831000
0.021049 -0.016869 0.856000
-0.039151 -0.014801 1.031000
0.036991 0.015934 0.858000
-0.031912 -0.038141 0.859000
0.019852 0.028379 0.850000
-0.018625 0.007250 0.834000
0.000973 -0.033662 0.862000
0.004104 -0.004151 0.849000
0.031231 -0.002421 0.855000
0.037433 0.001445 0.852000
0.008051 -0.030044 0.860000
0.024487 0.031639 0.853000
0.026562 -0.016790 0.852000
-0.043871 -0.011912 1.265000
0.000944 0.022751 0.836000
0.000618 -0.037919 0.862000
-0.017769 -0.048040 0.859000
0.014707 -0.027791 0.856000
0.005194 -0.046815 0.856000
-0.022058 0.002101 0.834000
0.031472 -0.007673 0.852000
-0.025087 -0.005438 0.832000
0.017506 0.015878 0.855000
0.012012 0.035652 0.840000
-0.008920 -0.037743 0.858000
-0.013476 -0.004078 0.834000
0.022731 -0.022427 0.853000
-0.018025 -0.024102 0.838000
0.036732 0.000393 0.852000
0.028801 -0.003481 0.856000
0.024688 0.017387 0.860000
-0.000794 -0.018257 0.855000
0.011334 0.024617 0.841000
-0.012566 -0.015207 0.842000
0.018648 0.041677 0.843000
-0.005924 0.015145 0.834000
0.017219 0.044694 0.841000
0.000256 0.013132 0.837000
0.017094 -0.038181 0.852000
0.011456 0.050769 0.850000
-0.026584 -0.026797 0.836000
-0.007525 -0.039247 0.860000
-0.231384 -0.327588 6.752000
0.028382 -0.009097 0.854000
-0.003860 0.036383 0.833000
-0.015955 0.028669 0.838000
0.015783 -0.025001 0.857000
0.000973 -0.035081 0.862000
-0.017542 -0.033813 0.848000
-0.008660 0.016155 0.833000
0.004876 -0.022309 0.862000
0.007163 0.024904 0.839000
0.038756 0.020524 0.858000
0.014087 0.047406 0.840000
0.009569 0.033152 0.838000
0.005934 -0.018385 0.861000
-0.004551 0.016518 0.834000
0.000264 -0.034726 0.862000
0.053110 -0.067165 1.993000
-0.008041 -0.011022 0.840000
0.004380 0.041282 0.835000
-0.021320 -0.010574 0.832000
0.020202 0.029779 0.850000
-0.008670 0.008966 0.834000
0.020273 -0.026640 0.853000
-0.015205 -0.041785 0.854000
-0.002872 -0.010740 0.845000
-0.018786 -0.047223 0.857000
-0.024320 -0.032496 0.841000
-0.034634 -0.022191 0.831000
-0.011830 0.036990 0.839000
0.013746 -0.010956 0.862000
0.004718 0.034367 0.834000
-0.017764 0.036083 0.842000
0.020528 0.032889 0.849000
-0.003635 -0.034686 0.861000
-0.005910 0.018533 0.832000
-0.020070 -0.017183 0.837000
0.023461 0.027107 0.854000
0.041739 0.014805 0.854000
-0.016724 -0.028029 0.842000
-0.004197 0.033257 0.832000
0.007351 -0.030433 0.861000
-0.000433 0.016922 0.837000
0.016136 -0.023238 0.857000
-0.005554 0.026004 0.830000
0.008307 -0.000658 0.850000
0.023136 -0.016497 0.855000
0.011132 -0.046597 0.852000
0.012461 0.049893 0.847000
-0.015247 -0.010982 0.837000
-0.013460 0.001755 0.833000
0.019355 0.010295 0.859000
-0.012393 -0.036864 0.854000
0.003084 -0.047576 0.857000
-0.015629 0.033882 0.839000
0.008405 -0.033230 0.860000
0.018337 -0.008108 0.861000
-0.014488 0.002098 0.833000
-0.026330 -0.038791 0.850000
-0.011746 0.024726 0.833000
0.018891 0.019023 0.854000
-0.029575 -0.026358 0.833000
-0.007472 -0.029132 0.854000
-0.010884 -0.017716 0.846000
-0.016585 -0.006832 0.835000
0.016841 -0.023590 0.857000
0.016920 -0.010589 0.861000
-0.014002 0.027517 0.845000
0.026519 0.015298 0.862000
0.025012 0.020902 0.859000
-0.013081 -0.036821 0.853000
0.016585 -0.002086 0.862000
0.027229 0.014943 0.862000
0.011080 0.016795 0.848000
0.031131 0.024877 0.862000
0.017154 -0.025999 0.855000
0.000943 0.024098 0.835000
-0.001456 0.032875 0.831000
0.009843 -0.017697 0.862000
0.025455 0.016008 0.862000
0.023326 0.009267 0.862000
0.005540 -0.009811 0.855000
0.021177 0.036994 0.847000
-0.012422 -0.041883 0.856000
0.010553 -0.016632 0.862000
-0.008327 0.010339 0.834000
0.006149 0.012864 0.842000
-0.006102 -0.035312 0.859000
0.020464 -0.004564 0.861000
-0.016320 0.032156 0.839000
-0.025741 -0.014324 0.831000
0.003349 0.028566 0.835000
0.000264 -0.035791 0.862000
0.025425 0.018470 0.861000
-0.007613 0.026719 0.831000
0.009914 0.035912 0.838000
0.019243 -0.026320 0.854000
-0.006817 -0.038539 0.860000
-0.006260 0.016155 0.833000
0.013267 0.008126 0.854000
-0.027411 -0.039187 0.851000
0.003055 -0.008694 0.849000
-0.013117 0.011698 0.833000
0.005109 0.009052 0.842000
0.030422 0.014943 0.862000
-0.017542 -0.035209 0.848000
0.009569 0.031773 0.838000
-0.016076 0.028813 0.863000
0.018736 0.026536 0.847000
0.011590 -0.004913 0.860000
0.010080 -0.048350 0.852000
-0.008586 -0.042433 0.860000
0.020202 0.029079 0.850000
0.006237 -0.049167 0.854000
-0.009357 0.002444 0.834000
-0.015936 -0.009949 0.837000
-0.002494 0.013101 0.835000
0.029323 0.010674 0.861000
-0.012760 -0.040427 0.855000
0.011210 -0.029974 0.858000
0.030351 0.010307 0.860000
-0.003994 -0.038274 0.862000
0.019640 -0.019687 0.856000
0.009569 0.027289 0.838000
0.021780 -0.013361 0.857000
-0.006123 -0.041467 0.862000
-0.006267 0.012742 0.834000
-0.005058 -0.043241 0.862000
-0.023803 -0.019548 0.835000
0.018713 0.002526 0.862000
-0.002838 0.015850 0.835000
0.010541 -0.023700 0.861000
0.021754 -0.014755 0.856000
-0.012431 0.003127 0.833000
-0.012521 0.037336 0.839000
0.012358 0.028045 0.840000
0.029609 0.006760 0.859000
-0.015917 -0.008561 0.836000
0.009007 0.001092 0.850000
-0.007974 0.016498 0.833000
0.026913 0.042122 0.852000
-0.035145 -0.028827 0.835000
0.006473 0.025250 0.839000
-0.006937 0.030518 0.832000
0.010553 -0.019471 0.862000
0.012535 0.008458 0.852000
-0.001121 0.018278 0.836000
0.016230 -0.005279 0.862000
0.025450 0.042723 0.850000
0.014271 -0.041638 0.851000
-0.018625 0.005877 0.834000
0.009902 0.046204 0.837000
-0.001458 0.025381 0.832000
-0.002184 -0.014268 0.848000
0.031131 0.024523 0.862000
0.010139 -0.003132 0.857000
0.006237 -0.049869 0.854000
0.020133 0.002171 0.862000
-0.007659 -0.000647 0.836000
0.029893 0.001806 0.857000
0.002031 -0.044151 0.859000
-0.017954 -0.040588 0.851000
-0.015192 -0.003048 0.834000
-0.023282 -0.030419 0.841000
0.005782 0.024904 0.839000
0.014813 0.027766 0.842000
0.005231 -0.026921 0.862000
0.020625 -0.025236 0.853000
-0.032279 -0.013999 0.832000
-0.005225 0.021272 0.832000
0.005061 0.038486 0.834000
0.000973 -0.035791 0.862000
-0.084467 -0.023657 2.407000
0.029471 -0.005588 0.855000
0.009400 -0.002418 0.854000
0.003421 -0.012597 0.853000
0.003077 -0.004533 0.855000
0.021856 -0.006329 0.860000
-0.031898 -0.016718 0.831000
-0.013259 0.040935 0.842000
0.016161 0.044640 0.840000
-0.008586 -0.041371 0.860000
-0.003525 0.017568 0.835000
0.028415 -0.006292 0.855000
0.013411 0.028425 0.841000
-0.015917 -0.009249 0.836000
-0.001498 -0.019664 0.855000
-0.003521 0.017891 0.834000
0.014052 0.000042 0.859000
0.026488 0.005712 0.861000
-0.007869 -0.039201 0.859000
0.016527 0.040886 0.841000
0.019806 0.025171 0.848000
0.015797 0.044242 0.839000
-0.012625 -0.020850 0.846000
-0.031556 -0.015350 0.831000
0.008769 -0.026181 0.861000
-0.004349 -0.042886 0.862000
0.008879 0.033152 0.838000
0.008051 -0.030398 0.860000
-0.014610 -0.013788 0.840000
-0.003216 0.003515 0.844000
0.028162 0.029353 0.858000
0.012900 -0.038928 0.853000
-0.002150 0.018599 0.835000
-0.032201 -0.018064 0.830000
0.004870 -0.033977 0.861000
-0.018960 -0.039793 0.849000
0.003706 0.024530 0.838000
-0.006579 0.025320 0.830000
0.005560 -0.040922 0.858000
0.023461 0.027810 0.854000
-0.016336 -0.047984 0.858000
0.021477 -0.007736 0.859000
0.011805 0.009838 0.850000
-0.007984 0.009309 0.834000
0.030741 0.012446 0.861000
-0.021637 -0.006115 0.831000
-0.012088 0.003812 0.833000
0.007473 0.036814 0.835000
-0.007367 -0.012434 0.842000
-0.026832 -0.021558 0.833000
0.013708 0.043155 0.838000
-0.016665 -0.014807 0.839000
0.006802 0.031046 0.837000
-0.010043 0.000384 0.834000
0.014120 0.026380 0.842000
0.006434 0.037800 0.834000
0.015507 0.036776 0.842000
0.014422 -0.019779 0.860000
-0.005350 -0.020647 0.852000
0.015525 0.027799 0.843000
-0.001465 0.012084 0.836000
0.011262 -0.013084 0.862000
0.000255 0.027812 0.833000
0.017670 0.026853 0.846000
-0.004314 -0.024239 0.855000
-0.006610 0.005533 0.834000
0.025071 0.003586 0.861000
-0.019950 -0.006123 0.832000
0.015728 -0.030889 0.854000
-0.015936 -0.010293 0.837000
0.011903 -0.030645 0.857000
-0.027927 -0.027109 0.835000
0.023082 -0.021725 0.853000
-0.012408 -0.039723 0.855000
0.033694 0.003209 0.855000
0.018018 0.026853 0.846000
-0.011704 -0.037611 0.855000
-0.001156 -0.032243 0.862000
0.032638 0.002154 0.855000
0.029609 0.004639 0.859000
0.019778 -0.000312 0.862000
-0.004947 -0.010367 0.843000
-0.010465 -0.045738 0.869000
-0.022005 -0.009205 0.832000
-0.006252 0.030860 0.832000
0.029003 0.016008 0.862000
-0.005714 -0.025617 0.854000
0.015543 0.033390 0.844000
-0.001800 0.025039 0.832000
-0.023005 -0.009194 0.831000
0.030634 0.005693 0.858000
-0.015834 -0.034942 0.850000
-0.006610 0.033681 0.834000
-0.007769 -0.017409 0.848000
0.008943 0.021232 0.844000
0.019423 0.001816 0.862000
0.028969 0.011028 0.861000
0.007473 0.042313 0.835000
0.008514 0.044428 0.836000
-0.015974 0.032501 0.839000
-0.006335 -0.012449 0.843000
0.004166 -0.027631 0.862000
0.017899 -0.019710 0.857000
-0.005561 0.022273 0.831000
0.033225 -0.006270 0.852000
-0.013492 0.028566 0.835000
-0.007288 0.031583 0.833000
0.021302 -0.026258 0.852000
0.008022 -0.039110 0.857000
-0.026330 -0.039840 0.850000
0.012343 0.037681 0.839000
-0.009057 -0.007891 0.838000
-0.005219 0.024667 0.831000
0.019355 0.011002 0.859000
0.023896 -0.009834 0.857000
0.022811 -0.014403 0.856000
0.027487 0.001103 0.859000
0.001679 -0.022611 0.860000
0.017294 -0.002441 0.862000
0.016219 0.037514 0.843000
0.021202 0.035991 0.848000
-0.028683 -0.031308 0.837000
-0.002930 -0.040758 0.862000
0.000942 0.026472 0.834000
0.009843 -0.020180 0.862000
0.000256 0.019333 0.837000
0.010604 0.027289 0.838000
0.017565 0.043309 0.841000
0.029718 -0.014686 0.852000
-0.010043 0.003474 0.834000
0.000968 -0.017947 0.857000
0.034358 0.000745 0.854000
0.029119 -0.005940 0.855000
-0.005219 0.023641 0.831000
0.007901 0.011852 0.844000
-0.026457 -0.018793 0.832000
-0.010561 -0.024739 0.848000
-0.007112 -0.025587 0.853000
-0.017293 -0.010969 0.836000
-0.011499 0.039800 0.840000
0.008779 -0.015568 0.862000
-0.022509 -0.026516 0.838000
0.004142 -0.048987 0.857000
-0.014234 -0.048394 0.859000
-0.012088 0.000041 0.833000
-0.027142 -0.019478 0.832000
0.016821 -0.024620 0.856000
0.044447 0.015822 0.852000
-0.002824 0.031165 0.831000
-0.029687 -0.038712 0.856000
0.018323 0.046590 0.844000
0.027841 0.002517 0.859000
0.027932 -0.017121 0.851000
-0.018260 0.004498 0.833000
0.011577 -0.027534 0.859000
0.034679 0.023103 0.862000
0.010021 0.017821 0.847000
0.029187 -0.000310 0.857000
-0.010200 -0.026452 0.847000
-0.014146 0.009641 0.833000
-0.015860 0.006898 0.833000
0.036595 0.014504 0.857000
-0.016242 -0.007863 0.835000
0.013363 0.044189 0.838000
-0.033266 -0.021164 0.831000
0.024334 0.017740 0.860000
-0.030427 -0.039463 0.857000
0.016920 0.002877 0.861000
-0.009251 -0.036246 0.856000
-0.000439 -0.011127 0.848000
0.027582 -0.017471 0.851000
0.018004 0.000752 0.862000
0.007688 -0.010918 0.859000
0.022705 -0.025557 0.852000
0.008606 0.019518 0.845000
0.009914 0.035222 0.838000
0.010186 -0.025118 0.861000
-0.027025 -0.032073 0.839000
0.013682 -0.026796 0.858000
0.032551 0.017782 0.862000
-0.003610 -0.023887 0.855000
0.012946 0.003565 0.856000
0.003692 0.029941 0.835000
0.042140 0.018693 0.855000
-0.004213 0.011382 0.835000
-0.009240 -0.033388 0.855000
-0.035035 -0.016381 0.849000
0.004853 -0.013024 0.858000
0.015543 0.033042 0.844000
0.011249 -0.007399 0.861000
-0.011418 -0.046326 0.860000
-0.026083 -0.011930 0.831000
0.011861 -0.038270 0.854000
-0.003994 -0.043596 0.862000
0.039417 0.018031 0.857000
-0.004655 -0.021023 0.853000
-0.016625 -0.010982 0.837000
-0.022032 0.000384 0.833000
0.005768 0.044481 0.837000
0.007616 -0.003811 0.851000
-0.007622 0.028806 0.832000
0.041242 0.006697 0.851000
-0.013799 -0.039325 0.854000
-0.005938 0.000729 0.836000
0.008677 -0.049402 0.852000
-0.011430 -0.006489 0.835000
-0.026489 -0.020530 0.833000
0.004070 0.008705 0.842000
0.022971 0.004655 0.862000
-0.016685 -0.025888 0.840000
-0.016566 0.008279 0.834000
0.033966 -0.002415 0.853000
-0.007280 0.017505 0.832000
-0.015170 -0.038882 0.852000
-0.004877 0.031507 0.831000
-0.005601 0.000730 0.837000
0.020487 0.004655 0.862000
-0.002148 0.020637 0.834000
-0.015815 -0.033853 0.849000
0.030806 -0.014001 0.853000
-0.002828 0.024696 0.832000
0.020107 0.038692 0.846000
0.000970 -0.022585 0.859000
0.011617 -0.012730 0.862000
-0.012446 0.001071 0.834000
0.031822 -0.011179 0.852000
0.023980 -0.002435 0.860000
0.030770 -0.012933 0.852000
0.008238 0.021900 0.843000
0.021652 -0.029414 0.852000
0.026365 0.027202 0.857000
0.028129 0.029671 0.857000
-0.002533 -0.014966 0.848000
-0.003850 0.031507 0.831000
-0.000430 0.033217 0.831000
-0.018893 -0.033385 0.846000
-0.025582 -0.027518 0.837000
-0.020310 -0.037608 0.847000
-0.018089 0.033617 0.841000
-0.023746 -0.016416 0.833000
0.011294 0.046604 0.838000
-0.006252 0.019218 0.832000
0.010743 0.014019 0.849000
0.019899 -0.029063 0.852000
-0.016339 0.033577 0.840000
-0.013243 0.039502 0.841000
0.026874 0.016717 0.862000
0.015820 -0.017989 0.859000
0.018627 0.010283 0.858000
0.001291 0.020046 0.838000
0.044551 0.020780 0.854000
0.016060 0.016543 0.853000
-0.014645 0.039202 0.842000
0.008524 0.030357 0.837000
0.008258 0.010128 0.845000
0.016277 0.030335 0.846000
0.013937 0.015471 0.852000
0.000598 0.028497 0.833000
-0.006610 0.008966 0.834000
-0.011457 0.034491 0.837000
0.008585 0.022247 0.843000
0.012284 -0.003140 0.859000
0.012870 0.015453 0.851000
0.014439 -0.002084 0.861000
-0.002566 -0.028949 0.859000
0.005747 0.034710 0.834000
-0.018581 -0.004753 0.832000
-0.016949 -0.009249 0.836000
0.015448 0.004986 0.858000
-0.015247 -0.009949 0.837000
-0.019950 0.001411 0.832000
-0.010884 -0.018413 0.846000
0.015196 0.030611 0.844000
0.012012 0.048098 0.840000
-0.007112 -0.025236 0.853000
0.040940 0.009159 0.852000
0.031131 0.015653 0.862000
0.021754 0.021181 0.856000
-0.023746 -0.015387 0.833000
-0.020710 -0.015424 0.835000
-0.026083 -0.009878 0.831000
0.012719 0.031194 0.841000
0.027229 0.010331 0.862000
-0.053421 -0.097863 1.874000
0.008759 -0.030044 0.860000
0.043548 0.020453 0.855000
0.007317 -0.007718 0.857000
0.019423 -0.005634 0.862000
0.020828 0.036994 0.847000
0.015394 -0.029518 0.855000
-0.014628 0.037425 0.841000
-0.015192 0.009996 0.834000
0.019378 0.008891 0.860000
0.007714 -0.025502 0.862000
0.007491 0.030701 0.837000
0.005424 0.029323 0.837000
-0.000797 -0.023265 0.858000
-0.014197 0.028944 0.836000
0.021402 -0.017573 0.856000
0.041992 0.007055 0.852000
0.005097 0.021822 0.840000
0.025600 0.029954 0.855000
0.027551 0.008547 0.861000
-0.013212 0.036300 0.839000
0.014405 -0.021170 0.859000
0.007300 -0.044649 0.855000
-0.018611 -0.038396 0.849000
0.023952 -0.003847 0.859000
0.019265 -0.022831 0.855000
0.021754 -0.016516 0.856000
0.008004 -0.044297 0.855000
-0.020293 -0.005095 0.832000
-0.009781 -0.012766 0.841000
0.012155 0.015085 0.850000
0.013379 0.039062 0.839000
-0.014819 -0.036778 0.852000
-0.015517 0.008612 0.833000
0.037784 -0.001010 0.852000
-0.019381 -0.015461 0.837000
0.001282 0.032573 0.832000
0.036327 0.013831 0.859000
0.004026 0.036726 0.833000
0.000256 0.012099 0.837000
0.000618 -0.041065 0.861000
-0.004888 0.034326 0.833000
-0.016514 -0.034901 0.849000
-0.026146 -0.020873 0.833000
-0.016611 -0.044246 0.854000
0.016993 0.022004 0.847000
-0.023005 -0.010562 0.831000
-0.002153 0.016213 0.836000
0.030598 0.001806 0.857000
0.006948 -0.044649 0.855000
-0.019798 -0.046057 0.855000
0.029357 0.017427 0.862000
0.020062 -0.011978 0.859000
0.032475 0.010661 0.860000
0.011267 0.042707 0.836000
-0.013935 0.039848 0.841000
-0.018240 -0.036605 0.848000
-0.006626 0.000385 0.836000
-0.078513 -0.176050 3.219000
0.023784 -0.019267 0.853000
-0.001805 0.021323 0.834000
0.016060 -0.034364 0.853000
-0.002220 -0.044660 0.862000
0.032249 -0.001364 0.854000
-0.000446 -0.032952 0.862000
-0.008156 -0.027310 0.852000
0.005892 -0.046409 0.855000
0.033420 0.006391 0.857000
-0.019960 0.032683 0.862000
0.003794 -0.014789 0.858000
0.019829 0.031141 0.849000
0.022678 0.032966 0.851000
-0.030872 -0.022533 0.831000
-0.012851 0.035222 0.838000
0.003683 0.036383 0.833000
-0.006929 0.028087 0.831000
0.041642 0.010562 0.852000
0.036509 -0.003829 0.855000
0.016192 -0.016240 0.860000
0.000600 0.020711 0.837000
0.015077 -0.026059 0.857000
-0.012882 -0.012750 0.840000
-0.000801 -0.041112 0.862000
0.020804 0.037995 0.846000
-0.011060 0.007927 0.833000
0.012313 -0.007045 0.861000
0.027776 -0.002074 0.857000
-0.010611 -0.032219 0.852000
0.017774 -0.035684 0.851000
-0.003980 -0.032484 0.859000
0.016023 0.019656 0.851000
0.000616 -0.021146 0.858000
-0.025087 -0.016396 0.832000
0.035638 -0.003461 0.851000
0.011223 -0.027534 0.859000
0.006091 0.038143 0.834000
-0.017849 -0.031644 0.846000
-0.018849 -0.030180 0.844000
-0.025772 -0.006123 0.832000
-0.013196 0.034877 0.838000
-0.016203 0.007927 0.833000
-0.008497 -0.025176 0.851000
-0.015841 0.004150 0.832000
0.015394 -0.029166 0.855000
0.013872 0.020634 0.848000
0.012343 0.038372 0.839000
-0.003618 -0.026412 0.857000
0.024429 0.035768 0.851000
-0.005376 -0.027438 0.856000
0.001981 0.021426 0.838000
0.017920 -0.016555 0.858000
0.043746 0.012315 0.852000
0.020086 0.009245 0.860000
0.021352 -0.023156 0.854000
0.017628 0.002169 0.861000
-0.029504 -0.020480 0.831000
0.014673 0.012696 0.854000
-0.014871 -0.044297 0.855000
-0.034634 -0.020822 0.831000
-0.001154 -0.045671 0.861000
-0.023803 -0.019892 0.835000
-0.016281 0.028979 0.837000
0.003005 0.040938 0.835000
0.035764 0.004612 0.854000
-0.005728 -0.028495 0.856000
0.033260 0.023103 0.862000
0.014271 0.017905 0.851000
0.004842 -0.011584 0.856000
0.011972 -0.010956 0.862000
-0.027566 -0.035780 0.845000
0.031267 0.000042 0.856000
0.043848 0.017617 0.854000
0.025982 0.027875 0.856000
0.011805 0.012636 0.850000
0.029505 -0.003129 0.856000
-0.007955 0.024325 0.831000
0.028648 0.021330 0.862000
0.015801 -0.022912 0.858000
0.009581 0.025595 0.839000
-0.009368 -0.002021 0.835000
0.048114 -0.084479 2.097000
0.005927 -0.034646 0.860000
0.000262 -0.021852 0.858000
-0.018625 -0.007854 0.834000
-0.026020 -0.032457 0.840000
0.007129 0.042313 0.835000
0.014831 0.028840 0.843000
0.035061 0.002854 0.854000
0.024809 -0.019595 0.852000
0.003453 -0.035040 0.861000
-0.014992 -0.024564 0.842000
0.007643 -0.046355 0.854000
-0.006395 -0.020623 0.851000
-0.015338 -0.018672 0.842000
-0.011403 0.011355 0.833000
0.034325 0.021684 0.862000
-0.026767 -0.010562 0.831000
0.003457 -0.034371 0.862000
0.024035 0.002881 0.862000
0.030351 0.029067 0.860000
-0.010411 -0.005808 0.836000
0.036115 0.004260 0.854000
0.033966 -0.001713 0.853000
-0.039456 -0.038878 1.017000
-0.000446 -0.036145 0.862000
-0.011943 -0.021921 0.847000
0.025159 -0.019946 0.852000
0.007553 0.014284 0.844000
0.015148 -0.016259 0.861000
0.022029 0.028128 0.853000
-0.013968 -0.018347 0.843000
-0.016031 -0.028029 0.842000
0.005411 0.040594 0.835000
0.018758 0.027266 0.848000
-0.009874 -0.030009 0.849000
0.019778 0.005719 0.862000
-0.025057 -0.013982 0.831000
0.005404 0.040202 0.834000
0.002038 -0.027276 0.862000
0.015543 0.032695 0.844000
0.030951 0.002864 0.857000
0.010718 0.018170 0.847000
0.000940 0.028155 0.833000
-0.011485 -0.011699 0.839000
-0.026616 -0.029585 0.837000
-0.011403 0.012041 0.833000
-0.005924 0.008966 0.834000
0.015130 0.001104 0.860000
0.042140 0.019397 0.855000
0.033381 0.005327 0.856000
-0.003182 0.012757 0.835000
-0.011581 -0.027814 0.846000
0.031582 -0.000310 0.855000
0.006457 0.030012 0.837000
-0.006418 -0.026671 0.854000
0.022106 -0.015460 0.856000
0.017174 -0.024972 0.856000
0.001974 0.041625 0.835000
-0.007984 0.012742 0.834000
0.022625 0.036732 0.849000
0.010541 -0.009880 0.861000
0.025690 0.024762 0.858000
0.006850 0.020166 0.843000
0.025891 -0.016108 0.853000
-0.008347 -0.003055 0.836000
0.022971 0.005719 0.862000
0.019992 0.016953 0.856000
-0.003508 0.028429 0.831000
-0.004534 0.027403 0.831000
0.010235 0.044428 0.836000
-0.012775 -0.042588 0.856000
0.012520 0.014052 0.851000
0.010369 0.010849 0.847000
0.017301 0.026126 0.845000
-0.017722 0.032886 0.840000
0.021525 0.039086 0.847000
0.001673 -0.017241 0.857000
-0.017030 0.032540 0.840000
-0.007778 -0.019177 0.849000
-0.021057 -0.040492 0.849000
-0.009368 -0.001333 0.835000
0.000946 0.017976 0.838000
-0.000773 0.035654 0.832000
0.016605 0.033429 0.845000
0.011653 0.026976 0.839000
-0.001509 -0.045317 0.861000
-0.001456 0.029797 0.831000
-0.008185 -0.031277 0.855000
-0.007525 -0.039601 0.860000
0.009049 -0.044949 0.854000
0.023924 -0.008080 0.858000
-0.011760 0.000384 0.834000
0.023461 -0.019290 0.854000
0.016154 -0.022205 0.858000
0.015853 0.037469 0.842000
-0.030713 -0.030926 0.836000
0.032486 -0.008714 0.851000
0.016488 0.008508 0.857000
-0.003952 -0.020672 0.853000
0.010406 0.003890 0.850000
-0.003869 0.014132 0.835000
-0.004534 0.023641 0.831000
0.020804 0.045308 0.846000
0.012041 0.024647 0.842000
0.006157 0.009757 0.843000
-0.029846 -0.020822 0.831000
0.000972 -0.027244 0.861000
0.024390 0.008203 0.862000
0.044447 0.014069 0.852000
-0.008347 0.036170 0.836000
0.019288 -0.021097 0.856000
-0.007096 -0.020973 0.851000
-0.024031 -0.008510 0.831000
0.013391 -0.012020 0.862000
0.027998 0.041469 0.853000
0.013587 -0.042038 0.852000
0.003453 -0.023346 0.861000
-0.030151 -0.017381 0.830000
0.019024 -0.009514 0.860000
-0.033306 -0.025642 0.832000
0.014811 -0.011665 0.862000
-0.013573 0.038417 0.840000
-0.024804 -0.019868 0.834000
0.021123 0.014538 0.859000
0.022184 -0.008796 0.859000
-0.014488 0.001755 0.833000
-0.003864 0.037113 0.834000
0.008160 0.040938 0.835000
-0.000089 0.016233 0.837000
0.027614 -0.016439 0.852000
-0.028512 -0.023587 0.832000
0.012961 -0.028881 0.857000
0.015025 0.011993 0.854000
-0.000088 0.039126 0.833000
0.028969 0.009256 0.861000
0.000598 0.040202 0.834000
0.016605 0.025082 0.845000
-0.029575 -0.026701 0.833000
-0.013492 -0.006832 0.835000
0.029823 -0.004884 0.855000
0.028515 0.000396 0.858000
-0.032924 -0.022533 0.831000
0.028666 -0.013985 0.852000
0.022864 -0.009139 0.858000
-0.018455 -0.047631 0.858000
0.003692 0.029253 0.835000
0.019423 0.001462 0.862000
-0.013557 -0.012045 0.839000
-0.018392 -0.026548 0.839000
0.007360 -0.016632 0.862000
-0.000091 -0.028307 0.861000
-0.026425 -0.017744 0.831000
-0.011760 0.003817 0.834000
-0.021979 -0.007141 0.831000
0.006266 -0.039862 0.858000
-0.018369 -0.045652 0.854000
-0.044589 -0.026139 1.010000
0.005913 -0.012317 0.858000
0.021427 -0.013714 0.857000
0.027932 -0.016420 0.851000
0.003697 0.042363 0.836000
0.032211 -0.004873 0.853000
-0.016526 0.002781 0.832000
-0.016183 0.002438 0.832000
0.015160 0.036430 0.842000
-0.004894 0.015488 0.834000
-0.017252 -0.007167 0.834000
0.014422 -0.018717 0.860000
0.024401 0.038175 0.850000
-0.005029 -0.028881 0.857000
0.024601 0.024028 0.857000
0.014866 0.022996 0.845000
0.013220 -0.043390 0.851000
0.039584 0.008819 0.853000
-0.012431 0.000384 0.833000
0.031693 0.007458 0.858000
0.019640 0.017306 0.856000
-0.022799 -0.020948 0.836000
0.028983 -0.015019 0.851000
0.003803 -0.018717 0.860000
0.032319 -0.024061 1.010000
0.020951 -0.031167 0.852000
0.018188 -0.027374 0.854000
0.001683 -0.031178 0.862000
0.030777 0.017782 0.862000
0.024838 -0.017512 0.853000
0.015466 -0.019403 0.859000
0.011958 -0.021220 0.861000
0.011442 0.008778 0.849000
0.018626 0.044054 0.842000
0.014019 -0.027470 0.857000
0.023218 0.020171 0.858000
-0.023746 -0.001673 0.833000
-0.016546 0.005527 0.833000
0.004060 0.021131 0.840000
0.001308 -0.010790 0.849000
0.004065 0.009387 0.841000
-0.030493 -0.019089 0.830000
-0.005047 -0.035708 0.860000
0.003095 -0.021195 0.860000
0.021099 -0.010905 0.858000
0.015394 0.011655 0.855000
0.004735 0.026912 0.837000
-0.001154 -0.045317 0.861000
-0.030188 -0.015008 0.831000
0.005803 0.012864 0.842000
0.014639 0.015121 0.852000
0.001308 -0.008344 0.849000
-0.008981 0.025693 0.831000
-0.013448 -0.039676 0.854000
-0.026616 -0.029930 0.837000
0.038531 0.007415 0.853000
0.029997 0.008184 0.860000
-0.011392 -0.042687 0.858000
0.031231 -0.002069 0.855000
-0.001802 0.038440 0.833000
-0.025552 -0.024389 0.836000
0.004752 0.021131 0.840000
-0.001811 0.006587 0.837000
0.025720 0.000042 0.859000
0.017596 -0.052120 1.196000
0.014884 0.022326 0.846000
0.018004 0.002526 0.862000
0.002326 0.012113 0.838000
-0.008507 -0.029063 0.852000
-0.007045 -0.015261 0.845000
0.016117 0.010259 0.856000
0.005586 -0.022309 0.862000
0.001328 -0.035436 0.862000
-0.009575 -0.006663 0.959000
0.011563 -0.028562 0.858000
0.005079 0.026912 0.837000
-0.020238 -0.032264 0.844000
0.017858 -0.026350 0.855000
0.013411 0.034656 0.841000
0.023681 0.007848 0.862000
-0.010717 0.018212 0.833000
-0.036089 -0.022930 0.833000
0.017094 -0.037479 0.852000
-0.033266 -0.019454 0.831000
0.004757 0.010772 0.841000
-0.013290 -0.019064 0.844000
-0.002220 -0.041822 0.862000
0.010080 -0.047999 0.852000
-0.011746 0.011012 0.833000
0.023351 0.035726 0.850000
0.018018 0.034513 0.846000
-0.014575 0.031773 0.838000
-0.011430 0.031315 0.835000
0.015077 0.006744 0.857000
0.007360 -0.024083 0.862000
-0.026832 -0.021215 0.833000
-0.002536 -0.015683 0.849000
0.009323 0.013986 0.847000
-0.003525 0.011039 0.835000
0.037077 0.021280 0.860000
0.017649 -0.007763 0.862000
0.029643 0.028005 0.860000
-0.009379 -0.004088 0.836000
-0.011389 0.024696 0.832000
-0.002485 0.034627 0.832000
-0.012774 0.001755 0.833000
-0.021448 -0.025451 0.837000
0.010284 0.048098 0.840000
0.021172 -0.004210 0.861000
0.021907 0.007848 0.862000
-0.009770 -0.012405 0.840000
-0.020634 -0.035126 0.846000
-0.023945 0.000041 0.840000
-0.001118 0.023040 0.834000
0.034639 0.021305 0.861000
-0.010730 0.006220 0.834000
0.017837 0.018320 0.854000
-0.015223 -0.043242 0.855000
-0.017553 0.003123 0.832000
0.008748 -0.008089 0.859000
0.032838 -0.055484 1.406000
0.021477 -0.008443 0.859000
0.013298 0.004622 0.856000
0.041837 0.020829 0.856000
-0.016514 -0.033853 0.849000
0.017465 0.019351 0.853000
-0.011512 -0.013804 0.841000
-0.007315 0.037890 0.836000
-0.014163 -0.003735 0.834000
-0.024031 -0.008852 0.831000
0.026519 0.007138 0.862000
0.029153 -0.002776 0.856000
0.026656 -0.008755 0.855000
0.012520 0.013001 0.851000
0.002728 -0.014755 0.856000
0.029289 0.007830 0.860000
-0.008576 -0.040969 0.859000
0.009038 -0.045598 0.853000
0.012327 -0.018761 0.862000
0.026012 0.026497 0.857000
0.000939 0.030860 0.832000
-0.025057 -0.011246 0.831000
0.004500 -0.043040 0.858000
0.025307 -0.006307 0.857000
-0.034676 -0.024957 0.832000
-0.030779 -0.039463 0.857000
-0.023282 -0.030073 0.841000
0.031860 -0.005575 0.853000
0.049270 -0.139500 3.771000
0.014707 0.007441 0.856000
0.005207 -0.013377 0.858000
0.014355 -0.030257 0.856000
0.031131 0.022039 0.862000
0.000939 0.032230 0.832000
0.020649 -0.024211 0.854000
-0.011232 -0.025377 0.846000
0.015875 -0.006698 0.862000
-0.022032 -0.012644 0.833000
0.011639 0.039016 0.838000
0.019068 -0.004215 0.862000
-0.013234 0.025617 0.863000
0.005540 -0.046761 0.855000
-0.001833 -0.013205 0.847000
-0.017231 -0.003387 0.833000
0.025396 0.019156 0.860000
0.004853 -0.041981 0.858000
-0.004556 0.008633 0.835000
0.005579 -0.018739 0.861000
0.009102 -0.031423 0.859000
0.003437 -0.046870 0.857000
-0.014767 -0.032805 0.849000
-0.023375 -0.014341 0.832000
0.008414 -0.014487 0.861000
-0.002220 -0.042886 0.862000
0.021302 0.027745 0.852000
-0.021346 0.000727 0.833000
0.007697 -0.011992 0.860000
0.007553 0.013589 0.844000
0.016546 0.002874 0.860000
-0.006116 -0.041065 0.861000
0.032638 0.001802 0.855000
0.006907 -0.003456 0.850000
0.033930 0.017761 0.861000
-0.016526 0.002438 0.832000
0.030741 0.011737 0.861000
0.004031 0.032651 0.834000
-0.031326 -0.029479 0.834000
0.015872 0.036126 0.843000
0.005417 0.030665 0.836000
-0.003182 0.017225 0.835000
0.022301 0.033977 0.850000
-0.014906 -0.046870 0.857000
0.023681 0.007493 0.862000
-0.017418 -0.028376 0.842000
-0.023475 -0.039048 0.848000
0.004166 -0.023373 0.862000
-0.026330 -0.038091 0.850000
-0.019264 -0.035865 0.847000
0.014085 -0.016613 0.861000
0.010908 -0.016277 0.862000
0.041291 0.005302 0.852000
0.021830 -0.008796 0.859000
0.008424 -0.023018 0.862000
0.004521 -0.031888 0.862000
-0.022663 -0.006115 0.831000
0.036595 0.014151 0.857000
0.029368 -0.012933 0.852000
0.011805 0.006339 0.850000
-0.026330 -0.038441 0.850000
-0.001507 -0.028274 0.860000
0.011847 0.002851 0.853000
0.022511 0.019112 0.858000
-0.002482 0.027403 0.831000
-0.006929 0.022615 0.831000
0.010235 0.040643 0.836000
0.016161 0.041875 0.840000
0.016939 -0.003505 0.862000
-0.012437 -0.042637 0.857000
0.011958 -0.006336 0.861000
0.002734 -0.044806 0.858000
0.012327 -0.013084 0.862000
0.018891 0.019726 0.854000
0.011930 -0.002786 0.859000
0.029858 -0.001719 0.856000
-0.004698 -0.037521 0.861000
-0.001865 -0.042177 0.862000
0.017983 0.002877 0.861000
0.017565 0.042271 0.841000
-0.017051 -0.020035 0.841000
-0.021397 0.003478 0.835000
-0.002930 -0.040048 0.862000
0.003754 -0.004501 0.849000
-0.000431 0.025755 0.833000
0.002998 0.038440 0.833000
0.001679 -0.041725 0.860000
0.033260 0.019556 0.862000
-0.014610 -0.014479 0.840000
-0.029504 -0.013298 0.831000
0.007206 0.013937 0.844000
-0.031594 -0.026669 0.832000
0.015746 -0.028814 0.855000
-0.000433 0.013460 0.836000
0.007249 0.001090 0.849000
0.013298 -0.030961 0.856000
-0.014217 -0.047278 0.858000
-0.019404 -0.019618 0.838000
0.014793 -0.001729 0.861000
-0.014315 -0.023552 0.843000
-0.012431 0.008612 0.833000
0.000939 0.037367 0.832000
0.039463 0.021937 0.858000
-0.017896 0.002096 0.832000
-0.014146 0.008612 0.833000
-0.015666 -0.025919 0.841000
0.024544 0.028546 0.855000
-0.013476 -0.001675 0.834000
-0.010043 0.004504 0.834000
0.017941 -0.015160 0.859000
-0.025865 -0.024359 0.835000
-0.016724 0.038509 0.842000
-0.009525 -0.030009 0.849000
0.041291 0.009510 0.852000
-0.013173 -0.047333 0.859000
-0.018326 -0.043791 0.852000
0.006259 -0.009481 0.857000
-0.026175 -0.036128 0.845000
0.018713 -0.000312 0.862000
0.001322 -0.019733 0.858000
0.015853 0.037816 0.842000
0.023055 0.030199 0.852000
-0.001156 -0.034017 0.862000
0.032324 0.001804 0.856000
-0.018923 -0.000301 0.832000
0.004036 0.029941 0.835000
-0.016546 -0.001330 0.833000
-0.002491 0.020293 0.834000
0.017567 0.008871 0.858000
-0.026832 -0.020873 0.833000
-0.009273 -0.039862 0.858000
0.001675 -0.019027 0.858000
-0.021910 -0.045353 0.855000
-0.009805 -0.014531 0.843000
-0.001117 0.025412 0.833000
-0.013511 -0.046219 0.858000
0.017996 0.035864 0.845000
-0.079003 -0.053183 1.773000
0.004026 0.036040 0.833000
0.003701 0.026567 0.837000
0.018692 -0.009880 0.861000
0.011972 -0.010601 0.862000
-0.015879 -0.005794 0.834000
-0.018938 -0.036954 0.848000
-0.017982 -0.010625 0.836000
-0.029539 -0.011259 0.832000
-0.010424 0.034835 0.837000
-0.011553 -0.015590 0.844000
-0.032434 -0.030582 0.836000
0.027327 -0.011909 0.854000
0.010021 0.012243 0.847000
0.017941 0.007113 0.859000
-0.028993 -0.030926 0.836000
0.032513 0.015635 0.861000
0.032562 -0.004522 0.853000
-0.012028 -0.034364 0.853000
0.000601 0.017287 0.838000
0.010604 0.028324 0.838000
0.022380 -0.023480 0.853000
0.025809 0.014234 0.862000
-0.015685 -0.021098 0.842000
0.010382 0.012258 0.848000
0.002998 0.038097 0.833000
0.011617 -0.013439 0.862000
0.016431 0.015859 0.854000
-0.031176 -0.021481 0.830000
-0.004704 -0.042177 0.862000
-0.005581 0.036083 0.834000
0.031841 0.019910 0.862000
0.008869 0.028634 0.837000
0.002655 0.038440 0.833000
0.016625 0.031380 0.846000
0.004506 -0.039909 0.859000
0.016431 -0.031943 0.854000
0.002329 0.017998 0.839000
-0.004213 0.010008 0.835000
0.004865 -0.018009 0.860000
-0.021663 -0.005438 0.832000
-0.007640 0.011369 0.834000
-0.019702 -0.015442 0.836000
0.030455 -0.009086 0.853000
-0.000794 -0.018609 0.855000
0.013050 0.035997 0.840000
-0.006425 -0.028462 0.855000
-0.003855 0.022642 0.832000
0.043145 0.017968 0.854000
-0.017521 -0.033076 0.847000
-0.008337 0.000041 0.835000
0.004516 -0.034332 0.861000
0.012170 0.013702 0.851000
0.010163 -0.028949 0.859000
0.028415 -0.006644 0.855000
0.002329 0.019725 0.839000
-0.015211 0.012413 0.835000
0.018337 -0.009880 0.861000
-0.010698 -0.044151 0.859000
-0.001465 0.012772 0.836000
0.013267 0.009181 0.854000
-0.026425 -0.012272 0.831000
0.003714 0.010759 0.840000
0.020062 -0.011625 0.859000
-0.014298 -0.024564 0.842000
-0.006335 -0.012796 0.843000
0.002038 -0.036500 0.862000
0.023681 0.001816 0.862000
0.019310 0.014504 0.857000
0.009546 0.038578 0.836000
-0.026146 -0.005787 0.833000
0.040169 0.023349 0.858000
-0.003170 0.024012 0.832000
0.020345 0.019067 0.856000
-0.000090 -0.014302 0.850000
-0.014819 -0.037830 0.852000
-0.002930 -0.038274 0.862000
0.007317 -0.039463 0.857000
0.011563 -0.001723 0.858000
-0.004213 0.015850 0.835000
-0.007288 0.014441 0.833000
0.008060 -0.014487 0.861000
0.011750 0.021630 0.846000
-0.024520 -0.022668 0.836000
0.014187 0.022326 0.846000
0.041485 0.018363 0.856000
-0.012161 -0.010996 0.838000
-0.077236 -0.128843 2.527000
-0.002838 0.016194 0.835000
-0.021576 -0.029762 0.842000
0.021830 -0.007736 0.859000
-0.000430 0.030823 0.831000
-0.017273 -0.009238 0.835000
0.024659 0.019488 0.859000
0.018004 -0.003505 0.862000
0.024809 0.034057 0.852000
0.008424 -0.023728 0.862000
0.010831 -0.036806 0.984000
-0.015685 -0.019019 0.842000
0.024688 -0.000665 0.860000
-0.011746 0.027126 0.833000
0.000256 0.009699 0.838000
0.005501 -0.003103 0.849000
-0.015554 0.011382 0.835000
-0.014854 -0.040731 0.854000
-0.020978 -0.002356 0.832000
0.034559 0.015599 0.859000
0.026457 0.002520 0.860000
0.015394 0.011303 0.855000
-0.020070 -0.022351 0.837000
-0.010794 -0.011354 0.839000
-0.002960 -0.045843 0.871000
0.026273 -0.013666 0.854000
0.006573 -0.006621 0.852000
0.010080 0.000042 0.852000
0.007544 0.020166 0.843000
-0.020238 -0.030875 0.844000
0.008268 0.015014 0.846000
-0.003525 0.011726 0.835000
0.006113 0.030701 0.837000
-0.020094 -0.019273 0.838000
-0.020561 -0.030144 0.843000
0.008858 0.036858 0.836000
0.018758 0.023077 0.848000
0.004152 -0.016928 0.859000
0.004511 -0.018009 0.860000
-0.017553 0.002096 0.832000
-0.011774 0.029253 0.835000
0.024809 -0.020998 0.852000
0.012241 0.001804 0.856000
0.012704 0.035306 0.840000
0.023994 0.042622 0.848000
0.017608 -0.014470 0.860000
-0.045501 -0.062575 1.312000
0.011280 0.040347 0.837000
0.024035 0.013524 0.862000
0.017732 0.021008 0.849000
0.021427 0.017326 0.857000
-0.008297 0.020563 0.831000
-0.007668 0.038625 0.837000
-0.016031 -0.020058 0.842000
0.025861 0.043525 0.852000
-0.011430 -0.004770 0.835000
-0.000090 -0.013586 0.849000
-0.017030 -0.018282 0.840000
-0.001465 0.015869 0.836000
-0.024402 -0.004753 0.832000
0.023299 0.000397 0.861000
0.015520 -0.007408 0.862000
0.020133 0.006429 0.862000
0.013021 -0.004919 0.861000
-0.011389 0.023327 0.832000
0.013376 -0.018739 0.861000
-0.032964 -0.016053 0.832000
0.022301 0.032927 0.850000
-0.003182 0.012070 0.835000
0.006465 0.027634 0.838000
0.029540 0.000748 0.857000
-0.012805 0.028910 0.835000
-0.013290 -0.018369 0.844000
-0.007463 -0.026991 0.853000
0.040239 0.006003 0.852000
-0.001141 -0.016070 0.851000
0.007901 0.019842 0.844000
-0.025741 -0.011930 0.831000
-0.012088 0.011698 0.833000
0.005940 -0.029050 0.862000
-0.015871 -0.039583 0.852000
0.008060 -0.026890 0.861000
-0.012730 -0.036119 0.853000
0.012689 0.037336 0.839000
-0.026489 -0.005102 0.833000
0.027583 0.011396 0.862000
-0.012789 0.012399 0.834000
-0.015955 -0.012375 0.838000
-0.005561 0.030481 0.831000
-0.019287 0.031803 0.848000
0.020392 0.014521 0.858000
0.014776 -0.019425 0.860000
-0.012805 -0.006145 0.835000
-0.014366 -0.030251 0.846000
-0.021156 -0.044896 0.853000
0.019243 0.020077 0.854000
0.066459 -0.175863 4.278000
-0.013290 -0.026359 0.844000
-0.008670 0.004504 0.834000
0.009257 0.024271 0.841000
-0.000088 0.012084 0.836000
0.024362 0.002523 0.861000
0.006948 -0.045705 0.855000
-0.008317 0.016155 0.833000
-0.000091 -0.023265 0.858000
-0.001865 -0.038984 0.862000
0.016841 0.009919 0.857000
-0.005363 -0.023859 0.854000
0.021099 0.014874 0.858000
0.007005 -0.024437 0.862000
-0.012117 -0.006489 0.835000
-0.018282 -0.007511 0.834000
0.008424 -0.018051 0.862000
-0.026552 -0.025734 0.835000
0.015466 0.003578 0.859000
0.123595 -0.317693 8.401000
0.013050 0.028737 0.840000
0.011577 -0.025767 0.859000
0.021302 -0.030817 0.852000
-0.007297 0.032994 0.834000
0.010443 -0.049109 0.853000
0.012535 -0.042038 0.852000
0.027614 -0.016790 0.852000
0.031131 0.016363 0.862000
0.001683 -0.035436 0.862000
0.006281 0.001458 0.860000
-0.006267 0.012399 0.834000
0.016181 0.047117 0.841000
0.025891 -0.015054 0.853000
0.012652 -0.021903 0.860000
-0.020070 -0.023384 0.837000
-0.022799 -0.023700 0.836000
0.010021 0.008757 0.847000
-0.006357 -0.015627 0.846000
-0.028135 -0.015008 0.831000
0.018146 -0.033622 0.852000
0.004104 -0.005549 0.849000
0.025218 -0.015423 0.854000
0.033260 0.022394 0.862000
-0.001154 -0.044963 0.861000
0.007688 -0.011271 0.859000
-0.024953 -0.029311 0.839000
0.011132 -0.045545 0.852000
-0.026489 -0.005444 0.833000
0.007910 0.016735 0.845000
-0.012700 -0.033232 0.851000
0.024983 0.022643 0.858000
0.032249 -0.002770 0.854000
-0.015320 0.037079 0.841000
0.045499 0.016173 0.852000
0.018869 0.020756 0.853000
0.013954 -0.038577 0.853000
-0.008547 -0.033428 0.856000
-0.015860 0.008269 0.833000
0.022891 0.017013 0.859000
0.001971 0.027845 0.834000
-0.019950 -0.000301 0.832000
-0.022965 0.002506 0.855000
-0.007297 0.007593 0.834000
0.003001 0.040202 0.834000
0.000262 -0.021146 0.858000
0.022758 0.026755 0.854000
0.011984 0.038671 0.838000
0.001626 0.038097 0.833000
-0.010362 0.021957 0.832000
-0.010031 0.013069 0.833000
-0.001800 0.035654 0.832000
-0.012491 -0.009604 0.837000
0.000959 -0.009043 0.849000
0.020853 0.034944 0.848000
0.005514 -0.000308 0.851000
0.007873 0.023925 0.841000
0.017485 0.017968 0.854000
0.019355 -0.013039 0.859000
-0.003525 0.008977 0.835000
0.016507 0.042220 0.840000
-0.017211 0.001068 0.832000
0.008779 -0.020535 0.862000
-0.016685 -0.022431 0.840000
-0.021320 -0.001671 0.832000
-0.022131 -0.042639 0.850000
0.037521 0.007775 0.854000
-0.000091 -0.043191 0.861000
-0.004953 -0.012811 0.844000
0.021527 -0.002438 0.861000
-0.008816 -0.018805 0.848000
-0.007121 -0.026671 0.854000
