-0.013133 0.015618 0.880000
-0.006935 0.000763 0.875000
0.002384 -0.011978 0.859000
-0.011498 -0.023838 0.866000
-0.012524 -0.033346 0.863000
-0.012352 0.021315 0.876000
0.004506 -0.014453 0.859000
0.003445 -0.016574 0.859000
-0.010405 -0.028761 0.864000
-0.023169 0.014105 0.876000
0.010614 0.016814 0.867000
0.003834 -0.034928 0.867000
0.004152 0.048832 0.859000
-0.025458 0.020406 0.868000
-0.002572 -0.014132 0.861000
0.002387 -0.019425 0.860000
-0.027042 -0.031576 0.873000
-0.001509 -0.021220 0.861000
-0.017201 -0.026333 0.866000
0.018337 0.019179 0.861000
-0.029103 -0.015186 0.881000
0.002406 0.010748 0.867000
-0.006832 0.039778 0.862000
0.016959 0.024551 0.863000
-0.020099 -0.034968 0.868000
-0.023395 -0.032938 0.871000
0.009208 0.018999 0.869000
-0.034762 -0.036096 0.896000
0.019581 0.036167 0.869000
-0.026263 -0.035447 0.871000
0.021678 -0.006628 0.853000
0.000263 -0.022965 0.860000
-0.033817 -0.024251 0.881000
0.001331 -0.033740 0.864000
-0.016488 -0.024907 0.866000
0.028162 0.022996 0.858000
0.019288 0.003213 0.856000
-0.016825 0.029236 0.865000
-0.003677 0.031231 0.871000
-0.007656 0.025253 0.875000
0.036453 0.029844 0.862000
0.029712 0.035521 0.862000
-0.012408 0.011996 0.880000
0.005573 -0.021195 0.860000
0.017588 0.008174 0.859000
-0.016825 0.028880 0.865000
-0.017740 -0.012201 0.875000
0.015746 -0.009459 0.855000
0.028003 0.036670 0.864000
-0.026622 -0.037240 0.871000
0.014003 -0.010879 0.856000
0.025218 0.010235 0.854000
0.029137 0.041032 0.866000
0.008738 -0.014436 0.858000
-0.011167 0.029695 0.868000
0.027679 0.038493 0.865000
0.025779 0.026620 0.861000
0.011022 0.028005 0.871000
-0.024472 0.000407 0.884000
0.032600 0.018320 0.854000
-0.027729 -0.039077 0.872000
-0.006137 0.036670 0.864000
-0.031385 -0.010508 0.884000
-0.009716 -0.039877 0.866000
-0.040291 0.007939 0.872000
0.034237 0.000392 0.851000
-0.007304 0.023839 0.876000
0.013778 0.014623 0.864000
-0.038750 -0.005791 0.886000
0.000263 -0.012685 0.859000
0.023136 0.015526 0.855000
-0.023972 0.010173 0.879000
-0.006493 -0.019871 0.864000
0.010139 -0.013361 0.857000
-0.047578 0.000403 0.874000
-0.032186 -0.006520 0.886000
0.003812 0.044745 0.862000
-0.018524 -0.006461 0.878000
-0.031208 0.005470 0.879000
0.012042 0.045005 0.867000
-0.025101 0.020049 0.868000
0.005670 0.028854 0.875000
0.002776 0.036609 0.871000
-0.010441 -0.020654 0.867000
0.015538 0.012830 0.863000
-0.010597 0.013807 0.880000
0.025216 0.037111 0.866000
-0.009805 0.024864 0.874000
0.020654 0.037598 0.869000
0.010639 0.019714 0.869000
0.006317 0.011791 0.865000
0.002429 0.031375 0.875000
-0.010489 0.000402 0.871000
0.038179 0.019351 0.853000
-0.018648 -0.034214 0.867000
-0.019385 -0.027823 0.868000
0.006635 -0.019779 0.860000
0.012270 0.004280 0.858000
-0.008347 0.005785 0.872000
0.008022 -0.010539 0.857000
-0.040522 0.001848 0.877000
-0.015633 -0.000679 0.878000
-0.006856 0.035289 0.865000
0.004171 0.043732 0.863000
0.027582 -0.000658 0.851000
0.033376 0.038493 0.865000
-0.009359 0.032834 0.866000
0.006346 -0.035008 0.869000
-0.011909 -0.015712 0.870000
0.016719 0.032233 0.869000
-0.019742 -0.024965 0.868000
-0.042062 -0.000680 0.879000
0.029323 0.032999 0.861000
0.021452 0.011343 0.858000
-0.037698 -0.006893 0.887000
-0.016411 0.012372 0.881000
0.034790 0.023295 0.856000
0.002066 0.032418 0.874000
-0.015633 0.017028 0.878000
0.012961 -0.014067 0.857000
0.012384 0.046379 0.866000
0.013666 -0.013361 0.857000
0.002068 0.020931 0.875000
-0.002259 0.018813 0.877000
0.007326 -0.014083 0.858000
0.018401 0.026713 0.864000
0.035702 0.031582 0.861000
-0.015202 -0.008590 0.874000
0.036979 0.034973 0.866000
-0.034102 -0.033240 0.879000
0.030806 0.013383 0.853000
0.001704 0.016571 0.873000
0.018561 -0.009811 0.855000
0.030528 0.040273 0.865000
0.033108 0.006681 0.849000
0.001323 -0.010918 0.859000
-0.002256 0.026003 0.876000
0.036851 0.028458 0.863000
-0.010453 -0.017463 0.868000
-0.019385 -0.032824 0.868000
0.028260 0.030873 0.861000
0.001696 -0.037512 0.869000
0.011354 0.022576 0.869000
0.009610 0.036333 0.873000
0.014523 0.019290 0.866000
0.030210 0.021181 0.856000
-0.003635 -0.032560 0.861000
0.015820 0.006053 0.859000
0.025129 0.030234 0.863000
0.002061 0.033780 0.872000
0.032026 0.041080 0.867000
0.020440 0.023404 0.860000
0.000266 0.012919 0.869000
0.001677 -0.012685 0.859000
-0.027104 -0.027687 0.875000
0.004526 0.043732 0.863000
0.005920 -0.016928 0.859000
0.041105 0.035457 0.878000
-0.032550 -0.006155 0.886000
0.013650 -0.009470 0.856000
-0.017639 -0.041494 0.870000
0.003860 0.018727 0.873000
-0.037741 -0.009459 0.888000
-0.035468 -0.012355 0.886000
-0.002235 0.006473 0.868000
-0.032036 0.011887 0.872000
-0.026565 -0.011560 0.881000
-0.031821 -0.006155 0.886000
-0.013265 -0.029863 0.865000
-0.034621 -0.000320 0.883000
-0.027011 -0.035847 0.872000
0.024860 0.036755 0.866000
0.018778 0.027456 0.865000
-0.005413 -0.034017 0.862000
0.015646 0.030444 0.869000
0.036996 0.002841 0.850000
-0.015271 0.000766 0.878000
0.012441 0.042296 0.870000
-0.016526 -0.040327 0.868000
-0.010822 -0.013906 0.869000
-0.026805 -0.023058 0.877000
-0.029067 -0.042129 0.891000
-0.001533 0.016609 0.875000
0.012456 0.030156 0.871000
0.013516 0.043370 0.870000
-0.021961 -0.020032 0.871000
-0.010597 0.015256 0.880000
-0.010405 -0.038718 0.864000
0.021327 -0.003820 0.853000
0.037163 0.030554 0.862000
-0.028111 0.002954 0.884000
-0.011129 -0.039119 0.865000
-0.019385 -0.039255 0.868000
0.033211 0.041580 0.870000
0.027423 0.020148 0.857000
0.034277 0.016874 0.852000
-0.045161 -0.007225 0.883000
0.021011 0.037955 0.869000
-0.027019 0.001499 0.884000
-0.034778 -0.005797 0.887000
0.029609 0.025851 0.859000
0.012638 0.006760 0.859000
-0.002230 -0.036669 0.866000
0.019468 0.027069 0.864000
-0.004430 0.018473 0.878000
0.021427 0.014857 0.857000
0.019946 -0.007339 0.854000
-0.023354 -0.001047 0.883000
0.004910 0.039341 0.868000
-0.021317 -0.014705 0.874000
-0.028610 -0.024502 0.877000
0.004186 0.010736 0.866000
0.017628 0.011737 0.861000
0.008850 0.018641 0.869000
0.000974 0.047639 0.863000
-0.007329 0.019218 0.879000
0.022616 0.026651 0.862000
-0.001898 0.024588 0.877000
-0.002926 -0.013424 0.861000
0.018692 0.023431 0.861000
0.001336 0.009321 0.867000
-0.014706 -0.028828 0.866000
0.013298 0.001452 0.856000
0.009367 0.002954 0.884000
0.003473 0.010379 0.866000
-0.007943 0.032159 0.867000
-0.010084 -0.008878 0.867000
0.009123 -0.019802 0.861000
0.026593 0.006362 0.853000
-0.010947 0.009088 0.879000
-0.002253 0.014809 0.875000
-0.043671 0.006165 0.875000
0.028733 0.015859 0.854000
-0.005768 -0.024437 0.862000
0.020559 0.028880 0.865000
0.001339 -0.037154 0.869000
-0.006116 -0.032560 0.861000
-0.032477 -0.013418 0.884000
0.032513 0.034417 0.861000
0.019594 -0.003473 0.854000
-0.030554 -0.016999 0.881000
0.020770 0.012417 0.859000
0.036952 0.012971 0.849000
0.019709 0.018073 0.859000
0.007351 0.047883 0.861000
0.016758 0.041986 0.871000
0.014707 -0.010527 0.856000
0.004205 -0.004970 0.870000
0.008032 -0.014083 0.858000
0.030812 0.036983 0.863000
-0.007924 -0.021318 0.865000
-0.003281 -0.023700 0.861000
0.016939 0.014234 0.862000
0.007679 -0.017261 0.858000
0.026316 0.041436 0.867000
-0.013013 -0.002828 0.872000
-0.034102 -0.030346 0.879000
0.038090 0.016504 0.851000
0.036909 0.007720 0.848000
-0.012197 0.031728 0.865000
-0.016845 -0.038452 0.866000
-0.036702 0.009374 0.872000
0.006727 0.036651 0.872000
0.011536 -0.001719 0.856000
0.015592 0.022498 0.866000
-0.011103 -0.032635 0.863000
-0.012939 -0.022795 0.867000
-0.023699 -0.037870 0.869000
-0.002253 0.027774 0.875000
-0.046139 0.001122 0.874000
-0.014416 -0.018935 0.870000
-0.017499 0.012735 0.881000
0.034506 0.003886 0.849000
0.009820 0.005352 0.860000
0.001702 0.015835 0.872000
-0.029136 -0.014114 0.882000
0.030348 0.000392 0.850000
0.026562 -0.002763 0.852000
-0.011551 -0.005686 0.870000
0.032486 0.010550 0.851000
0.027998 -0.004873 0.853000
0.006964 -0.007718 0.857000
-0.029591 0.011554 0.874000
0.005310 0.031375 0.875000
0.014523 0.018934 0.866000
0.003505 0.020547 0.874000
-0.006187 0.006496 0.871000
0.013547 0.034856 0.872000
-0.012698 0.022011 0.875000
0.001325 -0.016948 0.860000
0.017899 0.003570 0.857000
-0.003989 -0.033268 0.861000
0.027583 0.032683 0.862000
-0.033530 0.001134 0.883000
-0.035468 -0.013449 0.886000
0.004933 0.018347 0.872000
0.026944 0.011979 0.853000
-0.020238 -0.015425 0.874000
0.016136 -0.013714 0.857000
-0.018162 -0.004293 0.878000
0.011644 0.047338 0.864000
0.021727 0.040101 0.869000
-0.006943 0.010499 0.876000
-0.014333 -0.038407 0.865000
0.022132 0.018384 0.857000
0.021805 0.011343 0.858000
0.027711 0.040676 0.866000
0.028748 0.039561 0.865000
-0.025869 -0.007580 0.882000
-0.010573 0.020280 0.878000
0.032475 0.029775 0.860000
0.022811 0.008498 0.856000
-0.020145 -0.041852 0.870000
0.020062 0.020902 0.859000
0.009112 -0.019425 0.860000
-0.006123 -0.026211 0.862000
-0.009055 0.002911 0.871000
-0.029591 -0.039167 0.874000
-0.024167 -0.028342 0.873000
-0.011206 -0.002466 0.871000
-0.026988 -0.005408 0.883000
0.025543 0.034576 0.865000
0.007437 0.021552 0.871000
-0.032403 -0.018107 0.882000
-0.024417 -0.006128 0.882000
0.032475 0.032253 0.860000
-0.000091 -0.021195 0.860000
0.021402 0.004975 0.856000
0.002033 -0.020841 0.860000
0.034237 0.015453 0.851000
0.000971 -0.021549 0.860000
-0.005514 0.019919 0.878000
0.017214 0.004986 0.858000
0.020649 -0.002418 0.854000
-0.025200 -0.001412 0.884000
-0.004349 -0.013794 0.862000
0.038090 0.016854 0.851000
0.024136 0.002149 0.853000
-0.008696 -0.001391 0.871000
0.027965 0.005302 0.852000
0.010844 0.000395 0.857000
0.015394 -0.004181 0.855000
-0.001898 0.023506 0.877000
0.001342 -0.039391 0.871000
-0.011511 -0.021368 0.867000
-0.018503 -0.007537 0.877000
0.011536 -0.007356 0.856000
0.004589 0.026693 0.875000
-0.015921 -0.010749 0.874000
-0.017639 0.030479 0.870000
0.023051 0.031372 0.865000
-0.010773 -0.025947 0.865000
0.030348 0.002841 0.850000
-0.024417 0.007304 0.882000
-0.000805 -0.035957 0.866000
-0.037377 0.010798 0.871000
0.001679 -0.027566 0.860000
-0.028674 0.018263 0.868000
-0.021149 0.008030 0.882000
0.010479 -0.002424 0.856000
-0.014706 -0.026689 0.866000
-0.032729 -0.022075 0.881000
-0.010441 -0.019940 0.867000
-0.023248 0.011259 0.879000
-0.022320 -0.021108 0.871000
-0.009024 -0.004601 0.868000
-0.000093 0.029934 0.875000
0.012946 -0.007709 0.856000
0.026881 0.000392 0.851000
0.007086 0.036651 0.872000
-0.019787 -0.020367 0.870000
0.010651 0.041222 0.870000
-0.006598 0.021364 0.878000
0.041901 0.031626 0.872000
0.005255 0.042101 0.866000
0.009250 0.029866 0.873000
0.015394 -0.006292 0.855000
0.013298 -0.006652 0.856000
-0.022268 -0.040015 0.869000
-0.009316 -0.032952 0.862000
0.011766 0.032022 0.873000
-0.004698 -0.025827 0.861000
-0.023637 0.010185 0.880000
-0.026113 -0.014050 0.878000
-0.017117 0.001854 0.880000
0.015042 -0.010515 0.855000
0.033108 0.002139 0.849000
-0.001153 -0.030752 0.860000
0.030562 0.021886 0.856000
-0.029625 -0.039572 0.875000
-0.032220 -0.031721 0.877000
0.031785 -0.001009 0.851000
0.008541 0.033497 0.874000
-0.024715 0.022524 0.867000
0.039095 0.003890 0.850000
-0.022964 -0.001772 0.882000
-0.015921 0.020188 0.874000
-0.006493 -0.016671 0.864000
-0.020692 -0.009714 0.878000
-0.011498 -0.024194 0.866000
-0.025143 -0.005039 0.882000
-0.017059 -0.006454 0.877000
-0.009003 -0.011363 0.866000
0.020086 0.022696 0.860000
-0.030623 -0.012676 0.883000
0.005625 0.039698 0.868000
0.005213 -0.005261 0.859000
0.018337 0.023431 0.861000
-0.018249 0.027812 0.865000
-0.008405 0.021725 0.878000
-0.027558 -0.021277 0.878000
-0.015686 0.010196 0.881000
-0.005064 -0.017717 0.863000
-0.029828 -0.016999 0.881000
-0.007551 -0.036187 0.863000
-0.020862 -0.028603 0.870000
0.012652 -0.017302 0.860000
-0.022984 -0.037154 0.869000
-0.029298 -0.040338 0.876000
0.006650 0.046874 0.862000
0.017038 -0.014945 0.867000
-0.013668 -0.022107 0.868000
-0.029930 0.001135 0.884000
0.034438 0.023295 0.856000
0.029962 0.028680 0.859000
-0.003342 0.017008 0.877000
-0.035508 -0.011273 0.887000
0.020062 0.021962 0.859000
-0.021553 0.022218 0.869000
-0.025964 -0.031936 0.873000
-0.006951 0.012316 0.877000
-0.020692 0.013414 0.878000
-0.006904 0.029081 0.871000
0.003445 0.047418 0.859000
0.031384 0.043678 0.869000
0.038350 0.010874 0.849000
-0.031101 -0.032045 0.876000
-0.022931 0.025022 0.867000
-0.028643 -0.021639 0.878000
0.016959 0.017447 0.863000
0.015682 0.043420 0.871000
-0.003690 0.028102 0.874000
-0.009370 -0.018870 0.867000
0.016821 0.000747 0.856000
0.022132 0.019089 0.857000
-0.020692 -0.008991 0.878000
0.007385 0.044545 0.865000
0.013500 0.025079 0.869000
0.022433 0.004969 0.855000
-0.015080 0.027876 0.867000
0.004157 -0.020841 0.860000
0.021320 0.033586 0.867000
0.000265 0.008607 0.867000
-0.032220 -0.030638 0.877000
0.036808 0.026651 0.862000
0.014965 0.034099 0.871000
0.039491 0.016504 0.851000
0.025899 0.035289 0.865000
0.008809 0.013571 0.865000
0.009102 -0.017989 0.859000
-0.036702 0.009733 0.872000
-0.029599 -0.003235 0.885000
-0.002947 0.036797 0.867000
0.019961 0.038715 0.870000
0.023812 0.014805 0.854000
0.023818 0.037868 0.867000
0.005637 0.017231 0.870000
-0.035268 -0.025339 0.881000
-0.024801 -0.037555 0.870000
-0.009327 0.035562 0.863000
-0.015757 0.029236 0.865000
-0.020037 -0.000682 0.881000
-0.016755 0.013807 0.880000
-0.011813 -0.032635 0.863000
-0.028185 -0.029488 0.875000
-0.023422 -0.030104 0.872000
-0.015794 -0.023866 0.867000
-0.045007 -0.003578 0.880000
0.013314 -0.014419 0.857000
0.017485 -0.008042 0.854000
0.007679 -0.011611 0.858000
0.006266 -0.014083 0.858000
-0.020862 -0.030752 0.870000
-0.031101 -0.030964 0.876000
0.010504 -0.016202 0.858000
0.027614 0.005653 0.852000
-0.024026 0.009109 0.881000
0.041642 0.014770 0.852000
0.004961 -0.041467 0.877000
-0.027558 -0.020555 0.878000
0.031710 0.002837 0.849000
-0.028806 -0.010132 0.883000
-0.016488 -0.027046 0.866000
-0.032915 -0.007614 0.886000
-0.016903 -0.020702 0.869000
0.012667 0.009611 0.861000
0.008840 0.003973 0.868000
-0.014893 0.018813 0.877000
-0.015866 0.023703 0.871000
-0.020284 -0.012215 0.876000
0.033186 -0.000308 0.851000
0.006376 0.025195 0.873000
-0.013684 0.026510 0.869000
-0.021293 0.018368 0.873000
-0.009489 0.020280 0.878000
0.003869 0.030294 0.875000
0.009324 0.000043 0.880000
-0.010798 -0.040637 0.867000
0.025899 0.035645 0.865000
-0.021342 -0.014002 0.875000
-0.025693 -0.021229 0.876000
0.012593 -0.010175 0.856000
-0.019608 -0.007545 0.878000
-0.037735 0.010798 0.871000
-0.022834 0.013760 0.877000
0.008541 0.033138 0.874000
0.018231 0.001804 0.856000
-0.036760 0.000770 0.882000
-0.005432 0.036001 0.865000
-0.024836 0.001135 0.884000
0.002426 0.020907 0.874000
-0.033932 -0.014874 0.884000
0.005657 0.023398 0.873000
0.027647 0.009872 0.853000
0.005650 -0.038359 0.872000
0.015700 0.040599 0.872000
0.002045 -0.006722 0.865000
0.015113 -0.015160 0.859000
0.005219 -0.019779 0.860000
0.015412 0.002156 0.856000
-0.006864 -0.038808 0.866000
0.013485 0.023264 0.868000
0.019265 0.000042 0.855000
0.024809 -0.003465 0.852000
-0.018885 -0.005739 0.878000
0.005560 -0.008080 0.858000
0.018004 0.017782 0.862000
-0.002964 -0.041948 0.872000
0.028983 0.004946 0.851000
0.019333 0.006046 0.858000
0.007723 0.009278 0.863000
0.012470 0.031626 0.872000
-0.027527 -0.024141 0.877000
0.017608 0.008538 0.860000
-0.043393 -0.006505 0.884000
-0.020810 0.003678 0.883000
0.032447 0.008788 0.850000
0.023326 0.026651 0.862000
-0.029599 0.000408 0.885000
-0.017459 0.000043 0.879000
0.032447 0.001092 0.850000
-0.011964 0.023425 0.874000
-0.037698 -0.013464 0.887000
0.023245 -0.009857 0.859000
0.015646 0.028298 0.869000
-0.023089 -0.015767 0.873000
-0.011142 -0.024194 0.866000
-0.031462 -0.033127 0.876000
-0.027370 -0.034770 0.872000
-0.028839 0.013338 0.873000
0.002738 0.048125 0.859000
-0.022525 0.011982 0.879000
0.015042 -0.009107 0.855000
0.006696 0.015762 0.868000
-0.003677 0.030873 0.871000
-0.003665 0.034339 0.868000
0.015466 -0.015160 0.859000
-0.022626 0.021503 0.869000
-0.026595 -0.009032 0.882000
-0.017261 -0.020344 0.869000
-0.032841 -0.000320 0.884000
0.025660 0.020500 0.857000
-0.041197 0.002207 0.876000
-0.021727 -0.012576 0.876000
-0.003994 -0.012730 0.862000
0.007670 -0.007365 0.857000
0.024896 -0.007348 0.855000
-0.015080 -0.022795 0.867000
0.000983 0.040911 0.871000
0.012608 -0.014067 0.857000
0.010479 -0.005947 0.856000
-0.039664 -0.002498 0.882000
-0.014466 -0.010736 0.873000
0.029402 0.010223 0.853000
0.018337 0.012800 0.861000
0.010870 -0.017281 0.859000
0.001704 0.032740 0.873000
-0.024972 0.012662 0.876000
0.003142 -0.040200 0.873000
-0.010037 -0.030859 0.863000
-0.003994 -0.013084 0.862000
-0.009783 0.002914 0.872000
-0.037333 -0.013464 0.887000
-0.015080 -0.023152 0.867000
-0.027290 0.006570 0.881000
0.001679 -0.008807 0.860000
-0.026836 0.010162 0.878000
0.003441 -0.010905 0.858000
-0.000814 0.020234 0.876000
-0.028410 -0.011210 0.882000
-0.018670 -0.031038 0.868000
-0.019719 -0.038139 0.867000
-0.032293 -0.025281 0.879000
-0.011684 0.010547 0.880000
-0.005868 0.014121 0.877000
0.027647 0.013734 0.853000
-0.030635 0.011900 0.873000
-0.011193 0.027257 0.870000
-0.009682 0.034852 0.863000
0.039343 0.038030 0.879000
0.004500 -0.010199 0.858000
0.000970 -0.014100 0.859000
-0.023583 -0.011882 0.878000
-0.001523 0.009700 0.869000
-0.017862 0.004032 0.881000
-0.005123 0.028069 0.873000
-0.009862 0.013429 0.879000
0.023078 0.034973 0.866000
-0.029964 -0.006149 0.885000
-0.034219 0.002585 0.882000
0.014472 0.011409 0.863000
-0.010223 0.018856 0.879000
-0.033129 -0.018470 0.882000
-0.020838 -0.024278 0.869000
-0.026897 0.007649 0.880000
-0.010119 0.028331 0.870000
0.017526 -0.000310 0.856000
0.034156 0.002488 0.849000
-0.005775 -0.013100 0.863000
0.024475 0.034932 0.865000
0.028781 0.041745 0.866000
-0.040207 0.002573 0.878000
-0.000819 -0.043881 0.882000
-0.032004 -0.019900 0.881000
-0.003277 -0.030752 0.860000
-0.046499 0.000763 0.874000
-0.022964 -0.002135 0.882000
-0.001523 0.006123 0.869000
-0.036968 -0.006528 0.887000
0.015783 0.002864 0.857000
0.029919 0.043628 0.868000
0.000617 -0.021903 0.860000
0.039888 0.017225 0.852000
0.032952 0.019726 0.854000
0.018561 -0.000662 0.855000
-0.006485 0.037693 0.863000
-0.032256 -0.028505 0.878000
0.022891 0.022670 0.859000
-0.041573 -0.005778 0.884000
-0.028313 -0.020216 0.879000
0.023757 -0.001711 0.852000
-0.050326 -0.000679 0.878000
-0.013731 -0.010365 0.872000
-0.028111 0.002591 0.884000
0.006673 0.043477 0.865000
0.036603 0.013320 0.849000
-0.029591 -0.034130 0.874000
-0.008696 0.027647 0.871000
0.017588 0.007113 0.859000
-0.019027 -0.029252 0.868000
0.022784 0.015526 0.855000
-0.026535 0.007649 0.880000
0.011341 0.043628 0.868000
0.037956 0.009814 0.848000
0.000266 0.013650 0.870000
0.028359 0.038448 0.864000
0.034668 0.018649 0.853000
-0.006583 0.009778 0.876000
0.017506 -0.010515 0.855000
0.032791 0.028326 0.859000
0.013682 0.004633 0.858000
-0.022984 -0.038227 0.869000
0.030245 0.022969 0.857000
-0.023972 -0.011895 0.879000
0.001677 -0.013392 0.859000
-0.021936 -0.023232 0.870000
-0.019385 -0.032467 0.868000
-0.020503 -0.020367 0.870000
-0.001537 0.021701 0.877000
-0.032004 0.003670 0.881000
0.025660 0.020148 0.857000
0.015288 0.027941 0.869000
0.037302 0.011224 0.849000
-0.022548 0.023567 0.866000
0.025921 0.016914 0.854000
-0.021173 0.006585 0.883000
-0.032679 0.015440 0.870000
-0.015184 0.021961 0.873000
0.032084 0.027266 0.859000
-0.043657 -0.004676 0.882000
0.024867 0.015859 0.854000
0.033135 0.040770 0.868000
-0.029432 -0.019515 0.880000
-0.035630 -0.032228 0.881000
-0.024752 -0.007571 0.881000
-0.021936 -0.021800 0.870000
-0.019496 -0.016126 0.873000
0.021025 0.002154 0.855000
0.011604 0.009965 0.861000
0.001350 0.022397 0.876000
-0.005141 0.013023 0.876000
0.005599 0.010355 0.864000
-0.030259 -0.011223 0.883000
0.011930 -0.017281 0.859000
-0.033317 -0.006893 0.887000
-0.035428 -0.015619 0.885000
-0.014139 -0.001397 0.875000
-0.009348 -0.039475 0.865000
0.009946 0.024420 0.871000
0.009969 0.037411 0.873000
-0.015794 -0.039567 0.867000
0.017194 0.003217 0.857000
-0.001153 -0.031106 0.860000
-0.019246 -0.005377 0.878000
0.042142 0.033612 0.877000
0.032874 0.014770 0.852000
0.025570 0.009181 0.854000
0.025425 0.025203 0.861000
0.002398 0.042004 0.864000
0.009775 -0.004538 0.856000
0.024119 0.033508 0.865000
-0.031641 -0.020262 0.881000
-0.005088 0.034656 0.867000
0.000617 -0.020841 0.860000
0.019801 0.027037 0.863000
-0.017578 -0.027434 0.867000
-0.018691 -0.021417 0.869000
-0.034102 -0.028175 0.879000
0.007326 -0.013377 0.858000
-0.017201 -0.037739 0.866000
-0.041526 -0.003954 0.883000
0.031168 0.038048 0.863000
-0.019696 0.027488 0.866000
0.026242 0.014436 0.853000
-0.018735 0.021911 0.871000
0.024487 -0.005926 0.853000
0.036646 0.014386 0.850000
-0.029693 -0.027750 0.877000
0.013826 0.020740 0.867000
0.018550 0.039477 0.871000
-0.030088 -0.024168 0.878000
0.007086 -0.037641 0.872000
-0.026024 -0.019044 0.875000
0.017920 0.004633 0.858000
-0.009500 0.015600 0.879000
-0.038106 -0.013114 0.888000
0.015042 -0.003125 0.855000
-0.041775 0.005433 0.873000
-0.038850 0.000043 0.880000
0.019755 0.024494 0.861000
-0.026622 -0.037957 0.871000
-0.038794 -0.007623 0.887000
0.030104 0.012681 0.853000
-0.004758 0.009733 0.872000
0.026976 0.008829 0.854000
-0.010049 -0.027339 0.864000
-0.006967 0.018494 0.879000
0.039611 0.032948 0.869000
-0.007952 -0.040684 0.868000
0.037784 0.017575 0.852000
0.009293 -0.021253 0.877000
0.003847 0.037641 0.870000
-0.028839 0.013697 0.873000
-0.049660 -0.004298 0.879000
-0.005495 0.010127 0.875000
0.001710 0.025281 0.876000
0.036818 0.020780 0.854000
0.029683 -0.001359 0.851000
-0.034707 0.006894 0.876000
-0.017300 -0.018957 0.871000
-0.014757 -0.021417 0.869000
0.011354 0.022933 0.869000
0.010328 0.036693 0.873000
-0.023672 0.021835 0.868000
-0.024443 -0.036839 0.870000
-0.013133 0.008012 0.880000
0.035988 0.000743 0.851000
-0.006825 -0.030433 0.861000
-0.010785 -0.024194 0.866000
0.001677 -0.009503 0.859000
-0.024772 0.019357 0.869000
-0.024808 -0.002137 0.883000
0.009832 -0.019448 0.861000
0.030210 -0.004538 0.856000
0.019732 0.013493 0.860000
0.022511 0.021937 0.858000
0.025159 -0.003114 0.852000
0.035319 0.038671 0.869000
0.029221 0.022996 0.858000
-0.025477 0.007296 0.881000
0.003493 0.038043 0.871000
-0.001516 -0.035203 0.865000
0.031384 0.043320 0.869000
-0.004791 0.018473 0.878000
-0.028474 -0.006142 0.884000
0.033186 0.013352 0.851000
0.021418 0.041269 0.871000
0.020016 0.004980 0.857000
-0.028120 -0.039840 0.873000
-0.026321 0.000044 0.885000
0.011631 0.011764 0.863000
-0.009003 -0.012432 0.866000
0.008820 0.014656 0.866000
-0.015306 0.014531 0.880000
-0.009348 0.033508 0.865000
0.001347 0.032058 0.874000
0.005579 0.047174 0.861000
0.003874 0.027445 0.876000
0.000972 -0.031142 0.861000
-0.020456 -0.023893 0.868000
-0.024108 0.002227 0.884000
0.006689 0.015030 0.867000
0.001696 -0.037154 0.869000
0.014199 0.045414 0.868000
-0.001861 -0.029690 0.860000
-0.027715 -0.008315 0.883000
0.031915 0.038804 0.864000
-0.017578 -0.023152 0.867000
0.016623 0.024224 0.864000
0.034953 0.031545 0.860000
0.017506 -0.009811 0.855000
-0.008961 -0.030114 0.862000
-0.010049 0.034181 0.864000
-0.009738 -0.005316 0.868000
0.000263 -0.011978 0.859000
0.016488 -0.013361 0.857000
-0.003635 -0.032914 0.861000
0.031822 0.011965 0.852000
-0.018821 -0.012922 0.875000
-0.022904 0.023567 0.866000
-0.024443 0.019379 0.870000
-0.005070 0.037381 0.864000
0.024867 0.006018 0.854000
-0.021195 -0.026067 0.869000
-0.009693 0.034537 0.864000
0.031748 0.001092 0.850000
-0.017882 0.007667 0.882000
0.029788 0.016562 0.854000
-0.026887 0.019335 0.868000
0.016998 0.025676 0.865000
-0.014757 -0.020702 0.869000
-0.007329 0.018494 0.879000
0.016192 0.007476 0.860000
-0.035832 -0.016001 0.886000
-0.010810 -0.007102 0.868000
-0.011591 0.001840 0.873000
0.038627 0.035175 0.871000
-0.033417 -0.024223 0.880000
-0.016717 -0.002848 0.878000
0.013345 -0.016221 0.859000
0.032990 0.021860 0.855000
-0.025274 -0.027655 0.874000
0.019732 0.023758 0.860000
0.026242 0.015841 0.853000
-0.013841 0.006194 0.879000
-0.015097 0.026837 0.868000
-0.033932 -0.015601 0.884000
-0.002215 -0.031106 0.860000
0.017038 0.027163 0.867000
0.026242 0.011277 0.853000
0.008022 -0.007718 0.857000
0.014742 0.004986 0.858000
-0.005094 0.033625 0.868000
0.003445 -0.017989 0.859000
-0.031057 -0.007970 0.885000
-0.038855 0.007939 0.872000
-0.027590 -0.016960 0.879000
-0.009738 0.030052 0.868000
-0.013621 -0.029863 0.865000
-0.037333 -0.007623 0.887000
-0.026232 -0.006854 0.882000
0.031860 0.015139 0.853000
0.016249 0.014961 0.863000
-0.008053 0.018856 0.879000
-0.012281 -0.012863 0.871000
0.029036 0.035562 0.863000
0.032121 0.031899 0.860000
-0.019385 -0.033182 0.868000
0.008375 -0.007718 0.857000
-0.034047 -0.005432 0.887000
-0.019653 -0.001405 0.880000
0.010198 0.010686 0.862000
0.035806 0.021508 0.855000
-0.006575 0.009047 0.875000
-0.013013 -0.002110 0.872000
0.021805 0.012402 0.858000
0.032362 0.025439 0.857000
-0.010405 -0.038363 0.864000
-0.013510 0.013097 0.881000
-0.024836 0.003318 0.884000
0.038090 0.001793 0.851000
0.031748 0.000392 0.850000
-0.019429 -0.041852 0.870000
0.009980 0.033857 0.874000
-0.033510 0.010104 0.873000
0.012593 0.000042 0.856000
-0.021488 0.009834 0.881000
0.032475 0.032961 0.860000
0.028349 0.015139 0.853000
0.032874 -0.001010 0.852000
-0.013637 -0.039877 0.866000
0.028700 0.013032 0.853000
-0.039524 -0.006893 0.887000
0.002064 0.017649 0.873000
0.038485 0.017575 0.852000
0.009820 0.007122 0.860000
0.016821 -0.012289 0.856000
-0.007621 0.000402 0.871000
0.000971 -0.018363 0.860000
0.029471 0.018341 0.855000
0.002384 -0.012685 0.859000
0.025540 0.012330 0.853000
-0.042445 0.005427 0.872000
-0.017700 -0.015407 0.873000
0.003152 0.025642 0.876000
-0.004017 0.035013 0.867000
-0.035143 -0.008718 0.887000
-0.003277 -0.026151 0.860000
-0.010453 -0.008531 0.868000
-0.038212 -0.001045 0.882000
0.041544 0.009488 0.850000
-0.025535 -0.003954 0.883000
-0.017955 -0.030681 0.868000
0.019267 0.040552 0.871000
-0.035226 0.011515 0.871000
-0.012596 -0.021392 0.868000
-0.032915 -0.006155 0.886000
0.022918 0.023404 0.860000
-0.022576 -0.003945 0.881000
-0.000091 -0.019425 0.860000
0.001325 -0.020841 0.860000
-0.024108 0.004046 0.884000
-0.018460 -0.042813 0.875000
-0.006943 0.024560 0.876000
-0.024389 -0.007209 0.881000
0.010908 0.009977 0.862000
0.031785 0.008798 0.851000
-0.018928 -0.000681 0.880000
0.006735 0.035974 0.873000
-0.022062 -0.014002 0.875000
-0.006553 0.028037 0.872000
-0.022213 -0.004670 0.881000
0.010528 -0.018363 0.860000
-0.021244 -0.042617 0.871000
-0.022678 -0.030070 0.871000
-0.023368 0.019379 0.870000
-0.037978 -0.003963 0.885000
-0.004704 -0.013439 0.862000
-0.026713 0.013353 0.874000
0.013547 0.033421 0.872000
-0.014235 0.011647 0.881000
0.003091 -0.007736 0.859000
-0.020238 -0.014705 0.874000
0.003505 0.022346 0.874000
0.019223 0.034379 0.869000
-0.007179 -0.030788 0.861000
-0.026866 0.008364 0.879000
0.025248 -0.007348 0.855000
0.003829 -0.034174 0.866000
-0.005099 0.005050 0.869000
0.017194 0.002864 0.857000
-0.042542 0.003640 0.874000
0.015857 0.008902 0.861000
0.029928 -0.004902 0.858000
-0.016864 0.026449 0.867000
0.019801 0.026682 0.863000
0.013360 0.008538 0.860000
0.033810 0.039652 0.867000
0.001710 0.024921 0.876000
-0.033280 -0.004697 0.886000
-0.037486 -0.027183 0.882000
0.029998 0.001441 0.850000
-0.009392 0.029729 0.869000
0.036689 0.001443 0.851000
-0.034190 0.010810 0.872000
0.015574 -0.015978 0.865000
-0.012394 0.006555 0.879000
-0.028839 0.020165 0.873000
0.007714 -0.021244 0.862000
-0.028905 -0.030928 0.875000
-0.016884 -0.021392 0.868000
0.026811 0.024112 0.860000
0.000616 -0.013392 0.859000
-0.007196 -0.025887 0.863000
0.008512 0.039118 0.871000
-0.012019 0.005825 0.878000
-0.005775 -0.022690 0.863000
0.000267 0.032344 0.872000
0.027134 0.022316 0.859000
-0.029951 -0.038087 0.874000
-0.021366 -0.012936 0.876000
-0.006590 0.012677 0.877000
-0.037978 -0.030553 0.885000
-0.033644 -0.005061 0.886000
-0.013133 0.010909 0.880000
-0.003292 -0.035874 0.864000
0.002766 -0.036397 0.868000
-0.031534 0.006548 0.878000
-0.001512 0.040535 0.863000
0.027744 0.019067 0.856000
0.040637 0.031481 0.868000
-0.026293 -0.034411 0.872000
0.002429 0.023812 0.875000
0.015664 0.032270 0.870000
0.004859 -0.019403 0.859000
-0.021244 -0.018957 0.871000
0.008881 0.026602 0.872000
0.023461 -0.006636 0.854000
-0.010441 0.030374 0.867000
-0.021986 -0.018261 0.872000
-0.027602 0.020049 0.868000
0.033420 0.025439 0.857000
0.022774 0.040055 0.868000
-0.023503 0.014809 0.875000
0.009935 0.021169 0.870000
0.025158 0.032047 0.864000
-0.025245 0.015493 0.873000
-0.031101 -0.033127 0.876000
-0.007924 -0.019894 0.865000
0.012241 -0.008766 0.856000
-0.017914 0.026775 0.866000
-0.020076 -0.037069 0.867000
-0.011232 0.024836 0.873000
0.007029 0.013215 0.865000
0.034921 0.038626 0.868000
0.013158 0.026541 0.870000
-0.018460 -0.013282 0.875000
0.025510 -0.001711 0.852000
0.008434 0.009988 0.863000
0.040844 0.007739 0.850000
-0.017558 -0.035600 0.866000
-0.009489 0.011246 0.878000
0.036723 0.025528 0.860000
0.023516 0.018715 0.856000
0.018486 0.032553 0.868000
-0.019856 -0.015767 0.873000
-0.002947 -0.038139 0.867000
0.030348 0.004240 0.850000
0.034912 0.026559 0.859000
-0.020739 -0.004665 0.880000
0.020273 0.033982 0.868000
-0.020215 -0.016485 0.873000
0.005298 -0.039481 0.873000
0.041194 0.010887 0.850000
-0.029780 0.016495 0.869000
-0.030951 -0.017018 0.882000
0.026225 0.033825 0.864000
0.026043 -0.007727 0.858000
0.024515 0.004260 0.854000
0.034855 0.008428 0.849000
0.034643 0.039789 0.870000
-0.039247 -0.028862 0.889000
-0.000445 -0.015532 0.860000
0.001342 0.035892 0.871000
-0.007542 -0.026921 0.862000
0.005961 0.011079 0.865000
-0.014432 -0.017164 0.871000
-0.029198 0.019805 0.873000
0.004589 0.027774 0.875000
-0.012197 -0.027727 0.865000
0.024745 0.027361 0.862000
-0.006545 0.029081 0.871000
-0.032293 0.005470 0.879000
0.035638 0.001093 0.851000
-0.019203 0.016628 0.876000
-0.018292 0.025735 0.867000
0.001343 0.033780 0.872000
-0.041056 0.005792 0.873000
-0.013961 -0.032673 0.864000
-0.022238 -0.000319 0.882000
0.018844 0.032196 0.868000
0.004542 -0.033462 0.866000
-0.003311 0.005766 0.869000
-0.024583 0.014088 0.875000
0.006635 -0.019425 0.860000
-0.033779 -0.027121 0.880000
-0.031057 0.000408 0.885000
-0.007682 0.012691 0.878000
0.023840 0.007080 0.855000
0.004933 0.019424 0.872000
-0.041368 0.007580 0.872000
0.011550 -0.014067 0.857000
0.037740 0.016854 0.851000
0.018692 0.015989 0.861000
-0.001898 0.022784 0.877000
0.012829 0.040240 0.872000
0.001325 -0.030044 0.860000
0.006619 -0.005961 0.858000
-0.023328 -0.002135 0.882000
0.017435 0.031875 0.869000
-0.041432 -0.002857 0.881000
-0.014944 0.013807 0.880000
0.024458 -0.001010 0.852000
0.024175 0.037511 0.867000
-0.034826 -0.032155 0.879000
0.035702 0.032645 0.861000
-0.006598 0.016305 0.878000
-0.033054 -0.024948 0.880000
0.027519 0.027297 0.860000
0.030491 0.016562 0.854000
-0.027414 -0.001049 0.885000
-0.004715 0.037381 0.864000
-0.035590 -0.028207 0.880000
0.030527 0.019045 0.855000
0.022784 0.004969 0.855000
-0.027019 -0.004686 0.884000
-0.024361 0.009460 0.880000
-0.012924 -0.026689 0.866000
0.033966 0.041269 0.871000
-0.016845 -0.038095 0.866000
0.003794 -0.011611 0.858000
-0.026622 -0.037598 0.871000
-0.042349 -0.006877 0.885000
-0.013961 -0.036229 0.864000
0.022106 0.016601 0.856000
-0.029169 -0.010859 0.883000
0.026611 0.037781 0.865000
0.040097 0.006681 0.849000
-0.024836 0.000771 0.884000
0.018380 0.025972 0.863000
-0.017618 -0.020344 0.869000
0.004899 -0.033462 0.866000
0.019068 0.025942 0.862000
-0.007915 -0.037652 0.864000
-0.036718 -0.028602 0.881000
-0.003334 0.028134 0.875000
0.027551 0.028038 0.861000
0.005249 0.012147 0.865000
-0.001174 0.018431 0.876000
-0.004791 0.017750 0.878000
-0.025875 0.017947 0.870000
0.027455 0.021584 0.858000
-0.007647 0.026303 0.874000
0.017116 0.038760 0.871000
0.024175 0.038939 0.867000
0.033108 0.004934 0.849000
-0.001863 -0.016259 0.861000
0.019536 0.031088 0.867000
-0.034747 0.006541 0.877000
0.014523 0.020716 0.866000
0.011302 0.013927 0.865000
-0.019742 -0.033896 0.868000
0.018252 0.004275 0.857000
0.022261 0.026297 0.862000
0.004547 0.040009 0.867000
-0.029365 -0.024891 0.878000
-0.021801 -0.007192 0.879000
0.000620 0.040937 0.864000
-0.045420 0.001482 0.874000
0.001677 -0.025413 0.859000
0.003513 0.026363 0.876000
0.002412 -0.036797 0.869000
0.000265 0.010403 0.868000
0.011725 0.026183 0.870000
-0.022601 -0.002498 0.882000
-0.012879 -0.035832 0.863000
0.011712 0.023291 0.869000
-0.019742 -0.032824 0.868000
-0.036744 0.008307 0.873000
0.002384 0.046357 0.859000
-0.023637 0.009823 0.880000
0.036284 0.024409 0.858000
0.014540 0.023238 0.867000
-0.014350 -0.039164 0.866000
0.008901 0.034577 0.874000
-0.012924 -0.039877 0.866000
-0.016793 0.010208 0.882000
0.022059 0.037912 0.868000
-0.023395 -0.032221 0.871000
0.026944 0.006010 0.853000
-0.037613 -0.003599 0.885000
-0.007271 0.006503 0.872000
-0.007568 0.034932 0.865000
0.002426 -0.040965 0.874000
-0.013311 -0.021392 0.868000
-0.009096 0.024172 0.875000
0.037741 0.023730 0.859000
0.009786 -0.014419 0.857000
0.018129 0.030409 0.868000
-0.028839 -0.039481 0.873000
0.018540 -0.003824 0.854000
0.016959 0.023485 0.863000
0.007454 0.026273 0.873000
-0.017221 -0.028504 0.867000
-0.015579 0.019851 0.875000
0.011184 -0.003833 0.856000
0.000620 -0.033384 0.864000
-0.011116 -0.028761 0.864000
-0.006856 -0.018114 0.865000
0.005670 0.030655 0.875000
-0.022345 -0.025798 0.872000
-0.016244 -0.016107 0.872000
-0.013280 0.029983 0.866000
-0.004389 0.003624 0.870000
-0.019519 -0.015425 0.874000
0.004181 0.042409 0.865000
0.010541 0.009611 0.861000
-0.029004 0.008355 0.878000
-0.003315 0.004340 0.870000
-0.031713 0.001861 0.883000
-0.018376 -0.018957 0.871000
-0.002947 0.035013 0.867000
0.008385 -0.016202 0.858000
0.001337 -0.036754 0.868000
0.030734 0.009149 0.851000
0.009588 0.023703 0.871000
0.003473 0.010736 0.866000
0.022811 0.007089 0.856000
0.004938 0.034896 0.873000
-0.005842 0.028429 0.873000
0.017941 0.007467 0.859000
-0.007262 0.028722 0.871000
-0.015236 -0.002841 0.876000
-0.002984 0.021003 0.878000
-0.009403 -0.001389 0.870000
0.029718 -0.002763 0.852000
0.007462 0.029181 0.874000
0.020321 -0.008755 0.855000
-0.021911 0.021860 0.869000
-0.012295 -0.000675 0.872000
-0.014825 -0.011096 0.873000
0.002038 0.043326 0.862000
-0.006912 0.007580 0.872000
-0.014074 -0.015730 0.871000
0.037956 0.007371 0.848000
0.023131 0.038626 0.868000
-0.028249 -0.023780 0.877000
-0.009370 -0.008878 0.867000
-0.027401 -0.034091 0.873000
0.029540 0.022264 0.857000
0.026611 0.036713 0.865000
0.027971 0.035917 0.863000
0.024838 0.004255 0.853000
0.020818 0.025203 0.861000
0.004181 0.042053 0.865000
-0.029098 0.016514 0.870000
-0.000451 0.032703 0.872000
0.027932 -0.000308 0.851000
-0.007212 -0.008858 0.865000
0.014003 0.002156 0.856000
0.009261 0.034217 0.874000
-0.032477 0.000407 0.884000
-0.009446 0.024864 0.874000
-0.020037 0.000769 0.881000
0.003152 0.027445 0.876000
0.038395 0.003191 0.850000
0.037607 0.005626 0.848000
0.020697 0.004622 0.856000
-0.008982 -0.038363 0.864000
-0.019429 -0.018935 0.870000
-0.006951 0.010872 0.877000
0.013500 0.026868 0.869000
0.030245 0.022617 0.857000
-0.003677 0.010439 0.871000
-0.007212 0.034576 0.865000
0.037389 0.016854 0.851000
-0.014366 0.028233 0.867000
0.014914 0.026837 0.868000
-0.023664 0.008383 0.881000
-0.010748 0.034141 0.863000
-0.020480 -0.027855 0.869000
-0.002230 -0.009937 0.866000
0.013158 0.043012 0.870000
0.001700 -0.039032 0.871000
-0.020099 -0.024608 0.868000
0.007786 0.019379 0.870000
-0.012770 0.010547 0.880000
0.027615 0.034141 0.863000
0.022731 0.000744 0.853000
0.018561 -0.001717 0.855000
-0.012998 -0.003542 0.871000
-0.022938 0.009471 0.881000
-0.013388 0.022680 0.873000
0.008414 0.006421 0.861000
0.015746 -0.010515 0.855000
-0.009117 0.007623 0.877000
-0.012998 -0.007485 0.871000
0.020416 0.015599 0.859000
0.026936 0.035248 0.864000
0.010958 0.045666 0.866000
-0.010860 0.001479 0.872000
-0.015921 0.020907 0.874000
0.004870 -0.022637 0.861000
0.032874 0.015121 0.852000
-0.003284 -0.017342 0.862000
-0.009003 -0.019561 0.866000
0.003847 -0.036839 0.870000
0.025159 -0.002763 0.852000
-0.000799 -0.014470 0.860000
0.014134 0.014978 0.864000
-0.028479 -0.034091 0.873000
0.023840 0.016582 0.855000
-0.008992 0.033864 0.865000
0.010139 -0.010187 0.857000
-0.033644 -0.009073 0.886000
-0.000092 0.015871 0.874000
-0.030415 -0.029194 0.877000
-0.044700 0.002561 0.874000
-0.047219 0.001842 0.874000
-0.013652 -0.023152 0.867000
0.029648 0.000742 0.850000
-0.005514 0.018112 0.878000
-0.032841 0.000407 0.884000
0.006310 0.007866 0.864000
0.014019 0.002864 0.857000
-0.026625 -0.007225 0.883000
-0.025171 -0.004318 0.883000
-0.025564 -0.002503 0.884000
-0.015437 -0.023509 0.867000
-0.021776 0.012691 0.878000
0.007437 0.038401 0.871000
0.003095 -0.025797 0.860000
-0.019027 -0.028895 0.868000
0.021452 0.020877 0.858000
-0.030658 -0.009416 0.884000
-0.014944 0.006201 0.880000
-0.022984 -0.040731 0.869000
-0.030530 0.015082 0.870000
-0.022627 0.002224 0.883000
0.009599 0.027678 0.872000
-0.026414 -0.023753 0.876000
-0.011684 0.011634 0.880000
0.013485 0.022550 0.868000
0.004950 0.032095 0.875000
-0.012640 0.025137 0.871000
0.021345 0.036125 0.868000
0.025425 0.025557 0.861000
-0.035671 -0.025004 0.882000
0.011302 0.047037 0.865000
0.024487 0.002149 0.853000
-0.038429 -0.006893 0.887000
0.026225 0.034537 0.864000
0.008069 -0.021244 0.862000
0.007768 0.016476 0.868000
-0.016132 -0.031323 0.866000
-0.036067 0.007597 0.874000
0.033303 0.020429 0.854000
0.016604 0.023485 0.863000
0.031398 0.008088 0.850000
0.031456 0.044495 0.871000
-0.005808 0.032553 0.868000
0.019024 0.011723 0.860000
-0.035873 -0.009083 0.887000
0.013203 0.035974 0.873000
-0.037061 0.009016 0.872000
0.003149 0.029574 0.875000
-0.010585 0.011259 0.879000
-0.031057 -0.008334 0.885000
-0.004731 0.033943 0.867000
0.036283 0.040378 0.875000
0.011210 0.004280 0.858000
0.029683 0.005296 0.851000
0.003807 -0.029370 0.861000
-0.014316 0.031336 0.864000
-0.009873 0.015980 0.880000
-0.008646 -0.020274 0.866000
0.012638 -0.016574 0.859000
-0.016679 0.018431 0.876000
-0.001533 0.029214 0.875000
0.037170 0.020780 0.854000
-0.019924 -0.011855 0.876000
0.034979 0.017575 0.852000
-0.009457 0.023812 0.875000
0.017649 0.024877 0.862000
0.035205 0.011224 0.849000
-0.028217 0.020955 0.876000
0.010139 -0.010892 0.857000
-0.023726 0.019737 0.870000
-0.031385 0.000771 0.884000
0.007013 0.008212 0.863000
0.009798 -0.016555 0.858000
0.001325 -0.007745 0.860000
-0.013403 -0.000317 0.874000
0.002040 -0.032280 0.863000
0.005560 -0.012671 0.858000
0.015592 0.023924 0.866000
-0.044020 -0.005402 0.882000
0.010651 0.022602 0.870000
0.028969 0.030164 0.861000
-0.022345 -0.026874 0.872000
0.022029 -0.000660 0.853000
0.020297 -0.007339 0.854000
-0.023395 -0.031504 0.871000
-0.027684 -0.010847 0.882000
-0.019071 -0.019293 0.870000
-0.000093 0.024588 0.877000
0.010516 0.003224 0.859000
0.021780 0.015210 0.857000
0.002766 0.014333 0.868000
0.007005 0.047229 0.862000
-0.003281 -0.014132 0.861000
0.030598 0.042507 0.867000
-0.001164 -0.037826 0.868000
0.002766 -0.036040 0.868000
0.029357 0.035166 0.862000
-0.011103 -0.035832 0.863000
-0.024555 -0.021540 0.874000
0.013314 -0.013361 0.857000
0.027615 0.033431 0.863000
0.023434 0.035329 0.866000
0.031656 0.025439 0.857000
0.016305 0.024993 0.866000
0.008532 0.028069 0.873000
-0.008626 -0.038007 0.864000
0.015306 0.030838 0.870000
-0.013133 0.014893 0.880000
-0.035228 -0.029294 0.880000
0.004927 -0.037957 0.871000
0.009091 -0.001723 0.858000
0.034814 0.005975 0.848000
0.021602 0.028491 0.864000
-0.030811 0.007271 0.878000
-0.028111 -0.006142 0.884000
-0.009862 0.018132 0.879000
0.008172 0.028069 0.873000
-0.011868 0.030374 0.867000
0.003095 -0.022611 0.860000
0.002033 -0.019425 0.860000
0.025510 0.001445 0.852000
0.030563 0.041389 0.866000
0.005927 -0.020133 0.860000
0.010651 0.024034 0.870000
0.013874 0.029763 0.870000
0.025484 0.030589 0.863000
0.027743 0.042864 0.867000
0.038316 0.030625 0.864000
-0.024490 -0.045047 0.898000
0.010882 0.006414 0.860000
-0.015939 -0.007880 0.875000
0.037302 0.011573 0.849000
-0.022238 -0.001408 0.882000
-0.015686 0.012735 0.881000
-0.016132 -0.024551 0.866000
-0.001880 0.006123 0.869000
0.002068 -0.042092 0.875000
0.036424 0.019351 0.853000
-0.030122 -0.021302 0.879000
-0.002977 0.016268 0.876000
0.003449 -0.022611 0.860000
-0.002230 -0.037026 0.866000
0.032495 0.042654 0.870000
-0.040430 0.004005 0.875000
0.004147 -0.008786 0.858000
-0.028871 -0.002506 0.885000
-0.025072 0.022524 0.867000
0.006368 0.021936 0.872000
0.032626 0.038093 0.864000
-0.019742 -0.024250 0.868000
0.009123 0.007484 0.861000
0.034628 0.016523 0.852000
-0.024167 -0.018641 0.873000
0.031582 0.020101 0.855000
0.005219 0.049951 0.860000
0.025187 0.035645 0.865000
0.012227 -0.004181 0.855000
-0.033113 0.011169 0.872000
-0.018334 0.029729 0.869000
-0.017020 -0.010761 0.875000
0.007445 -0.037282 0.872000
-0.033568 -0.000684 0.884000
0.008809 0.045257 0.865000
0.034506 0.010525 0.849000
0.013082 0.014639 0.865000
0.013762 0.012119 0.863000
-0.029566 -0.009416 0.884000
0.026225 0.034181 0.864000
-0.020668 0.014482 0.877000
0.006719 0.038043 0.871000
-0.029235 -0.003599 0.885000
0.025921 -0.005933 0.854000
-0.035671 0.001133 0.882000
0.003445 -0.008089 0.859000
-0.020886 -0.018598 0.871000
-0.015236 -0.003202 0.876000
-0.003999 -0.034766 0.863000
0.005913 -0.006314 0.858000
0.000626 0.031662 0.873000
0.032098 0.000742 0.850000
0.013314 0.003922 0.857000
0.007454 0.036333 0.873000
0.027260 0.033076 0.863000
-0.026474 0.009800 0.878000
-0.038169 0.000406 0.881000
-0.014155 0.019873 0.876000
-0.018245 0.010571 0.882000
-0.000449 0.008260 0.868000
-0.003665 -0.038898 0.868000
0.013531 0.031948 0.871000
-0.012046 0.015980 0.880000
0.029998 0.002491 0.850000
-0.025274 -0.016504 0.874000
0.040144 0.012986 0.850000
0.014540 0.021453 0.867000
0.029678 0.032645 0.861000
-0.004031 0.031554 0.870000
-0.011309 0.010535 0.879000
-0.005476 0.029114 0.872000
0.024063 -0.009548 0.863000
-0.028872 0.011914 0.874000
-0.028142 -0.000685 0.885000
-0.004369 0.035686 0.866000
-0.004704 -0.022309 0.862000
0.027229 0.031264 0.862000
-0.026744 -0.026247 0.875000
0.016900 0.009599 0.860000
0.004584 0.033497 0.874000
0.018909 0.041628 0.871000
-0.008016 0.024532 0.875000
-0.018292 -0.025293 0.867000
0.014573 0.027225 0.869000
0.006964 -0.007365 0.857000
-0.026053 0.012662 0.876000
-0.020433 -0.036712 0.867000
-0.038541 0.006870 0.873000
0.009187 0.043577 0.867000
0.014742 0.005693 0.858000
-0.007998 0.006511 0.873000
-0.006840 0.037338 0.863000
-0.003643 0.039469 0.863000
-0.028905 -0.031649 0.875000
-0.014689 -0.038051 0.865000
-0.005152 0.019557 0.878000
0.015502 0.009256 0.861000
-0.025390 0.010523 0.878000
0.028935 0.028005 0.860000
-0.002620 0.022423 0.877000
0.015042 -0.003477 0.855000
0.036552 0.022590 0.856000
-0.020786 0.001859 0.882000
0.019594 -0.003121 0.854000
0.009832 0.009256 0.861000
-0.008280 0.033864 0.865000
0.012829 0.033421 0.872000
-0.007621 0.004703 0.871000
0.021099 0.010283 0.858000
0.009433 -0.014772 0.857000
-0.023781 -0.020414 0.872000
-0.048048 -0.001399 0.876000
-0.004068 0.019557 0.878000
0.035596 0.014735 0.850000
-0.014515 -0.001038 0.876000
0.014506 0.018200 0.865000
-0.027729 -0.038000 0.872000
-0.001512 -0.034056 0.863000
-0.015045 -0.036627 0.865000
-0.005082 0.034973 0.866000
-0.014235 0.012735 0.881000
-0.020122 -0.030716 0.869000
0.009433 -0.014419 0.857000
-0.017300 0.022986 0.871000
0.035931 0.024762 0.858000
0.015930 0.022828 0.865000
-0.031859 -0.030638 0.877000
0.010186 0.008547 0.861000
-0.027352 -0.007952 0.883000
0.016604 0.023130 0.863000
0.019536 0.030017 0.867000
-0.017578 -0.032430 0.867000
-0.022627 0.001134 0.883000
0.031158 -0.003469 0.853000
0.010614 0.016458 0.867000
-0.002238 -0.038942 0.869000
-0.016903 -0.020344 0.869000
-0.001176 0.024949 0.877000
-0.022931 0.022881 0.867000
-0.008606 -0.030824 0.862000
0.004904 -0.034571 0.867000
0.027323 0.039561 0.865000
0.022537 0.022670 0.859000
0.026104 0.023404 0.860000
0.013422 0.013556 0.864000
-0.009862 0.012706 0.879000
-0.024780 -0.005765 0.882000
-0.022422 -0.013282 0.875000
-0.047020 -0.002122 0.877000
-0.021961 -0.026485 0.871000
0.013469 0.019312 0.867000
0.034245 0.029421 0.860000
0.027263 -0.003114 0.852000
0.012456 0.028005 0.871000
-0.041244 0.001126 0.877000
0.033264 0.019000 0.853000
-0.008280 -0.013842 0.865000
0.015764 -0.000310 0.856000
-0.022886 -0.010448 0.879000
-0.012741 0.018473 0.878000
0.026881 0.002844 0.851000
0.037258 0.008418 0.848000
0.003152 0.026363 0.876000
0.022784 0.003913 0.855000
0.000628 0.029934 0.875000
-0.034621 0.000407 0.883000
-0.021171 -0.038540 0.868000
0.001323 0.045650 0.859000
0.026976 0.016562 0.854000
0.029426 0.038448 0.864000
-0.021479 0.024993 0.866000
-0.005058 -0.014149 0.862000
0.022210 0.023758 0.860000
-0.015686 0.008021 0.881000
-0.029399 -0.022025 0.879000
-0.033530 0.004405 0.883000
-0.019742 0.023979 0.868000
0.028382 0.016211 0.854000
0.015484 0.007830 0.860000
0.009229 0.023703 0.871000
-0.010822 0.028298 0.869000
0.006361 0.020118 0.871000
-0.004742 0.004335 0.869000
0.041388 0.016562 0.854000
0.003149 0.024172 0.875000
0.030241 0.042507 0.867000
-0.036034 -0.000319 0.882000
-0.016299 -0.008600 0.875000
0.004574 0.017988 0.872000
0.029289 0.029067 0.860000
0.007670 -0.008423 0.857000
0.007343 0.049243 0.860000
0.019046 0.016698 0.861000
0.037767 0.038622 0.876000
0.013453 0.018934 0.866000
-0.020574 -0.016485 0.873000
-0.001893 0.028854 0.875000
0.030879 0.019045 0.855000
-0.016961 -0.017902 0.872000
0.026593 0.014436 0.853000
0.025159 -0.000309 0.852000
0.003091 0.046711 0.859000
0.029357 0.034457 0.862000
-0.002930 -0.017342 0.862000
-0.018355 -0.041494 0.870000
0.006295 -0.022309 0.862000
0.006964 -0.007012 0.857000
-0.024112 0.017967 0.871000
0.030741 0.033353 0.861000
0.021099 0.013815 0.858000
-0.012524 -0.035122 0.863000
-0.034542 -0.025339 0.881000
-0.001861 -0.029336 0.860000
0.002406 0.011462 0.867000
0.027327 -0.005933 0.854000
0.009433 -0.009834 0.857000
-0.025072 0.022167 0.867000
0.014590 0.031196 0.870000
0.030528 0.039917 0.865000
-0.012611 0.027941 0.869000
0.012241 -0.011584 0.856000
-0.029985 0.010127 0.875000
0.000971 -0.022611 0.860000
0.035946 0.012986 0.850000
0.033576 -0.001361 0.852000
-0.011103 0.035562 0.863000
-0.023116 0.016231 0.874000
-0.025159 -0.036123 0.870000
-0.014090 0.023730 0.872000
-0.006951 0.011233 0.877000
0.032905 0.036230 0.862000
-0.014825 0.022680 0.873000
-0.017221 -0.038496 0.867000
-0.005507 0.015204 0.877000
0.014965 0.033741 0.871000
0.024458 -0.000309 0.852000
0.012608 -0.013009 0.857000
0.021074 0.016973 0.857000
0.003847 0.015798 0.870000
-0.000814 0.027084 0.876000
-0.023288 0.022881 0.867000
-0.007187 0.037650 0.862000
0.012241 -0.012289 0.856000
0.003091 -0.019049 0.859000
0.031435 -0.000658 0.851000
-0.019049 -0.041088 0.869000
0.005207 -0.010905 0.858000
-0.014219 0.014893 0.880000
0.002754 0.042360 0.864000
0.005213 0.048832 0.859000
0.035554 0.011224 0.849000
0.022380 -0.004522 0.853000
-0.036468 0.006886 0.875000
0.011047 0.035974 0.873000
0.009855 0.047284 0.863000
0.032797 0.008438 0.850000
0.021502 0.024112 0.860000
-0.001876 0.038939 0.867000
0.011341 0.043985 0.868000
0.031952 0.039205 0.865000
0.039434 0.035256 0.873000
-0.010822 -0.016410 0.869000
-0.002605 0.011887 0.872000
-0.005426 0.036670 0.864000
0.015764 0.002156 0.856000
0.016136 0.002159 0.857000
0.037083 0.017926 0.852000
0.027583 0.031264 0.862000
0.017608 0.008891 0.860000
-0.025419 0.009450 0.879000
0.027260 0.032365 0.863000
0.040075 0.019420 0.856000
-0.013977 -0.031999 0.865000
-0.014825 0.022320 0.873000
0.009511 0.046272 0.864000
0.007070 -0.035765 0.870000
-0.006130 -0.022335 0.863000
-0.011827 -0.037296 0.864000
-0.032469 0.010475 0.874000
-0.033548 0.009756 0.874000
0.003874 0.027805 0.876000
0.010316 0.026961 0.872000
0.017506 -0.009107 0.855000
-0.023781 -0.029028 0.872000
-0.009316 -0.034371 0.862000
-0.045110 -0.005765 0.882000
-0.003284 0.040133 0.862000
0.017214 -0.013730 0.858000
-0.007196 0.036628 0.863000
-0.028281 0.008355 0.878000
-0.002620 0.018452 0.877000
0.015610 0.024665 0.867000
0.007697 -0.020133 0.860000
