-0.008816 0.025171 0.848000
-0.012670 -0.016381 0.849000
0.000257 0.027008 0.840000
0.017294 0.041617 0.828000
-0.018764 -0.010879 0.856000
0.010779 0.023470 0.825000
0.021798 0.030004 0.818000
-0.025012 0.020118 0.841000
-0.011915 0.031343 0.845000
0.023230 0.003420 0.821000
-0.015484 0.015435 0.850000
0.011769 0.006815 0.823000
0.006729 -0.014613 0.828000
-0.012350 0.011250 0.851000
-0.007376 0.040983 0.843000
0.010112 -0.024777 0.826000
-0.016572 -0.025557 0.852000
-0.010212 0.024473 0.848000
0.008795 0.022246 0.830000
-0.009067 0.045969 0.839000
-0.007062 0.020261 0.847000
-0.035509 -0.015738 0.852000
0.017845 0.032858 0.822000
-0.017939 0.043978 0.834000
0.009444 0.024208 0.827000
-0.013416 0.009159 0.852000
0.012894 -0.031729 0.830000
-0.036071 -0.026412 0.857000
-0.036347 -0.007279 0.847000
-0.008753 -0.002038 0.842000
-0.019844 -0.011245 0.857000
-0.005269 -0.038634 0.839000
0.023060 0.024527 0.815000
-0.036211 -0.017141 0.852000
0.025712 0.023492 0.814000
-0.033601 -0.016536 0.857000
0.020336 0.039184 0.827000
0.014818 0.010880 0.823000
0.008494 0.047411 0.834000
0.014690 -0.036732 0.835000
-0.019474 0.028771 0.841000
0.025807 0.012146 0.817000
-0.002171 0.030227 0.843000
-0.009446 -0.005850 0.842000
0.000950 0.044694 0.841000
-0.008816 0.011211 0.848000
0.004017 -0.038950 0.831000
0.021514 0.003753 0.820000
-0.004584 0.012833 0.840000
-0.029083 -0.020817 0.859000
-0.007332 -0.029965 0.838000
-0.008457 0.028279 0.847000
0.013545 -0.019725 0.828000
-0.038009 -0.021374 0.853000
-0.007704 0.044347 0.841000
0.007410 0.026622 0.828000
-0.013735 0.038175 0.850000
0.024126 0.031985 0.817000
0.003016 0.033152 0.838000
-0.001481 0.009780 0.845000
-0.011985 0.003191 0.850000
-0.001122 0.015888 0.837000
-0.034134 0.004210 0.844000
-0.010936 0.006339 0.850000
0.024401 -0.030655 0.838000
0.004348 -0.030667 0.829000
0.008082 -0.016297 0.827000
-0.031974 0.008705 0.842000
-0.030533 -0.024027 0.860000
-0.027379 -0.001008 0.850000
0.013741 0.051555 0.840000
0.021436 0.019544 0.817000
-0.014802 0.015103 0.851000
-0.020908 0.022247 0.843000
0.018929 0.038071 0.825000
0.008816 0.038736 0.832000
0.012108 0.006477 0.823000
-0.017480 0.024039 0.845000
0.006737 -0.035444 0.829000
0.000598 -0.038701 0.833000
0.022385 0.047752 0.840000
-0.015539 0.007064 0.853000
-0.033601 -0.022532 0.857000
-0.013654 0.033081 0.845000
-0.000435 0.033617 0.841000
0.002309 -0.029751 0.832000
-0.008753 0.001081 0.842000
-0.032705 0.004552 0.843000
-0.006666 -0.048072 0.841000
-0.007012 0.005926 0.841000
-0.011499 0.040837 0.840000
0.005747 0.022696 0.834000
0.013463 -0.000976 0.823000
-0.038925 -0.017450 0.850000
0.018814 0.020965 0.820000
0.027455 0.015825 0.816000
-0.003534 -0.037164 0.837000
0.007779 0.017826 0.831000
0.020839 0.003415 0.820000
-0.029117 -0.021903 0.860000
0.018139 0.004428 0.820000
0.009501 0.040791 0.832000
0.025042 0.020477 0.814000
0.010779 -0.009127 0.825000
0.002668 0.027256 0.837000
0.005706 -0.026200 0.828000
0.000257 0.021796 0.839000
-0.019844 -0.009834 0.857000
0.009466 0.015395 0.829000
0.026783 0.030267 0.816000
0.016809 0.001730 0.821000
0.009103 -0.012213 0.827000
-0.017562 0.014718 0.849000
0.006388 -0.027563 0.828000
0.021745 0.018512 0.816000
0.023396 0.024192 0.815000
0.023174 0.006445 0.819000
0.017656 0.043032 0.829000
-0.022340 -0.011964 0.858000
-0.014715 0.025112 0.846000
-0.003878 -0.035097 0.837000
0.020788 0.009467 0.818000
0.001285 0.015831 0.834000
0.015138 0.001394 0.822000
0.003333 -0.024927 0.831000
-0.019844 -0.009129 0.857000
0.018905 -0.037943 0.839000
0.004735 0.039314 0.837000
-0.028854 0.020142 0.842000
0.006729 -0.032334 0.828000
-0.007012 -0.038034 0.841000
0.012785 0.027478 0.823000
-0.001465 0.012772 0.836000
-0.028820 0.019772 0.841000
0.017997 0.042691 0.829000
-0.005621 -0.024851 0.840000
-0.018742 -0.017905 0.855000
-0.005661 0.024067 0.846000
0.010975 0.052592 0.840000
0.002674 0.041134 0.839000
0.018837 0.033156 0.821000
-0.005256 -0.027863 0.837000
0.024462 0.012482 0.817000
-0.031522 -0.021499 0.858000
0.006729 -0.019725 0.828000
-0.008387 -0.025542 0.840000
0.018139 0.021303 0.820000
-0.016963 -0.014720 0.854000
0.002312 0.015469 0.833000
-0.041024 -0.019199 0.850000
0.020577 0.036962 0.823000
-0.016611 -0.000661 0.854000
-0.014068 -0.032106 0.849000
-0.018523 0.022300 0.845000
0.008837 0.047754 0.834000
-0.036652 -0.005878 0.846000
0.016027 -0.032529 0.833000
0.011486 -0.028551 0.827000
-0.018370 0.036256 0.838000
0.022781 0.030640 0.817000
-0.003212 0.043759 0.843000
-0.016107 0.022675 0.846000
-0.011553 0.033042 0.844000
0.000938 -0.011588 0.831000
0.001986 0.044640 0.840000
0.005699 -0.010851 0.827000
-0.014051 -0.029974 0.848000
-0.034686 -0.007995 0.849000
-0.022719 -0.015514 0.859000
0.020452 0.025628 0.818000
0.022622 -0.029894 0.836000
-0.000775 -0.037374 0.834000
-0.008722 0.046659 0.839000
0.013188 -0.026168 0.827000
-0.016241 -0.017161 0.853000
0.004343 -0.012228 0.828000
0.026480 0.031649 0.817000
0.005734 0.016820 0.832000
-0.016744 0.028146 0.843000
-0.007004 -0.000304 0.840000
-0.019752 0.003904 0.853000
-0.009503 0.029325 0.847000
0.014800 0.008499 0.822000
-0.006290 -0.031997 0.837000
-0.014749 -0.042539 0.848000
-0.039811 -0.025617 0.854000
-0.022912 0.000393 0.853000
-0.010548 -0.001004 0.847000
0.004036 0.019630 0.835000
0.007788 0.033942 0.832000
-0.005256 -0.010293 0.837000
-0.011286 0.009488 0.850000
-0.041773 -0.023425 0.851000
0.010161 -0.033779 0.830000
0.029434 0.019160 0.815000
-0.008108 0.030022 0.847000
0.012832 -0.013218 0.826000
-0.014485 0.005308 0.853000
-0.022990 0.018431 0.843000
-0.005654 0.036559 0.845000
0.014638 0.047640 0.832000
0.007751 -0.015635 0.828000
-0.010781 0.045914 0.838000
0.000254 -0.015711 0.832000
-0.030179 -0.024735 0.860000
-0.010897 -0.017389 0.847000
0.012123 -0.002672 0.824000
-0.027815 0.014597 0.842000
0.015458 0.021667 0.821000
0.010137 0.031053 0.828000
-0.032705 0.006287 0.843000
-0.006357 0.032076 0.846000
-0.013035 -0.015701 0.850000
0.011798 -0.009806 0.825000
-0.017294 0.006010 0.853000
-0.020056 0.007748 0.851000
-0.013400 -0.001709 0.851000
-0.015871 -0.018543 0.852000
-0.024901 0.004235 0.849000
0.012537 0.039961 0.829000
-0.003567 0.037255 0.845000
0.000255 0.012742 0.834000
0.011841 -0.029608 0.828000
-0.028079 -0.002407 0.850000
-0.009176 0.020658 0.849000
-0.001824 0.039595 0.843000
0.014209 0.038504 0.827000
-0.000432 -0.032912 0.834000
0.008453 -0.035828 0.830000
0.018338 0.043715 0.829000
-0.005967 0.003499 0.840000
-0.016592 -0.022427 0.853000
-0.006714 0.021656 0.847000
-0.003915 0.035864 0.845000
-0.028395 -0.000308 0.849000
0.023396 0.017819 0.815000
-0.030143 -0.003103 0.849000
0.010088 -0.003690 0.824000
-0.018782 0.028079 0.841000
0.004031 0.027502 0.834000
-0.025931 -0.021549 0.860000
0.018454 0.005771 0.819000
-0.021179 0.028391 0.840000
-0.009122 0.002126 0.844000
-0.004578 0.010401 0.839000
-0.002518 0.027799 0.843000
0.019245 -0.004368 0.824000
-0.013004 0.024124 0.848000
0.011583 0.049470 0.834000
-0.001824 0.033003 0.843000
-0.008764 -0.033614 0.843000
-0.016963 -0.008745 0.854000
-0.031132 -0.015478 0.857000
0.002309 -0.028724 0.832000
0.023174 0.033412 0.819000
0.015194 0.032298 0.825000
0.006753 -0.038950 0.831000
-0.024812 -0.014436 0.858000
-0.032550 -0.004844 0.848000
-0.002174 0.040337 0.844000
0.019560 -0.003008 0.823000
0.001636 0.022805 0.838000
-0.028178 -0.006979 0.853000
-0.024989 -0.001711 0.852000
0.016973 0.052271 0.846000
0.012492 0.020099 0.826000
0.006411 0.032533 0.831000
0.005037 -0.037195 0.830000
-0.020214 0.023288 0.843000
-0.015063 0.023719 0.846000
-0.037569 -0.016070 0.851000
-0.030934 0.010092 0.842000
0.023230 0.004095 0.821000
-0.008041 0.047061 0.840000
0.015378 -0.036388 0.835000
0.011528 0.041376 0.830000
0.027053 0.025502 0.814000
-0.026423 -0.005575 0.853000
0.010452 -0.013898 0.826000
0.007061 -0.023105 0.827000
0.014800 -0.002666 0.822000
0.007779 0.018852 0.831000
-0.027188 -0.010867 0.855000
0.029063 0.021147 0.814000
-0.028786 0.015945 0.840000
-0.006714 0.023747 0.847000
-0.018991 0.039907 0.835000
-0.010897 0.028628 0.847000
-0.025690 -0.002062 0.852000
0.011855 0.042009 0.829000
-0.031838 -0.020063 0.857000
-0.026428 0.016330 0.842000
-0.004578 0.006602 0.839000
0.025377 0.021147 0.814000
-0.036604 -0.020320 0.853000
-0.009111 -0.033267 0.843000
0.013869 -0.024466 0.827000
0.016532 0.034633 0.824000
-0.017335 -0.004181 0.855000
0.003670 0.010631 0.830000
-0.010164 0.034779 0.844000
0.014655 -0.033901 0.833000
-0.040976 -0.018478 0.849000
-0.004923 0.010401 0.839000
-0.029721 -0.017947 0.857000
0.016871 0.036329 0.824000
-0.005621 0.001079 0.840000
-0.001463 -0.010613 0.835000
0.005761 0.040987 0.836000
-0.019844 -0.040168 0.857000
0.007061 -0.026168 0.827000
0.012152 -0.014238 0.826000
0.018814 0.027715 0.820000
-0.012161 0.044189 0.838000
-0.034890 -0.018938 0.854000
-0.008774 0.037558 0.844000
0.012167 -0.020722 0.827000
-0.006658 -0.042137 0.840000
0.012801 -0.005725 0.824000
-0.016553 0.013001 0.851000
0.005079 0.048615 0.837000
-0.025841 -0.013009 0.857000
-0.009840 0.032424 0.846000
0.030814 0.025229 0.816000
-0.010524 -0.022217 0.845000
0.012492 0.019759 0.826000
-0.018038 0.000042 0.855000
-0.005967 -0.047669 0.840000
0.021934 -0.030926 0.836000
-0.003567 0.035516 0.845000
0.005404 -0.041836 0.834000
-0.022799 0.036170 0.836000
-0.008753 0.041628 0.842000
0.023396 0.021508 0.815000
0.009784 0.030675 0.827000
-0.020103 0.004606 0.853000
0.007052 -0.006759 0.826000
-0.014084 0.017884 0.850000
0.002652 -0.027011 0.832000
0.006729 -0.019043 0.828000
-0.001463 -0.042230 0.835000
-0.004567 -0.010982 0.837000
-0.002868 0.036863 0.844000
0.005754 0.035439 0.835000
-0.009816 -0.035043 0.844000
0.001626 -0.027730 0.833000
0.006785 0.045062 0.835000
0.013188 0.037142 0.827000
0.014890 0.039525 0.827000
0.016123 -0.038933 0.838000
-0.014118 0.010211 0.852000
-0.014468 -0.006270 0.852000
0.000257 0.023551 0.840000
-0.029478 -0.003107 0.850000
0.016532 0.035312 0.824000
-0.008753 -0.012088 0.842000
-0.005275 -0.015862 0.840000
0.027723 0.021147 0.814000
-0.028228 0.009421 0.844000
-0.000782 0.030885 0.842000
-0.026870 0.010475 0.845000
-0.019820 0.028425 0.841000
0.005055 0.016841 0.833000
0.014854 -0.010146 0.825000
-0.015536 0.048441 0.834000
-0.020454 0.004255 0.853000
-0.031280 0.011478 0.842000
-0.033399 0.004205 0.843000
0.010173 0.040058 0.831000
-0.005967 0.008339 0.840000
0.008392 0.001058 0.824000
0.016123 -0.039623 0.838000
-0.018326 0.040299 0.836000
0.006388 -0.014954 0.828000
-0.000781 0.023233 0.841000
0.003369 0.049481 0.840000
0.020214 -0.032302 0.836000
0.006729 -0.031993 0.828000
-0.004258 0.039642 0.844000
-0.013886 0.042120 0.838000
0.009455 0.013672 0.828000
0.000950 0.039502 0.841000
0.001640 0.035997 0.840000
-0.027914 0.007693 0.845000
-0.025919 0.005277 0.848000
-0.002497 -0.036087 0.836000
-0.005661 0.028246 0.846000
0.002983 -0.014290 0.829000
-0.028429 -0.002757 0.850000
0.013835 -0.010825 0.825000
0.000255 -0.038015 0.833000
-0.018261 0.014019 0.849000
0.021772 0.021897 0.817000
0.006753 0.016116 0.831000
-0.005269 -0.035872 0.839000
0.016257 -0.040301 0.845000
-0.013400 -0.006613 0.851000
-0.018060 -0.007709 0.856000
-0.004263 0.036212 0.845000
-0.014938 0.039408 0.839000
-0.012335 -0.000658 0.850000
-0.011219 -0.038563 0.845000
0.015470 0.050864 0.840000
0.009501 0.039079 0.832000
-0.020512 0.025656 0.841000
-0.009458 -0.002387 0.843000
0.029134 0.029259 0.816000
-0.006297 -0.033414 0.838000
-0.021154 0.029739 0.839000
0.010753 0.000041 0.823000
-0.001129 0.027419 0.842000
-0.030277 0.008716 0.843000
0.004723 0.025473 0.835000
-0.000782 0.039202 0.842000
0.025042 0.023492 0.814000
0.020286 -0.036562 0.839000
-0.013050 -0.003110 0.851000
0.022417 0.016833 0.816000
-0.001465 0.011052 0.836000
-0.014468 -0.009777 0.852000
-0.029859 0.015618 0.841000
0.025811 0.044242 0.839000
0.010440 -0.009467 0.825000
0.005391 -0.039681 0.832000
-0.000776 -0.041199 0.835000
0.019442 0.008794 0.818000
0.013284 0.048383 0.833000
0.008412 0.009900 0.826000
0.007742 -0.022424 0.827000
-0.025674 0.021477 0.840000
0.017464 0.026365 0.820000
-0.025459 -0.009823 0.856000
-0.028957 0.007345 0.845000
0.011769 0.000718 0.823000
0.000598 -0.035615 0.833000
-0.027914 0.009084 0.845000
0.001624 0.010999 0.832000
0.002315 0.016174 0.834000
-0.013290 0.033042 0.844000
-0.007769 0.018540 0.848000
-0.038971 -0.019923 0.851000
-0.037790 -0.026381 0.856000
0.013140 0.008858 0.824000
0.018814 0.027378 0.820000
-0.002171 0.044106 0.843000
-0.011872 0.037469 0.842000
0.018499 0.030790 0.821000
-0.008407 0.041628 0.842000
-0.035566 -0.000654 0.845000
-0.005959 -0.034490 0.839000
0.012211 0.045134 0.830000
-0.002156 -0.046121 0.837000
0.002677 0.047406 0.840000
-0.020707 0.010874 0.849000
-0.042824 -0.021324 0.851000
-0.012595 0.034084 0.844000
0.025776 0.030603 0.816000
0.018791 0.012850 0.819000
0.028058 0.020477 0.814000
0.004723 0.019974 0.835000
-0.021255 0.021553 0.843000
-0.005250 -0.030582 0.836000
-0.027794 -0.004166 0.852000
-0.000088 0.012055 0.834000
-0.022719 -0.020817 0.859000
0.004729 0.034450 0.836000
-0.006995 -0.008591 0.839000
-0.019998 0.040889 0.834000
0.019465 0.005434 0.819000
-0.017274 -0.032921 0.852000
-0.011608 -0.011825 0.848000
-0.014035 -0.022618 0.847000
-0.014819 -0.013634 0.852000
-0.028991 0.004220 0.846000
0.026447 0.030267 0.816000
-0.005614 -0.042433 0.839000
-0.001811 -0.020284 0.837000
-0.035776 -0.011503 0.850000
-0.012851 0.043844 0.838000
-0.007350 0.046369 0.840000
0.009070 -0.000977 0.824000
0.002990 -0.026979 0.831000
-0.012700 0.010900 0.851000
0.011173 0.034161 0.829000
0.012447 0.026462 0.823000
0.018906 -0.004368 0.824000
0.017507 0.030151 0.822000
-0.008826 0.018212 0.849000
-0.016241 -0.019267 0.853000
0.018171 -0.035442 0.837000
0.016871 0.035651 0.824000
0.000938 -0.011246 0.831000
0.006753 0.025351 0.831000
-0.006666 -0.001689 0.841000
0.006040 0.006508 0.827000
0.000257 0.026663 0.840000
0.016153 0.020340 0.822000
0.005372 -0.027255 0.829000
0.012182 -0.028245 0.828000
0.007392 0.005820 0.826000
-0.001465 -0.044689 0.836000
-0.012595 0.032000 0.844000
0.008484 0.041183 0.833000
-0.005988 0.042371 0.843000
-0.003887 0.014199 0.839000
-0.029652 -0.010163 0.855000
-0.001824 0.029880 0.843000
0.019385 0.044109 0.830000
0.026480 0.014163 0.817000
0.015230 0.039525 0.827000
-0.017314 0.038280 0.837000
-0.009491 0.031380 0.846000
-0.008022 -0.028586 0.838000
-0.037878 -0.026796 0.858000
-0.007004 0.047061 0.840000
-0.026962 -0.019049 0.859000
-0.010461 0.041875 0.840000
0.014175 -0.010146 0.825000
0.011132 -0.020697 0.826000
-0.032771 -0.027663 0.863000
-0.027957 -0.014772 0.857000
0.004055 0.050458 0.839000
0.014261 -0.028996 0.830000
-0.010176 -0.047605 0.845000
-0.017666 0.002151 0.854000
0.012507 -0.026509 0.827000
0.022725 0.020502 0.815000
-0.007004 -0.006873 0.840000
0.012785 0.022736 0.823000
0.022499 0.006782 0.819000
-0.017335 -0.005236 0.855000
-0.012943 0.033737 0.844000
0.010210 -0.039434 0.834000
-0.000436 0.045093 0.842000
-0.015871 -0.022401 0.852000
-0.023487 0.033761 0.836000
-0.013718 0.021357 0.849000
-0.019679 0.039220 0.835000
-0.010548 -0.018783 0.847000
0.030105 0.022179 0.815000
-0.021558 -0.001717 0.855000
0.005378 -0.036170 0.830000
-0.001477 0.043412 0.843000
-0.038225 -0.015701 0.850000
-0.029368 -0.016183 0.857000
0.027053 0.026507 0.814000
0.000257 -0.047612 0.839000
-0.003216 0.032000 0.844000
-0.011567 -0.045171 0.845000
0.005365 0.010265 0.828000
-0.008022 -0.030310 0.838000
0.016173 0.029849 0.823000
-0.036869 -0.016420 0.851000
-0.023725 -0.009481 0.857000
-0.014417 -0.037697 0.849000
0.016212 0.037052 0.825000
-0.014819 -0.012582 0.852000
-0.031448 -0.017926 0.856000
-0.022587 -0.002418 0.854000
-0.017701 0.048386 0.839000
0.014192 0.036077 0.826000
-0.020526 -0.026381 0.856000
0.003683 0.029526 0.833000
-0.007358 -0.002728 0.841000
0.007779 0.019878 0.831000
-0.026255 -0.017635 0.859000
-0.015908 0.001448 0.854000
-0.020903 -0.019710 0.857000
-0.024436 0.014301 0.845000
-0.010794 0.044933 0.839000
-0.013702 -0.032766 0.848000
-0.009165 0.010163 0.848000
0.005359 -0.001661 0.827000
0.013124 0.022058 0.823000
-0.018562 -0.045067 0.863000
-0.007723 -0.019388 0.843000
0.021855 0.044611 0.833000
0.004364 0.030860 0.832000
-0.012820 0.047525 0.836000
-0.003534 -0.038886 0.837000
-0.009747 0.047638 0.838000
0.021852 0.034128 0.820000
0.022994 -0.030963 0.837000
-0.001119 -0.041887 0.835000
0.020533 -0.030889 0.835000
-0.016824 0.019564 0.847000
0.021271 -0.032686 0.837000
-0.002841 -0.028862 0.836000
-0.012321 0.020309 0.849000
-0.014485 0.001446 0.853000
0.000947 -0.047267 0.839000
-0.024516 -0.026858 0.860000
-0.021280 0.020537 0.844000
0.023315 0.036668 0.824000
0.000598 -0.025017 0.834000
-0.018720 0.002503 0.854000
0.013188 -0.020722 0.827000
0.002990 -0.025611 0.831000
0.016973 0.044056 0.829000
0.010452 -0.021717 0.826000
0.027791 0.016161 0.816000
-0.011802 0.046892 0.837000
-0.040372 -0.020973 0.851000
-0.030842 -0.003802 0.849000
0.007104 0.022642 0.832000
-0.005981 -0.017633 0.842000
0.011583 -0.037717 0.834000
-0.006365 0.022004 0.847000
-0.021679 0.015014 0.846000
0.010897 0.049127 0.834000
-0.032239 -0.004850 0.849000
-0.022366 -0.015867 0.859000
-0.017314 0.003557 0.854000
0.002680 -0.045995 0.841000
-0.016572 -0.024855 0.852000
0.020763 0.013155 0.817000
0.003357 0.027256 0.837000
-0.023669 -0.004181 0.855000
0.004353 -0.025922 0.830000
0.019727 0.043426 0.830000
-0.000777 -0.044001 0.836000
-0.027411 -0.027631 0.862000
0.018316 -0.008820 0.828000
-0.020526 -0.029904 0.856000
-0.016903 -0.036385 0.851000
0.025712 0.024162 0.814000
0.008473 -0.038312 0.832000
0.015740 -0.037120 0.836000
0.016472 0.009502 0.821000
-0.038090 -0.010068 0.847000
0.014532 0.033697 0.826000
-0.017314 -0.017181 0.854000
-0.000089 -0.048361 0.840000
-0.038405 -0.023508 0.854000
0.018837 -0.033335 0.836000
0.013594 0.047240 0.831000
-0.027734 -0.025827 0.861000
-0.007062 0.022004 0.847000
-0.004228 -0.045831 0.838000
0.014890 -0.013574 0.827000
0.002306 -0.016376 0.831000
-0.009176 0.016815 0.849000
0.025258 0.007137 0.821000
0.007392 0.006160 0.826000
0.008111 0.032836 0.830000
0.003341 -0.041101 0.833000
0.016134 0.021329 0.821000
-0.001467 0.010032 0.837000
0.009843 0.046270 0.832000
-0.007411 0.025490 0.847000
0.019802 0.005434 0.819000
0.016789 0.005440 0.820000
-0.029687 -0.015460 0.856000
-0.011219 -0.036824 0.845000
0.016291 -0.026232 0.829000
-0.000776 0.013101 0.835000
0.011486 0.016379 0.827000
0.000942 -0.023644 0.834000
-0.015834 -0.037042 0.850000
-0.025012 0.020810 0.841000
0.028127 0.016161 0.816000
-0.022027 0.015362 0.846000
0.009169 0.046326 0.833000
0.010075 0.002412 0.823000
-0.025630 0.002491 0.850000
0.019105 0.009804 0.818000
-0.013050 0.013001 0.851000
0.000257 0.028045 0.840000
-0.007741 0.037255 0.845000
-0.023154 0.007380 0.849000
-0.021975 0.018453 0.844000
0.019802 0.007119 0.819000
0.021960 -0.032341 0.837000
0.002309 0.009629 0.832000
0.017273 0.039865 0.827000
-0.015890 0.008117 0.853000
-0.010897 0.029325 0.847000
-0.010548 -0.011114 0.847000
-0.023426 -0.016928 0.859000
0.014890 0.038504 0.827000
0.024228 0.048327 0.844000
0.000256 -0.046521 0.838000
-0.018764 -0.014050 0.856000
0.011783 -0.005046 0.824000
-0.007332 -0.027896 0.838000
-0.017827 0.022996 0.845000
0.019489 0.030753 0.820000
0.020788 0.007784 0.818000
-0.000088 0.014475 0.835000
-0.019358 0.038578 0.836000
-0.027696 0.000741 0.849000
-0.011139 0.043206 0.839000
-0.005952 -0.011685 0.838000
-0.036168 -0.015019 0.851000
-0.033641 -0.024677 0.858000
0.017377 -0.029066 0.832000
0.006047 0.011287 0.828000
-0.019821 -0.020040 0.856000
-0.017806 0.025400 0.844000
-0.016546 0.047011 0.833000
-0.028475 -0.026921 0.862000
0.004706 0.031888 0.832000
0.023049 -0.033800 0.839000
-0.004238 -0.019319 0.840000
-0.022508 0.004245 0.851000
0.003325 -0.013266 0.829000
-0.011971 -0.004850 0.849000
0.008062 -0.001657 0.825000
0.014800 0.007145 0.822000
0.009831 0.040400 0.831000
0.017231 0.037731 0.825000
-0.001130 0.040636 0.843000
0.008062 0.002418 0.825000
-0.025253 -0.027244 0.861000
-0.010833 -0.025603 0.842000
-0.032822 0.009095 0.846000
0.000255 -0.028793 0.834000
0.021462 0.031014 0.818000
0.022595 -0.028827 0.835000
-0.022508 0.005296 0.851000
-0.012335 -0.001357 0.850000
-0.014101 -0.014318 0.851000
0.016472 0.027749 0.821000
0.010173 -0.034845 0.831000
-0.011802 0.046548 0.837000
0.015477 0.011205 0.822000
0.001967 0.012026 0.832000
-0.000433 -0.044001 0.836000
0.005754 0.037845 0.835000
0.009092 0.028258 0.826000
0.001969 -0.041101 0.833000
-0.013702 -0.034860 0.848000
-0.014767 -0.044685 0.849000
0.003692 0.018599 0.835000
-0.005648 0.039990 0.844000
0.026382 0.021817 0.814000
-0.012625 -0.030251 0.846000
0.013172 0.031318 0.826000
-0.016963 0.002151 0.854000
0.001626 -0.023615 0.833000
0.012477 -0.010485 0.825000
0.010515 0.044504 0.831000
0.008484 0.042897 0.833000
0.001319 -0.049634 0.856000
-0.031205 -0.024352 0.859000
0.001634 0.018644 0.837000
0.016452 0.024003 0.820000
-0.009111 -0.036043 0.843000
-0.008079 -0.019064 0.844000
0.017210 -0.006742 0.824000
-0.021961 -0.009481 0.857000
-0.010200 -0.015297 0.847000
-0.007004 -0.044903 0.840000
-0.034890 -0.018587 0.854000
0.001638 0.032156 0.839000
0.014462 -0.002328 0.822000
-0.019796 0.029428 0.840000
-0.002503 -0.046521 0.838000
0.018161 0.028087 0.821000
0.030440 0.022179 0.815000
-0.010212 0.001787 0.848000
0.010766 0.025816 0.824000
0.002642 -0.010195 0.829000
-0.017172 0.020610 0.847000
-0.005250 -0.031270 0.836000
0.006120 -0.042727 0.838000
0.008082 -0.026849 0.827000
0.019362 0.040644 0.829000
0.021538 -0.028106 0.834000
0.008443 0.024266 0.829000
-0.007332 -0.032035 0.838000
-0.028228 0.009768 0.844000
0.008209 0.053629 0.840000
-0.005654 0.014649 0.845000
-0.004912 -0.013394 0.837000
-0.017314 -0.014017 0.854000
-0.018692 0.037247 0.837000
-0.000434 0.017998 0.839000
0.001976 0.017934 0.836000
-0.002156 -0.045087 0.837000
0.014908 -0.015635 0.828000
-0.007695 -0.010676 0.840000
-0.035956 -0.005529 0.846000
-0.013869 0.043792 0.837000
0.018105 -0.031539 0.834000
0.000938 -0.012614 0.831000
-0.023073 -0.027181 0.859000
-0.025280 0.002841 0.850000
0.010766 0.025476 0.824000
-0.008816 0.022728 0.848000
-0.014715 0.025460 0.846000
-0.007012 -0.035611 0.841000
0.004353 -0.028996 0.830000
0.010210 0.049127 0.834000
0.019128 0.022962 0.819000
0.003670 -0.033095 0.830000
-0.027716 0.021796 0.839000
-0.029236 0.009410 0.843000
-0.002156 0.011410 0.837000
0.010792 -0.020697 0.826000
0.017845 -0.002666 0.822000
-0.024487 -0.016928 0.859000
-0.012640 -0.033425 0.847000
0.003012 0.028979 0.837000
-0.010176 0.034125 0.845000
0.015212 0.038457 0.826000
0.007401 -0.024126 0.827000
-0.021633 -0.014436 0.858000
-0.005269 -0.046576 0.839000
-0.018412 -0.007004 0.856000
-0.010164 -0.037822 0.844000
0.008524 -0.041298 0.837000
0.002317 0.009320 0.835000
-0.009805 -0.042982 0.843000
-0.016107 0.023023 0.846000
0.019513 0.034169 0.821000
0.006737 0.029043 0.829000
-0.006312 -0.037989 0.840000
-0.004918 -0.043072 0.838000
-0.033954 -0.023238 0.857000
0.002384 -0.048747 0.859000
0.014567 -0.015976 0.828000
-0.004258 0.020189 0.844000
0.007807 0.041919 0.834000
-0.007004 -0.041100 0.840000
-0.018017 -0.025265 0.854000
0.020140 0.031052 0.819000
-0.023420 0.013622 0.846000
-0.008397 -0.005497 0.841000
-0.005313 0.028594 0.846000
0.016134 0.000378 0.821000
-0.008070 -0.022164 0.843000
0.020334 -0.038726 0.841000
-0.027025 0.020415 0.839000
0.026975 0.046882 0.843000
-0.024516 -0.027920 0.860000
-0.015170 -0.012231 0.852000
-0.024580 0.003890 0.850000
-0.022402 0.012592 0.847000
0.006098 0.040938 0.835000
0.022385 -0.035569 0.840000
-0.025827 0.010475 0.845000
-0.012161 0.044879 0.838000
-0.019264 0.016775 0.847000
0.020140 0.029367 0.819000
0.005411 0.034408 0.835000
-0.039927 -0.017080 0.849000
-0.015098 -0.027880 0.848000
0.009772 -0.009818 0.826000
0.002983 -0.009171 0.829000
-0.008407 -0.046050 0.842000
0.022081 0.016161 0.816000
0.022753 0.014482 0.816000
0.023568 0.003758 0.821000
-0.007695 -0.033148 0.840000
-0.020854 -0.001365 0.855000
0.015533 0.035354 0.825000
0.027119 0.014818 0.816000
-0.014767 -0.040842 0.849000
0.012848 -0.022084 0.827000
-0.037741 -0.008673 0.847000
-0.040419 -0.023803 0.852000
0.019128 0.024648 0.819000
0.009070 -0.001994 0.824000
-0.012277 -0.043135 0.846000
0.010779 0.027545 0.825000
0.015415 0.049648 0.837000
-0.014662 0.030574 0.843000
0.012785 0.004783 0.823000
-0.004233 0.012473 0.839000
-0.006658 0.001770 0.840000
0.002671 0.029013 0.838000
0.008402 -0.004713 0.825000
-0.007054 0.013273 0.846000
0.007086 0.014730 0.830000
-0.039062 -0.008384 0.853000
0.014106 0.024370 0.821000
-0.007012 -0.005843 0.841000
0.014175 0.030601 0.825000
-0.020286 0.017452 0.846000
0.011514 0.039279 0.829000
-0.009100 -0.023870 0.842000
-0.009863 0.026567 0.848000
0.004684 -0.003708 0.828000
-0.034931 -0.020368 0.855000
-0.010140 0.039202 0.842000
-0.009851 0.027582 0.847000
-0.021986 -0.022205 0.858000
-0.001824 0.040289 0.843000
-0.031665 0.006287 0.843000
0.006091 0.035054 0.834000
0.007817 0.048155 0.835000
-0.027925 -0.012289 0.856000
-0.002848 -0.024102 0.838000
0.012447 0.000718 0.823000
-0.021845 0.028357 0.839000
-0.023917 0.024904 0.839000
-0.032474 -0.000655 0.846000
0.004036 0.019974 0.835000
-0.009111 -0.047145 0.843000
0.012152 0.016019 0.826000
-0.002148 -0.014376 0.834000
0.017464 0.006790 0.820000
0.005049 0.027436 0.832000
0.000942 -0.022957 0.834000
-0.026285 -0.019425 0.860000
0.025409 0.027546 0.815000
0.009466 0.032114 0.829000
-0.020634 0.016755 0.846000
0.005359 -0.003703 0.827000
0.015988 -0.028689 0.831000
-0.010923 0.021008 0.849000
0.024155 0.008794 0.818000
-0.021280 -0.022558 0.858000
0.028940 0.015228 0.820000
0.009501 -0.037627 0.832000
0.025744 0.028888 0.815000
0.021436 0.010801 0.817000
-0.003529 -0.010281 0.836000
-0.003911 0.022621 0.844000
0.002668 0.022778 0.837000
0.017571 0.038071 0.825000
-0.022693 -0.010905 0.858000
0.019727 0.042059 0.830000
-0.002148 -0.013689 0.834000
0.001640 0.043258 0.840000
0.010766 0.007163 0.824000
0.018499 0.029439 0.821000
-0.036739 -0.010778 0.848000
-0.021280 -0.019027 0.858000
0.018906 -0.005046 0.824000
0.019560 -0.002330 0.823000
-0.021007 0.014335 0.847000
0.011092 0.006815 0.823000
0.017252 0.038797 0.826000
-0.027881 0.010463 0.844000
-0.019358 0.046492 0.836000
-0.012581 -0.026675 0.843000
-0.011219 -0.044475 0.845000
-0.018764 -0.007004 0.856000
-0.039182 -0.013221 0.848000
-0.002168 0.025686 0.842000
-0.013686 -0.041443 0.847000
-0.025607 -0.027244 0.861000
-0.028094 0.017328 0.840000
-0.014018 0.025460 0.846000
0.001626 -0.020530 0.833000
-0.016241 -0.012597 0.853000
-0.005967 0.000733 0.840000
0.019778 0.012834 0.818000
0.008752 -0.024097 0.826000
-0.016241 -0.016459 0.853000
0.006419 -0.039681 0.832000
-0.027605 -0.014067 0.857000
-0.003182 -0.015424 0.835000
0.018791 0.018917 0.819000
-0.028061 0.019379 0.839000
-0.014101 -0.008714 0.851000
0.011625 0.051371 0.837000
0.007770 -0.035828 0.830000
-0.013337 0.025839 0.847000
-0.003197 -0.019296 0.839000
0.015533 0.033657 0.825000
0.025196 0.008468 0.819000
-0.014451 0.012651 0.851000
0.008795 0.021221 0.830000
-0.001475 0.029845 0.842000
0.020902 0.046836 0.836000
-0.011901 -0.029485 0.844000
-0.011126 0.045569 0.838000
-0.005300 0.040337 0.844000
0.012492 -0.023757 0.826000
-0.008118 0.017493 0.848000
-0.008753 -0.042931 0.842000
0.002329 0.039408 0.839000
0.013561 0.044397 0.829000
-0.029793 -0.002404 0.849000
0.019513 0.034507 0.821000
0.006442 0.036814 0.835000
-0.015009 0.029880 0.843000
0.008392 -0.000298 0.824000
-0.013400 -0.009415 0.851000
0.018791 0.016221 0.819000
0.008150 0.047411 0.834000
-0.004605 0.039295 0.844000
0.007401 -0.010851 0.827000
-0.013541 0.042810 0.838000
0.014908 0.043662 0.828000
0.009546 0.050965 0.836000
-0.018347 0.006010 0.853000
-0.021507 0.002149 0.853000
-0.025253 -0.029016 0.861000
-0.040372 -0.012917 0.851000
0.011186 0.041718 0.830000
0.011472 -0.012878 0.826000
-0.013686 -0.043883 0.847000
-0.005959 -0.014117 0.839000
0.008731 0.003771 0.824000
-0.008407 -0.038426 0.842000
-0.009469 -0.011422 0.844000
0.010792 0.012280 0.826000
-0.011272 -0.001006 0.849000
-0.006674 -0.020058 0.842000
0.019465 0.020266 0.819000
-0.035218 0.000042 0.845000
0.021151 0.032738 0.819000
0.028092 0.027882 0.815000
-0.004263 0.035864 0.845000
-0.010486 -0.026296 0.842000
-0.010871 0.033429 0.845000
-0.003887 -0.018606 0.839000
-0.011929 -0.038260 0.846000
-0.007741 0.037603 0.845000
-0.015871 0.011614 0.852000
-0.023143 0.033761 0.836000
0.025409 0.028217 0.815000
0.005043 0.028429 0.831000
-0.005288 0.047519 0.842000
-0.008457 0.009803 0.847000
0.014782 0.023018 0.821000
0.012507 -0.017659 0.827000
0.002309 -0.030436 0.832000
-0.009424 0.044986 0.840000
0.012196 -0.030326 0.829000
-0.031890 -0.004151 0.849000
0.010477 0.016399 0.828000
-0.019094 -0.001013 0.855000
0.000944 -0.043657 0.836000
0.006171 0.002128 0.845000
-0.032201 -0.003797 0.848000
-0.018369 -0.024562 0.854000
-0.010833 -0.025950 0.842000
-0.010820 0.041232 0.841000
-0.000432 -0.041543 0.835000
-0.033479 -0.000306 0.845000
-0.002156 0.010032 0.837000
-0.010573 0.022755 0.849000
0.001293 0.027667 0.839000
-0.009874 0.009127 0.849000
-0.007714 -0.036000 0.842000
-0.004562 -0.028862 0.836000
0.013802 0.006477 0.823000
0.006388 -0.025178 0.828000
-0.003212 0.046882 0.843000
0.003661 -0.008479 0.828000
-0.038575 -0.017100 0.850000
-0.008467 0.025520 0.848000
-0.025548 -0.015514 0.859000
-0.003197 -0.019642 0.839000
-0.030914 -0.007664 0.851000
0.001283 -0.026701 0.833000
-0.008051 -0.033534 0.841000
0.024552 0.006115 0.820000
0.028763 0.026540 0.815000
-0.021053 0.038189 0.835000
0.011119 -0.008448 0.825000
0.006745 0.014389 0.830000
-0.033399 0.003858 0.843000
-0.019914 -0.032168 0.860000
-0.042074 -0.020599 0.850000
0.013496 0.029922 0.825000
0.011186 0.038985 0.830000
-0.025280 0.002491 0.850000
0.020140 0.023974 0.819000
-0.022697 0.016388 0.845000
-0.024162 -0.020487 0.860000
-0.002841 -0.041937 0.836000
-0.023614 -0.001713 0.853000
-0.019749 0.034532 0.838000
-0.010236 0.013336 0.850000
0.004729 0.034794 0.836000
0.004757 -0.043572 0.841000
0.007095 0.024667 0.831000
0.005775 0.051432 0.838000
-0.015557 0.001448 0.854000
-0.018412 -0.012289 0.856000
-0.022235 -0.001715 0.854000
0.025436 0.044189 0.838000
0.017168 0.030489 0.822000
0.001967 -0.027011 0.832000
0.022417 0.022878 0.816000
-0.009089 -0.025573 0.841000
-0.001465 -0.018883 0.836000
-0.003878 -0.037508 0.837000
-0.040115 -0.024884 0.853000
-0.001468 0.016252 0.838000
0.010515 0.044162 0.831000
-0.008467 0.020285 0.848000
-0.020526 -0.003833 0.856000
-0.011608 -0.016362 0.848000
-0.001463 -0.030202 0.835000
0.012108 0.001057 0.823000
-0.009165 0.007371 0.848000
0.022091 0.048559 0.842000
-0.022881 0.027667 0.839000
0.008752 -0.023757 0.826000
-0.011259 0.023775 0.848000
0.015495 0.015622 0.823000
0.012462 0.008519 0.824000
0.018537 -0.036519 0.838000
0.007392 -0.008798 0.826000
0.014140 0.009186 0.823000
0.030105 0.025869 0.815000
-0.030214 -0.026890 0.861000
0.001636 0.025909 0.838000
-0.022288 -0.004890 0.856000
0.013528 -0.025488 0.827000
-0.010573 0.020309 0.849000
0.015796 0.021667 0.821000
-0.017314 0.003909 0.854000
0.020763 0.017526 0.817000
0.009772 0.011260 0.826000
-0.017917 0.045640 0.833000
0.005037 -0.020797 0.830000
-0.015187 -0.005575 0.853000
-0.017274 -0.034674 0.852000
0.009136 0.032494 0.830000
-0.001119 -0.034326 0.835000
-0.042824 -0.020623 0.851000
0.020140 0.005097 0.819000
-0.014451 -0.012917 0.851000
-0.012974 -0.029903 0.846000
0.008422 -0.011872 0.827000
-0.035944 -0.021047 0.854000
-0.029444 -0.000657 0.849000
-0.002174 0.040685 0.844000
0.004701 0.028771 0.831000
0.012879 0.043373 0.829000
0.030105 0.024527 0.815000
0.011173 0.033479 0.829000
0.008433 0.012991 0.828000
-0.009469 -0.035391 0.844000
-0.008407 -0.042238 0.842000
-0.014035 -0.022269 0.847000
-0.036690 -0.023887 0.855000
-0.022190 0.028357 0.839000
0.003012 0.023467 0.837000
0.004021 0.015108 0.832000
0.014800 0.003424 0.822000
0.020427 0.015845 0.817000
-0.020174 -0.006652 0.856000
-0.026237 0.007711 0.847000
-0.013702 -0.031021 0.848000
0.011200 0.045530 0.831000
-0.018390 -0.016497 0.855000
-0.003525 -0.011987 0.835000
-0.025369 -0.002767 0.853000
-0.006312 0.000387 0.840000
-0.003567 0.032038 0.845000
-0.027403 0.019402 0.840000
0.021125 0.009804 0.818000
-0.010511 -0.042685 0.844000
0.027489 0.014500 0.817000
-0.026998 0.002488 0.849000
0.018791 0.012176 0.819000
0.009070 0.007841 0.824000
0.017607 0.051045 0.843000
0.020915 -0.001992 0.823000
-0.014197 0.045804 0.836000
0.007770 -0.035487 0.830000
0.023396 0.026875 0.815000
-0.004567 -0.013738 0.837000
0.025712 0.026842 0.814000
-0.002168 0.022914 0.842000
-0.008785 -0.020130 0.845000
-0.003874 -0.009593 0.836000
0.014479 0.011896 0.823000
-0.027701 -0.022257 0.860000
-0.011830 0.042861 0.839000
0.021099 0.021897 0.817000
0.013108 0.024738 0.822000
-0.018648 0.040251 0.835000
-0.018017 -0.020696 0.854000
-0.013066 0.006354 0.852000
0.011514 -0.031350 0.829000
-0.028820 0.015618 0.841000
-0.010436 0.046949 0.838000
0.020189 0.035183 0.821000
-0.020286 0.016755 0.846000
-0.009491 0.002479 0.846000
0.007121 0.042262 0.834000
0.018791 0.019591 0.819000
-0.026523 0.027865 0.845000
-0.016050 0.028840 0.843000
-0.019938 0.018496 0.846000
0.017014 -0.028347 0.831000
0.011798 0.010907 0.825000
-0.032783 0.001085 0.845000
0.016512 0.030188 0.823000
-0.007393 0.008389 0.845000
0.018205 0.035269 0.823000
-0.028475 -0.026566 0.862000
0.000942 -0.021584 0.834000
0.007401 -0.028891 0.827000
0.019875 0.035564 0.822000
0.005049 -0.040024 0.832000
-0.024133 -0.016574 0.859000
0.010617 0.052530 0.839000
-0.006995 -0.011699 0.839000
-0.026670 -0.026181 0.861000
-0.005601 -0.027518 0.837000
0.010753 0.001057 0.823000
-0.027540 -0.010867 0.855000
-0.036647 -0.021047 0.854000
0.017997 0.042350 0.829000
-0.020561 0.023635 0.843000
0.016212 -0.009467 0.825000
0.000950 0.041578 0.841000
-0.020526 -0.005595 0.856000
-0.022613 -0.004181 0.855000
0.022108 0.029631 0.817000
0.015796 0.026735 0.821000
0.004041 0.023095 0.836000
-0.015834 0.014735 0.850000
-0.009851 0.029674 0.847000
0.017910 0.037731 0.825000
0.008473 0.034970 0.832000
-0.020550 -0.023943 0.857000
0.019204 -0.034753 0.837000
-0.004929 -0.022431 0.840000
0.012492 0.016359 0.826000
-0.002171 0.029880 0.843000
0.008484 0.045983 0.833000
0.008763 0.024888 0.827000
0.007383 -0.001657 0.825000
-0.007367 -0.048129 0.842000
-0.013353 -0.032417 0.848000
-0.020342 0.039516 0.834000
-0.020262 0.020213 0.845000
0.023230 0.003758 0.821000
-0.022536 0.027321 0.839000
-0.021633 -0.021852 0.858000
-0.032705 0.004899 0.843000
0.023117 0.010128 0.817000
-0.038925 -0.016751 0.850000
-0.021532 0.000745 0.854000
-0.010511 0.034779 0.844000
-0.013353 -0.035209 0.848000
-0.028643 0.004917 0.846000
-0.039671 -0.020623 0.851000
0.013528 -0.015617 0.827000
-0.011139 0.043897 0.839000
-0.006327 -0.015900 0.842000
0.020927 0.047237 0.837000
-0.007385 0.038253 0.844000
-0.034952 -0.005536 0.847000
0.022527 0.004765 0.820000
-0.021961 -0.009834 0.857000
-0.000778 -0.045087 0.837000
-0.018326 -0.040986 0.852000
0.018139 0.002065 0.820000
0.008742 -0.004373 0.825000
-0.023974 0.034656 0.841000
-0.009874 0.022056 0.849000
-0.002497 -0.028173 0.836000
0.013156 0.029922 0.825000
0.022753 0.026237 0.816000
-0.020214 0.022941 0.843000
-0.003911 0.026442 0.844000
-0.018413 0.031157 0.840000
-0.041072 -0.015019 0.851000
0.018019 0.044792 0.830000
-0.011901 -0.029833 0.844000
0.030814 0.027244 0.816000
0.025839 0.011487 0.818000
-0.007714 0.003161 0.842000
0.019112 -0.029101 0.833000
-0.027669 -0.018696 0.859000
-0.009165 0.023426 0.848000
0.019128 0.007456 0.819000
-0.010536 -0.019806 0.846000
0.001291 0.022805 0.838000
0.002658 -0.042180 0.834000
0.016134 0.001054 0.821000
-0.000088 -0.030166 0.834000
0.000947 0.027667 0.839000
-0.032474 0.010140 0.846000
0.001285 -0.022614 0.834000
-0.039182 -0.012872 0.848000
-0.028663 -0.015830 0.857000
0.020452 0.019567 0.818000
0.018791 0.016895 0.819000
0.010137 0.021851 0.828000
-0.019050 0.004957 0.853000
0.002994 -0.023245 0.832000
-0.018060 -0.007356 0.856000
-0.014018 -0.022939 0.846000
0.012987 -0.039184 0.836000
-0.025577 -0.021195 0.860000
-0.030384 0.003524 0.846000
0.013124 -0.004702 0.823000
-0.012566 0.036776 0.842000
0.007095 -0.038266 0.831000
-0.018698 0.006362 0.853000
0.008453 0.016097 0.830000
-0.001463 -0.028140 0.835000
0.029099 0.026540 0.815000
-0.017293 0.040643 0.836000
0.010427 0.009198 0.824000
-0.018670 0.039267 0.836000
-0.016592 -0.020672 0.853000
0.005372 -0.034079 0.829000
0.026750 0.029559 0.815000
-0.017912 0.015766 0.849000
-0.038925 -0.017100 0.850000
-0.016127 0.020261 0.847000
-0.006290 -0.031308 0.837000
-0.006674 -0.022484 0.842000
0.009092 0.026558 0.826000
0.013802 -0.004702 0.823000
-0.012700 0.015453 0.851000
0.018477 0.025353 0.820000
0.017845 0.030489 0.822000
-0.016260 0.000745 0.854000
-0.007332 -0.031690 0.838000
-0.015116 -0.036998 0.849000
0.009478 0.033177 0.830000
0.024067 0.028217 0.815000
0.002326 0.026599 0.838000
0.026219 0.046424 0.841000
-0.005269 0.006948 0.839000
0.001640 0.044295 0.840000
0.008443 0.031773 0.829000
0.010112 -0.025797 0.826000
0.001636 0.020046 0.838000
0.005417 0.043740 0.836000
-0.026082 0.015983 0.842000
-0.006305 -0.009627 0.839000
0.009432 0.011260 0.826000
0.013802 0.028494 0.823000
0.004343 -0.004049 0.828000
-0.042874 -0.022401 0.852000
-0.026670 -0.022992 0.861000
0.001282 -0.033860 0.832000
-0.019082 0.033882 0.839000
0.024142 -0.033534 0.841000
-0.032228 -0.023265 0.858000
-0.021457 0.005996 0.851000
0.010515 0.041768 0.831000
-0.001121 -0.024389 0.836000
-0.000088 -0.019892 0.835000
-0.003883 -0.016859 0.838000
0.021551 0.050999 0.848000
-0.018625 0.041919 0.834000
-0.019749 0.032807 0.838000
0.016507 0.050172 0.840000
0.008816 0.038394 0.832000
-0.008467 0.026917 0.848000
0.026079 0.017148 0.815000
0.011812 -0.023757 0.826000
-0.022719 -0.022585 0.859000
0.014854 0.033996 0.825000
0.005073 0.041331 0.836000
-0.007012 -0.013804 0.841000
-0.029300 -0.010867 0.855000
0.014908 0.041276 0.828000
-0.009863 0.004230 0.848000
-0.020358 0.010525 0.849000
-0.012700 -0.002760 0.851000
-0.025221 0.006324 0.848000
0.008494 0.046724 0.834000
0.003710 -0.003757 0.839000
0.023060 0.019831 0.815000
-0.002868 0.029916 0.844000
-0.014101 0.012651 0.851000
-0.013767 0.003899 0.852000
0.020814 0.032738 0.819000
-0.003878 -0.036131 0.837000
-0.015917 0.042363 0.836000
0.018139 0.020628 0.820000
-0.005269 -0.037943 0.839000
-0.014767 -0.033853 0.849000
0.000940 -0.034244 0.833000
-0.017624 -0.041337 0.852000
0.010124 0.023187 0.827000
-0.004233 -0.024476 0.839000
-0.008079 0.005947 0.844000
-0.008397 0.044347 0.841000
-0.030878 -0.004856 0.850000
0.006054 -0.016678 0.829000
-0.030587 0.014250 0.842000
0.008062 0.003776 0.825000
-0.041651 -0.026242 0.863000
-0.015908 0.002151 0.854000
0.011458 -0.008448 0.825000
-0.026020 0.020439 0.840000
-0.022314 -0.008070 0.857000
0.011472 -0.022397 0.826000
-0.015484 -0.039490 0.850000
-0.010200 0.030022 0.847000
-0.023515 0.030357 0.837000
-0.029825 -0.023673 0.860000
0.026382 0.019137 0.814000
-0.003874 -0.033335 0.836000
-0.014802 0.014403 0.851000
-0.017274 -0.033271 0.852000
0.003325 -0.007465 0.829000
0.017147 0.013895 0.821000
-0.017666 0.004612 0.854000
0.025712 0.021147 0.814000
-0.026392 -0.002763 0.852000
-0.022012 -0.018342 0.859000
-0.022693 -0.014436 0.858000
0.016212 -0.009127 0.825000
-0.027734 -0.023700 0.861000
0.009760 -0.007429 0.825000
0.005713 -0.024184 0.829000
0.014158 0.013606 0.824000
-0.002500 -0.025796 0.837000
-0.022724 0.013622 0.846000
0.015815 0.010867 0.822000
0.011105 0.027511 0.824000
-0.014231 0.042120 0.838000
0.013427 0.052371 0.842000
-0.002503 -0.019963 0.838000
-0.015187 0.007415 0.853000
0.006105 0.046836 0.836000
0.000262 -0.050397 0.857000
-0.001477 0.036473 0.843000
0.007751 0.029690 0.828000
-0.017314 0.000745 0.854000
-0.038575 -0.015701 0.850000
0.019778 0.014517 0.818000
0.011769 0.002073 0.823000
0.012477 0.021093 0.825000
0.000256 -0.044689 0.836000
-0.013290 -0.027054 0.844000
-0.018698 -0.039279 0.853000
-0.002521 0.040685 0.844000
-0.018348 0.036558 0.837000
-0.019492 -0.010539 0.857000
-0.017335 -0.002069 0.855000
-0.026071 -0.004522 0.853000
0.016789 0.006115 0.820000
-0.012989 -0.042837 0.847000
-0.020734 0.035138 0.836000
0.012462 0.007841 0.824000
0.009432 -0.023417 0.826000
-0.005648 0.041727 0.844000
-0.006327 0.044054 0.842000
0.013050 0.051901 0.840000
-0.006016 0.027233 0.847000
-0.029687 -0.014403 0.856000
0.006069 -0.038608 0.831000
-0.026648 0.023495 0.838000
-0.004263 0.033777 0.845000
0.008484 0.041869 0.833000
-0.021107 0.007047 0.851000
-0.036999 -0.021399 0.854000
-0.013369 0.021008 0.849000
-0.018017 -0.022102 0.854000
0.026047 0.023157 0.814000
-0.025607 -0.024055 0.861000
-0.033786 0.005252 0.844000
-0.023046 -0.013024 0.858000
-0.023073 -0.027534 0.859000
-0.000433 0.016577 0.837000
0.015796 0.006123 0.821000
-0.023780 -0.017281 0.859000
0.011444 -0.005725 0.824000
0.024707 0.022152 0.814000
0.004369 -0.041101 0.833000
0.005359 -0.006767 0.827000
-0.001130 0.041330 0.843000
0.023425 0.028252 0.816000
0.004364 0.028463 0.832000
-0.014680 0.029221 0.844000
0.022278 -0.030238 0.836000
-0.001125 -0.047958 0.839000
0.026577 0.033790 0.820000
-0.035635 -0.021072 0.855000
-0.007411 0.012940 0.847000
0.001279 -0.011232 0.830000
0.002652 -0.027354 0.832000
-0.018479 0.025717 0.843000
-0.009805 -0.044023 0.843000
0.020788 0.024618 0.818000
-0.006658 -0.040754 0.840000
-0.016260 -0.004176 0.854000
0.008422 -0.015617 0.827000
-0.009413 0.045969 0.839000
-0.034994 -0.007986 0.848000
-0.018589 0.015748 0.848000
0.011812 -0.012198 0.826000
-0.018412 -0.012641 0.856000
-0.013306 -0.028825 0.845000
-0.021679 0.014666 0.846000
-0.002518 0.029880 0.843000
0.010452 -0.026137 0.826000
0.014800 0.003085 0.822000
-0.024578 0.025909 0.838000
0.018477 0.016578 0.820000
-0.015211 0.045406 0.835000
0.009103 -0.029912 0.827000
-0.015539 -0.011895 0.853000
0.009455 0.014354 0.828000
-0.020903 -0.011598 0.857000
-0.004941 0.047173 0.842000
-0.034563 -0.002396 0.846000
0.012477 -0.011844 0.825000
-0.025577 -0.018363 0.860000
0.019798 -0.028415 0.833000
0.023422 0.047406 0.840000
0.010137 0.014354 0.828000
0.022081 0.023886 0.816000
0.012801 0.029207 0.824000
-0.023309 0.020488 0.842000
0.008805 0.034585 0.831000
-0.009816 -0.047201 0.844000
-0.006987 -0.027896 0.838000
-0.013525 0.044137 0.837000
-0.029305 0.006650 0.845000
-0.032087 0.002824 0.845000
-0.037964 -0.018894 0.852000
0.023539 0.005778 0.820000
0.029806 0.018512 0.816000
0.024372 0.044481 0.837000
0.012108 0.024091 0.823000
-0.021608 -0.010539 0.857000
-0.024077 -0.010187 0.857000
-0.003216 0.034084 0.844000
-0.019094 -0.028110 0.855000
-0.025931 -0.020133 0.860000
0.003361 0.039016 0.838000
-0.036912 -0.018193 0.852000
0.008504 0.049873 0.835000
-0.021653 0.018127 0.845000
-0.001477 0.045147 0.843000
-0.040674 -0.019549 0.850000
0.017147 0.012881 0.821000
0.010503 0.036252 0.830000
0.000257 0.034656 0.841000
0.020115 0.019231 0.818000
-0.029270 0.008726 0.844000
0.009489 0.038006 0.831000
0.012972 -0.038450 0.835000
0.008121 0.022957 0.831000
-0.033827 -0.001002 0.845000
-0.011915 -0.022564 0.845000
0.009409 -0.000977 0.824000
0.021905 0.001732 0.822000
0.019537 0.035903 0.822000
-0.002500 0.013821 0.837000
0.011132 -0.024437 0.826000
-0.008098 0.032772 0.846000
0.005741 0.017184 0.833000
0.009444 0.012294 0.827000
0.006388 -0.015976 0.828000
-0.035566 -0.002741 0.845000
0.014462 0.004100 0.822000
-0.001463 -0.029858 0.835000
0.003333 0.010986 0.831000
0.006426 0.033983 0.833000
0.011132 -0.012198 0.826000
0.024185 0.007793 0.819000
0.003683 0.029869 0.833000
0.017720 -0.029408 0.832000
-0.014903 0.042759 0.837000
0.017720 -0.028381 0.832000
0.007078 -0.033397 0.829000
-0.019726 0.034835 0.837000
0.014158 0.019711 0.824000
-0.025253 -0.028662 0.861000
0.016672 -0.028689 0.831000
0.020312 0.038457 0.826000
0.008484 -0.039729 0.833000
-0.040626 -0.014285 0.849000
0.021297 -0.034449 0.838000
-0.006650 -0.034145 0.839000
0.009489 -0.036898 0.831000
0.021177 0.034465 0.820000
-0.014506 0.048097 0.834000
0.003353 0.022407 0.836000
0.004002 -0.009501 0.828000
-0.021910 -0.003125 0.855000
0.029434 0.026204 0.815000
0.030440 0.023521 0.815000
0.009808 -0.033397 0.829000
-0.014315 0.030574 0.843000
0.005417 0.037202 0.836000
0.009831 0.034928 0.831000
-0.004959 0.036907 0.845000
-0.016241 -0.015405 0.853000
0.000959 -0.048879 0.849000
-0.008437 0.034473 0.845000
-0.013004 0.023426 0.848000
-0.031540 -0.004501 0.849000
-0.004959 0.021257 0.845000
-0.025136 -0.010187 0.857000
-0.003563 0.024705 0.844000
-0.012670 0.020658 0.849000
-0.018764 -0.004185 0.856000
-0.025962 -0.024409 0.861000
-0.009469 -0.021843 0.844000
-0.021500 0.029048 0.839000
-0.016592 -0.018214 0.853000
-0.028854 0.013557 0.842000
-0.022481 0.006339 0.850000
-0.013735 -0.013602 0.850000
0.015892 0.038797 0.826000
-0.029791 -0.020817 0.859000
0.005031 -0.033738 0.829000
0.001638 0.033882 0.839000
0.016809 0.016260 0.821000
-0.001117 -0.013330 0.833000
-0.012958 -0.023956 0.845000
0.024056 -0.032035 0.838000
0.024027 0.044481 0.837000
0.009843 -0.037284 0.832000
-0.021767 0.034450 0.836000
-0.028786 0.018019 0.840000
-0.002491 -0.012659 0.834000
0.018405 -0.028381 0.832000
0.010161 0.033861 0.830000
-0.009165 0.026917 0.848000
0.010112 -0.009138 0.826000
-0.014819 0.009861 0.852000
0.008141 0.039811 0.833000
0.017137 -0.036819 0.837000
-0.007054 0.011881 0.846000
0.014192 0.035397 0.826000
-0.007704 -0.046341 0.841000
0.007473 0.048155 0.835000
0.015106 0.050458 0.839000
-0.008407 -0.043624 0.842000
0.029470 0.018848 0.816000
0.022753 0.015825 0.816000
0.020788 0.029668 0.818000
-0.012335 -0.000308 0.850000
0.013463 0.002073 0.823000
0.010112 0.029278 0.826000
-0.034347 -0.026796 0.858000
-0.018648 0.040938 0.835000
0.006372 -0.007098 0.826000
0.013528 -0.015276 0.827000
-0.009816 -0.038864 0.844000
0.008805 0.033901 0.831000
-0.003193 -0.046866 0.838000
0.012848 0.032717 0.827000
-0.025479 0.011519 0.845000
0.011186 -0.033095 0.830000
0.008150 0.045695 0.834000
-0.023073 -0.029656 0.859000
0.020312 0.038797 0.826000
0.000598 -0.040807 0.834000
0.006442 0.044375 0.835000
0.010452 0.012280 0.826000
0.010831 0.032455 0.829000
0.017845 0.031166 0.822000
0.011119 0.023470 0.825000
0.016193 -0.006742 0.824000
0.012226 -0.032793 0.831000
-0.020550 -0.013714 0.857000
-0.020784 0.032118 0.838000
0.008752 -0.023077 0.826000
-0.014802 -0.015369 0.851000
-0.028508 0.012517 0.842000
0.016428 -0.013722 0.836000
0.016153 0.012897 0.822000
0.011826 -0.021063 0.827000
-0.016222 -0.025206 0.852000
-0.020983 0.017103 0.846000
-0.013180 0.044826 0.837000
0.016472 0.011192 0.821000
0.023145 0.009467 0.818000
0.008773 0.031053 0.828000
0.020977 -0.036562 0.839000
0.006047 0.009583 0.828000
0.000255 -0.025360 0.834000
0.005720 0.030445 0.830000
-0.013654 -0.026738 0.845000
-0.020903 -0.026412 0.857000
0.005775 0.051087 0.838000
-0.001467 0.015544 0.837000
0.028161 0.014836 0.817000
-0.008397 -0.012073 0.841000
0.007410 -0.019384 0.828000
-0.009100 -0.024217 0.842000
-0.012234 0.035432 0.843000
-0.016923 -0.032921 0.852000
-0.009874 0.016465 0.849000
-0.022366 -0.023999 0.859000
-0.041024 -0.019549 0.850000
-0.015187 -0.008033 0.853000
0.007732 -0.008458 0.826000
-0.001119 -0.035357 0.835000
-0.007686 -0.032073 0.839000
-0.022509 0.029358 0.838000
-0.036999 -0.002067 0.854000
0.006426 0.023698 0.833000
-0.021935 -0.005595 0.856000
0.005018 -0.008809 0.827000
-0.011622 0.022755 0.849000
-0.023046 -0.013377 0.858000
0.007121 0.042605 0.834000
0.008082 -0.024466 0.827000
-0.014451 0.015453 0.851000
-0.001807 -0.041887 0.835000
-0.013416 0.002497 0.852000
0.011783 -0.005386 0.824000
0.013463 0.008170 0.823000
0.007798 0.039469 0.833000
0.021177 0.033790 0.820000
-0.005974 -0.020727 0.841000
-0.020908 0.022594 0.843000
-0.026639 -0.021549 0.860000
0.014140 -0.004024 0.823000
0.015157 0.028833 0.823000
-0.004562 -0.030238 0.836000
0.020140 0.025996 0.819000
0.009432 0.026218 0.826000
-0.019655 0.045351 0.834000
-0.008785 -0.019434 0.845000
0.022189 0.004765 0.820000
-0.009165 -0.048821 0.848000
