0.013906 -0.025080 0.872000
-0.030109 0.029706 0.858000
0.008473 0.037511 0.867000
-0.010014 0.035125 0.861000
-0.010393 -0.043646 0.863000
0.003834 0.017171 0.867000
0.026468 -0.014672 0.872000
-0.015259 0.048013 0.857000
0.011766 -0.003191 0.873000
0.012441 -0.017503 0.870000
0.004479 -0.050572 0.854000
0.013562 -0.007143 0.873000
-0.008972 -0.032280 0.863000
-0.022931 -0.022438 0.867000
0.016022 0.017231 0.870000
0.014265 0.005785 0.872000
-0.031169 0.031825 0.858000
-0.002225 0.018534 0.864000
-0.016393 -0.021929 0.861000
0.027639 -0.025526 0.875000
0.019732 0.035085 0.860000
-0.001162 0.015030 0.867000
-0.028763 0.015263 0.860000
0.010626 0.028980 0.868000
-0.023372 0.017679 0.857000
0.011739 -0.033296 0.871000
-0.000092 -0.030001 0.869000
0.011536 -0.048225 0.856000
-0.005761 0.047528 0.861000
-0.025370 -0.008858 0.865000
0.020030 -0.037325 0.873000
-0.002230 -0.038095 0.866000
-0.028442 0.013154 0.861000
0.004200 0.015780 0.869000
0.005273 -0.041446 0.869000
-0.006840 0.020289 0.863000
-0.027701 0.012431 0.860000
-0.010723 0.035480 0.861000
-0.001510 0.048293 0.862000
-0.004720 -0.027727 0.865000
0.011393 -0.031899 0.872000
-0.006493 -0.035518 0.864000
-0.005070 0.015689 0.864000
0.002401 0.038137 0.865000
-0.008961 0.034102 0.862000
-0.010748 -0.001733 0.863000
0.001339 -0.032862 0.869000
-0.003656 -0.044511 0.866000
-0.015312 -0.004205 0.860000
0.006689 0.021453 0.867000
-0.024430 0.026497 0.857000
-0.010393 -0.025531 0.863000
0.000620 0.044138 0.864000
-0.020192 -0.044102 0.872000
0.002409 -0.042113 0.868000
0.013142 0.021860 0.869000
-0.027573 0.029284 0.856000
-0.016020 -0.005267 0.860000
-0.027669 0.017720 0.859000
-0.030109 0.027940 0.858000
0.016777 -0.034411 0.872000
0.016796 -0.002831 0.873000
0.012069 0.023291 0.869000
-0.013204 0.018115 0.861000
0.009197 0.020406 0.868000
-0.005064 0.044797 0.863000
-0.029403 0.024056 0.858000
-0.010037 -0.011679 0.863000
-0.002228 0.026032 0.865000
0.005996 0.011501 0.870000
-0.012864 -0.015213 0.862000
0.012484 -0.006424 0.873000
0.022931 -0.016144 0.874000
-0.032246 0.014690 0.868000
0.004904 0.027163 0.867000
-0.021961 0.030377 0.857000
-0.001514 0.022446 0.864000
-0.008626 -0.036229 0.864000
0.006346 -0.041446 0.869000
-0.034271 0.029592 0.865000
-0.004339 -0.052344 0.860000
0.029047 -0.030893 0.874000
-0.003262 -0.052452 0.856000
-0.001493 -0.053610 0.852000
0.000265 -0.020274 0.866000
0.016815 -0.029814 0.874000
-0.016747 -0.024055 0.861000
-0.027697 -0.010712 0.871000
-0.021633 0.022290 0.858000
-0.024049 0.032103 0.856000
-0.014267 -0.014132 0.861000
-0.026856 -0.005310 0.867000
0.014215 0.033663 0.869000
0.031134 -0.026515 0.872000
-0.030635 -0.000676 0.873000
-0.017517 -0.039074 0.864000
0.023873 -0.004607 0.869000
-0.012140 0.030164 0.861000
-0.026866 -0.029261 0.879000
-0.024330 -0.014927 0.866000
0.004910 0.032196 0.868000
0.009555 0.019335 0.868000
0.005975 0.034656 0.867000
-0.023999 -0.042695 0.880000
0.024010 -0.021900 0.874000
0.007351 0.048237 0.861000
-0.010748 -0.042226 0.863000
-0.015028 -0.043697 0.864000
0.010234 0.042053 0.865000
0.012083 0.012934 0.870000
0.016096 -0.028015 0.874000
0.021036 0.002191 0.870000
0.023291 -0.029454 0.874000
-0.004364 -0.045172 0.865000
0.025891 0.031288 0.853000
-0.002235 -0.011389 0.868000
-0.021986 0.013462 0.858000
0.008116 0.035727 0.867000
0.013531 -0.014655 0.871000
-0.013896 0.022342 0.860000
0.017495 -0.023285 0.872000
-0.015648 0.035044 0.859000
0.028262 -0.020055 0.872000
-0.011418 0.045703 0.860000
0.015288 0.033306 0.869000
-0.007560 -0.013470 0.864000
-0.014993 -0.027985 0.862000
-0.012509 -0.002086 0.862000
-0.018519 -0.015195 0.861000
0.007419 -0.039658 0.869000
0.015359 -0.030498 0.873000
-0.021961 0.032493 0.857000
0.002049 -0.020654 0.867000
-0.017749 0.035003 0.858000
-0.012524 -0.039029 0.863000
-0.002584 0.025320 0.865000
-0.012849 0.021659 0.861000
-0.023261 -0.020630 0.866000
0.016380 0.018663 0.870000
0.020366 -0.002828 0.872000
0.025304 -0.008183 0.869000
0.022774 0.003615 0.868000
-0.025370 -0.008146 0.865000
-0.012509 -0.027985 0.862000
0.002409 -0.046043 0.868000
-0.001521 -0.014962 0.868000
-0.021305 -0.000311 0.859000
-0.002225 0.037026 0.864000
-0.027379 0.008193 0.861000
-0.018896 -0.024792 0.862000
-0.024302 -0.013130 0.865000
0.001336 -0.043492 0.867000
0.009240 -0.008212 0.872000
-0.019868 0.010990 0.858000
0.007078 0.009005 0.871000
0.014607 -0.038674 0.871000
0.005631 -0.039300 0.869000
-0.021379 -0.014504 0.862000
0.018930 -0.010724 0.872000
-0.008626 -0.012759 0.864000
0.015700 -0.011442 0.872000
0.021084 -0.002469 0.872000
0.000977 0.040629 0.865000
-0.013896 0.027297 0.860000
0.007062 -0.021059 0.869000
0.011380 0.010798 0.871000
-0.004354 0.037338 0.863000
-0.002940 -0.049800 0.865000
0.008840 0.021478 0.868000
0.000264 0.046627 0.864000
-0.013204 0.014572 0.861000
-0.012154 -0.030824 0.862000
-0.029083 0.020902 0.859000
-0.002933 0.037338 0.863000
0.025118 -0.025886 0.875000
0.005495 -0.051264 0.848000
-0.023126 -0.008462 0.861000
-0.025871 0.014168 0.858000
-0.002228 0.017132 0.865000
-0.017811 -0.022637 0.861000
-0.022063 -0.008817 0.861000
-0.012849 -0.000666 0.861000
-0.003665 -0.011032 0.868000
0.005261 0.021810 0.867000
-0.000448 -0.037382 0.866000
-0.007560 -0.041208 0.864000
-0.022756 -0.037008 0.874000
-0.006515 -0.001385 0.867000
-0.020550 0.035668 0.857000
-0.007204 -0.026628 0.864000
0.018508 0.015780 0.869000
0.025750 -0.013595 0.872000
-0.021961 0.024028 0.857000
0.008125 0.030767 0.868000
0.022811 0.031046 0.856000
-0.020244 0.000042 0.859000
0.026888 -0.019742 0.874000
-0.023890 -0.031324 0.876000
-0.008616 -0.026597 0.863000
0.022931 -0.017224 0.874000
-0.025726 -0.007790 0.865000
-0.012169 -0.042936 0.863000
-0.000449 -0.028148 0.867000
-0.025487 -0.016410 0.869000
-0.005076 -0.035915 0.865000
-0.035339 0.033864 0.865000
-0.005801 -0.006023 0.867000
-0.026024 -0.025526 0.875000
-0.013928 -0.026566 0.862000
0.024758 -0.024446 0.875000
-0.013912 -0.003147 0.861000
0.010984 0.028980 0.868000
-0.016020 0.014909 0.860000
-0.006470 0.047174 0.861000
-0.020221 0.033944 0.858000
-0.017790 -0.010930 0.860000
0.012125 0.000762 0.873000
-0.005775 0.019934 0.863000
-0.016393 -0.018030 0.861000
-0.030604 0.019201 0.862000
0.007437 -0.009636 0.871000
-0.008626 -0.010270 0.864000
0.009187 -0.045633 0.867000
-0.016747 -0.022283 0.861000
-0.012834 0.034731 0.860000
0.007419 -0.042519 0.869000
-0.019537 0.007820 0.859000
0.000975 0.046983 0.864000
0.014948 0.015440 0.870000
-0.015312 0.000042 0.860000
-0.036301 0.026930 0.871000
0.016418 0.001479 0.872000
-0.004374 -0.007451 0.867000
-0.028696 0.022290 0.858000
-0.029721 0.030377 0.857000
0.008125 0.021121 0.868000
-0.011772 0.036854 0.860000
-0.002581 0.038093 0.864000
-0.021195 -0.034293 0.869000
0.018593 -0.006424 0.873000
-0.001874 -0.031679 0.866000
0.003116 0.034973 0.866000
-0.027766 0.007848 0.862000
0.004195 -0.017105 0.868000
-0.003652 0.026388 0.865000
-0.005426 -0.021649 0.864000
-0.026323 -0.020078 0.873000
0.025089 -0.019742 0.874000
0.004195 -0.034968 0.868000
-0.021268 -0.039077 0.872000
-0.023752 0.011696 0.858000
-0.018808 0.023703 0.858000
0.018171 0.018663 0.870000
0.022571 -0.017583 0.874000
0.008154 0.013666 0.871000
-0.003652 -0.028439 0.865000
0.010293 -0.023590 0.870000
0.020606 0.009678 0.867000
0.007777 -0.021775 0.869000
0.029047 -0.032332 0.874000
0.000622 -0.038139 0.867000
0.014590 0.014008 0.870000
0.009599 0.006503 0.872000
-0.023808 -0.002081 0.860000
-0.011116 0.027780 0.864000
-0.020927 0.017346 0.858000
-0.015739 -0.040496 0.864000
-0.020574 0.032531 0.858000
0.001333 0.042765 0.865000
0.011047 -0.030139 0.873000
-0.018584 -0.031962 0.864000
0.015718 -0.001753 0.873000
-0.011090 -0.004215 0.862000
-0.025341 -0.007069 0.864000
0.007054 0.017191 0.868000
0.002415 -0.011415 0.870000
-0.000091 0.041649 0.864000
-0.027135 -0.021589 0.876000
-0.019868 0.021584 0.858000
-0.005781 -0.021649 0.864000
0.010281 0.016495 0.869000
-0.011090 0.031264 0.862000
-0.019605 -0.020890 0.862000
-0.014621 0.001106 0.861000
0.002763 -0.025293 0.867000
-0.009705 0.005739 0.865000
0.010626 0.023979 0.868000
0.014232 -0.040420 0.870000
-0.008606 0.023458 0.862000
-0.011432 0.021305 0.861000
0.010305 -0.015013 0.871000
-0.011813 0.005371 0.863000
-0.008646 0.007528 0.866000
0.009566 -0.021775 0.869000
-0.014958 0.023050 0.860000
0.002766 -0.043185 0.868000
0.000981 0.011846 0.869000
-0.000806 -0.016034 0.868000
-0.017769 0.008881 0.859000
0.022084 -0.040015 0.869000
-0.031822 -0.000678 0.876000
-0.025106 0.031751 0.856000
-0.015330 -0.019802 0.861000
0.024730 -0.017583 0.874000
-0.000806 0.010403 0.868000
-0.005801 0.007536 0.867000
0.014623 -0.032976 0.872000
0.005631 -0.037870 0.869000
-0.011458 -0.038318 0.863000
-0.024361 -0.040522 0.880000
-0.007542 0.035876 0.862000
-0.003296 -0.037695 0.865000
-0.013558 -0.009880 0.861000
0.029664 -0.017881 0.871000
0.012484 0.000762 0.873000
-0.023863 -0.008472 0.862000
0.000623 0.010773 0.869000
0.029664 -0.018240 0.871000
0.016078 -0.025468 0.873000
0.010316 -0.009288 0.872000
0.003453 -0.049924 0.861000
-0.005445 -0.003882 0.867000
-0.009671 0.032683 0.862000
-0.009682 -0.032280 0.863000
0.012785 0.022933 0.869000
0.015700 -0.023644 0.872000
-0.027411 0.005364 0.862000
0.001683 -0.050337 0.862000
-0.005432 -0.017046 0.865000
-0.006137 -0.034451 0.864000
0.005273 -0.044307 0.869000
0.017097 0.015082 0.870000
0.009555 0.029695 0.868000
0.002045 0.039917 0.865000
-0.000092 -0.046703 0.867000
-0.027464 -0.018684 0.875000
0.011009 -0.037197 0.870000
-0.017102 -0.016259 0.861000
0.000980 -0.034611 0.868000
-0.033792 0.019043 0.871000
-0.008261 -0.022335 0.863000
-0.003656 -0.042729 0.866000
-0.014267 -0.008817 0.861000
-0.010405 0.000043 0.864000
-0.000803 0.044493 0.864000
-0.000805 -0.032073 0.867000
0.002404 0.022141 0.866000
-0.022089 -0.012375 0.862000
0.001334 0.017508 0.866000
0.011766 0.001121 0.873000
-0.008290 0.001112 0.866000
0.020249 0.016458 0.867000
0.007759 0.034656 0.867000
0.005968 0.044953 0.866000
-0.000447 0.042360 0.864000
-0.013204 -0.015550 0.861000
0.005631 -0.040731 0.869000
0.011022 -0.013938 0.871000
-0.036135 0.033586 0.867000
0.012069 0.030802 0.869000
0.009957 0.007939 0.872000
-0.019514 0.013462 0.858000
-0.006158 -0.003169 0.867000
-0.030460 0.006831 0.868000
-0.014976 -0.008462 0.861000
-0.023399 0.008518 0.858000
-0.004374 0.012532 0.867000
-0.005070 0.024580 0.864000
-0.015401 -0.044816 0.865000
0.018593 -0.007502 0.873000
-0.016728 -0.013408 0.860000
0.015324 -0.018240 0.871000
-0.020574 0.029353 0.858000
-0.002885 0.047914 0.849000
0.009070 -0.048929 0.856000
0.012785 0.022218 0.869000
-0.021000 -0.014132 0.861000
0.012484 -0.000316 0.873000
0.008135 -0.037870 0.869000
-0.016057 -0.029759 0.862000
0.016738 0.016514 0.870000
-0.026547 0.026144 0.857000
-0.017102 -0.019448 0.861000
-0.016728 -0.004913 0.860000
-0.001878 -0.015676 0.868000
-0.025106 0.027170 0.856000
0.002047 0.024280 0.866000
0.008135 -0.041804 0.869000
0.018213 -0.038718 0.872000
0.017833 0.005420 0.871000
-0.020718 -0.024494 0.864000
0.002763 0.033229 0.867000
-0.006158 -0.007808 0.867000
0.017354 0.036001 0.865000
-0.009327 -0.023400 0.863000
-0.002933 0.045863 0.863000
-0.015739 -0.043697 0.864000
-0.016020 -0.005621 0.860000
-0.006478 0.042617 0.862000
0.022520 -0.004623 0.872000
-0.015330 -0.013424 0.861000
0.026593 0.028480 0.853000
0.003829 0.026062 0.866000
-0.000807 -0.012475 0.869000
-0.026927 -0.030778 0.881000
-0.005781 -0.021294 0.864000
-0.016806 -0.041563 0.864000
-0.021608 0.029319 0.857000
0.000623 -0.016391 0.868000
-0.016709 0.030448 0.859000
-0.000447 0.036670 0.864000
0.001331 0.047338 0.864000
0.026079 -0.013221 0.871000
-0.016786 -0.032991 0.863000
-0.000092 -0.037426 0.867000
-0.009327 -0.024111 0.863000
-0.016039 -0.019094 0.861000
0.009866 -0.046542 0.864000
0.019892 0.025735 0.867000
0.027279 -0.023365 0.875000
-0.025106 0.028227 0.856000
0.014297 -0.005712 0.874000
0.018508 0.026868 0.869000
-0.012154 0.003236 0.862000
0.007266 -0.050045 0.851000
0.010257 -0.043135 0.867000
-0.031595 0.026943 0.860000
-0.010710 0.046411 0.860000
-0.017102 -0.017676 0.861000
-0.019049 -0.044307 0.869000
0.003124 0.029695 0.868000
-0.022666 0.022617 0.857000
0.010056 -0.049636 0.850000
0.028588 -0.019315 0.871000
0.018572 -0.016825 0.872000
0.020749 -0.020078 0.873000
0.012785 0.024722 0.869000
0.023291 -0.025857 0.874000
-0.005788 -0.042679 0.865000
-0.018455 0.030059 0.858000
0.006696 -0.047115 0.868000
-0.026713 -0.019382 0.874000
0.009957 -0.012160 0.872000
-0.007204 -0.014182 0.864000
-0.019514 0.035356 0.858000
0.023264 -0.010377 0.873000
-0.015010 -0.037963 0.863000
-0.010748 0.029879 0.863000
0.011406 -0.000676 0.873000
0.013547 -0.032617 0.872000
-0.003284 -0.051756 0.862000
-0.012154 -0.004215 0.862000
-0.016393 -0.020511 0.861000
0.000977 0.041341 0.865000
0.012441 0.015798 0.870000
-0.012126 0.035085 0.860000
0.002049 -0.047417 0.867000
0.017854 -0.008929 0.872000
0.005612 0.040319 0.866000
0.012111 -0.013236 0.872000
-0.012509 -0.011310 0.862000
0.014623 -0.032258 0.872000
0.009957 -0.013236 0.872000
-0.011772 0.036146 0.860000
-0.036576 0.031875 0.869000
0.022571 -0.025857 0.874000
0.001333 0.040273 0.865000
-0.019891 0.008528 0.859000
0.008483 -0.043899 0.868000
-0.020951 -0.002079 0.859000
-0.006515 0.003968 0.867000
0.014248 0.008647 0.871000
-0.005432 -0.042323 0.865000
-0.025106 0.028932 0.856000
0.014281 -0.010018 0.873000
0.011009 -0.040420 0.870000
-0.007906 0.024906 0.863000
0.017874 -0.025827 0.873000
-0.015666 0.015617 0.860000
-0.023699 -0.022848 0.869000
0.011563 -0.051162 0.858000
-0.016374 0.013493 0.860000
0.003113 0.041341 0.865000
0.012456 0.011156 0.871000
-0.003296 -0.026659 0.865000
-0.013558 -0.017322 0.861000
-0.026194 0.020500 0.857000
0.001333 0.039561 0.865000
0.010328 -0.028342 0.873000
-0.007221 0.002181 0.866000
0.007437 -0.013938 0.871000
-0.031558 0.031155 0.859000
-0.031912 0.031862 0.859000
-0.020622 -0.008453 0.860000
-0.008626 -0.012404 0.864000
0.008154 0.008288 0.871000
-0.023426 0.003578 0.859000
0.003489 0.011501 0.870000
-0.003277 -0.054467 0.860000
-0.001874 -0.035957 0.866000
0.004542 0.039250 0.866000
-0.014638 -0.026211 0.862000
-0.017161 -0.038363 0.864000
-0.002581 0.033825 0.864000
0.020249 0.007893 0.867000
0.020296 0.023291 0.869000
0.010971 0.038939 0.867000
-0.037146 0.025224 0.874000
0.014862 0.040273 0.865000
-0.018144 -0.004559 0.860000
0.013218 -0.027296 0.874000
0.014965 -0.017164 0.871000
0.012484 0.002199 0.873000
0.004186 0.023211 0.866000
0.024342 -0.011096 0.873000
-0.034271 0.029236 0.865000
0.022800 -0.039300 0.869000
0.018529 0.007204 0.870000
0.017156 -0.024390 0.873000
-0.007577 0.010736 0.866000
-0.008636 0.026744 0.865000
0.030022 -0.021108 0.871000
0.004205 0.013292 0.870000
-0.014536 0.047252 0.856000
-0.003999 0.043376 0.863000
-0.022063 -0.008108 0.861000
-0.013188 0.031545 0.860000
0.012456 -0.034372 0.871000
0.008116 0.040009 0.867000
0.008088 0.045916 0.864000
0.027639 -0.024806 0.875000
-0.028541 0.006799 0.864000
-0.013542 0.029421 0.860000
-0.034430 0.023649 0.869000
-0.007204 -0.050809 0.864000
-0.026504 -0.029623 0.879000
-0.016374 -0.006683 0.860000
-0.015702 -0.033662 0.862000
0.014232 0.023318 0.870000
0.020749 -0.031936 0.873000
0.008116 0.038939 0.867000
0.022059 0.006473 0.868000
0.010675 -0.013236 0.872000
-0.008982 0.011066 0.864000
0.004526 0.047994 0.863000
-0.025114 -0.039118 0.881000
0.018213 -0.038000 0.872000
-0.017893 -0.038763 0.865000
-0.011786 0.031582 0.861000
-0.016020 0.010307 0.860000
-0.007560 -0.032673 0.864000
-0.010393 -0.029794 0.863000
0.002049 0.027876 0.867000
0.021852 -0.035210 0.874000
-0.007196 0.032721 0.863000
0.006689 0.038225 0.867000
0.024398 -0.030928 0.875000
-0.007196 0.032010 0.863000
-0.011458 -0.034766 0.863000
0.008154 -0.032579 0.871000
0.009197 0.026480 0.868000
0.011354 0.017926 0.869000
-0.029050 0.024056 0.858000
-0.012849 0.015635 0.861000
-0.022834 -0.042911 0.877000
0.002773 -0.013564 0.870000
-0.037779 0.031267 0.872000
-0.001517 -0.035957 0.866000
-0.014604 0.035792 0.860000
-0.022496 -0.017738 0.864000
0.010222 0.043071 0.864000
0.004195 -0.046043 0.868000
-0.029456 -0.000315 0.870000
-0.007560 -0.037296 0.864000
0.020249 0.012532 0.867000
0.013173 -0.037957 0.871000
-0.019560 -0.010222 0.860000
0.005618 0.027876 0.867000
-0.028730 0.020902 0.859000
-0.018874 -0.015904 0.861000
0.018593 -0.023671 0.873000
-0.006137 -0.024494 0.864000
-0.025811 0.034921 0.856000
-0.000804 0.021760 0.865000
0.000265 -0.049800 0.865000
0.004547 0.019312 0.867000
-0.004003 0.022090 0.864000
-0.008972 -0.015231 0.863000
-0.031532 0.012189 0.868000
-0.019514 0.025468 0.858000
0.006332 0.018955 0.867000
0.006642 0.049300 0.861000
0.016796 -0.007862 0.873000
0.021852 -0.030174 0.874000
-0.034867 0.021911 0.871000
-0.002936 0.017467 0.864000
-0.010723 0.018470 0.861000
-0.021355 -0.013424 0.861000
0.025420 -0.036966 0.873000
-0.024246 -0.008837 0.863000
-0.028277 0.031751 0.856000
-0.013928 -0.025147 0.862000
0.011341 0.037197 0.868000
-0.011103 -0.034411 0.863000
-0.004008 -0.045528 0.865000
-0.010748 -0.044357 0.863000
0.021060 0.000760 0.871000
-0.011103 -0.042226 0.863000
-0.005432 -0.029151 0.865000
-0.001517 -0.034887 0.866000
0.005618 0.020740 0.867000
0.005255 0.039606 0.866000
0.015359 -0.003191 0.873000
-0.009348 0.007163 0.865000
-0.020718 -0.025917 0.864000
-0.000090 -0.052722 0.849000
0.013173 -0.037240 0.871000
-0.023399 0.013462 0.858000
-0.000091 0.040937 0.864000
0.016796 -0.025468 0.873000
0.026468 -0.036565 0.872000
-0.024639 -0.034970 0.877000
0.002763 -0.024579 0.867000
-0.023288 -0.021724 0.867000
0.018952 -0.022593 0.873000
-0.022746 -0.002081 0.860000
0.027608 -0.022619 0.874000
-0.010735 -0.012730 0.862000
-0.000449 0.013976 0.868000
0.015341 0.003991 0.872000
-0.000803 0.043071 0.864000
-0.010368 0.038315 0.861000
-0.000448 0.026775 0.866000
-0.008252 0.038714 0.862000
0.008881 0.002196 0.872000
-0.005058 -0.052111 0.862000
-0.004720 -0.023098 0.865000
0.003120 0.027163 0.867000
-0.020076 -0.035284 0.867000
-0.014604 0.015263 0.860000
-0.029951 -0.005712 0.874000
0.000980 0.030767 0.868000
0.024617 -0.039345 0.870000
0.019671 -0.010377 0.873000
-0.014587 0.043882 0.859000
0.004186 0.037468 0.866000
0.017495 -0.014672 0.872000
-0.004008 -0.027371 0.865000
0.010663 -0.032938 0.871000
-0.018476 0.015952 0.859000
-0.009671 0.018846 0.862000
0.012785 0.033306 0.869000
-0.022422 -0.039932 0.875000
-0.002940 0.032084 0.865000
-0.010014 0.042567 0.861000
0.003113 0.038849 0.865000
-0.010393 -0.043291 0.863000
-0.010368 0.041504 0.861000
0.001693 -0.040994 0.867000
-0.012154 -0.024083 0.862000
-0.016767 -0.029404 0.862000
-0.011800 -0.022309 0.862000
-0.005288 0.048212 0.842000
0.022905 -0.011096 0.873000
0.022564 0.026943 0.860000
0.022571 -0.031972 0.874000
-0.014941 0.036104 0.859000
-0.008626 0.025646 0.864000
0.016777 -0.038359 0.872000
0.017415 0.032196 0.868000
0.002054 0.013992 0.869000
-0.014655 -0.036187 0.863000
-0.018852 -0.009514 0.860000
-0.004364 -0.033067 0.865000
-0.022314 0.020148 0.857000
-0.002235 0.010046 0.868000
0.027513 -0.017164 0.871000
0.010614 -0.043135 0.867000
-0.021659 -0.001725 0.859000
-0.022470 -0.015231 0.863000
0.025838 -0.022645 0.875000
-0.018808 0.030059 0.858000
0.025478 -0.034170 0.875000
-0.006123 0.039778 0.862000
0.019671 -0.009658 0.873000
0.020654 0.020430 0.869000
-0.003652 -0.019894 0.865000
-0.004764 0.008307 0.873000
0.015700 -0.034052 0.872000
0.005989 -0.033935 0.869000
-0.013219 -0.026921 0.862000
-0.012154 0.008912 0.862000
0.006689 0.038939 0.867000
0.021777 -0.001749 0.871000
-0.001161 -0.044867 0.866000
0.025838 -0.033449 0.875000
-0.036744 0.025913 0.873000
0.009218 -0.038271 0.870000
-0.006840 0.020999 0.863000
-0.020221 0.026175 0.858000
-0.019273 -0.027663 0.863000
-0.011772 0.040748 0.860000
-0.028674 0.000043 0.868000
-0.016709 0.020548 0.859000
-0.012864 -0.031178 0.862000
-0.007915 0.030625 0.864000
-0.004354 0.043376 0.863000
0.009197 0.018263 0.868000
-0.018476 0.011356 0.859000
-0.005781 -0.022361 0.864000
0.011034 -0.026157 0.872000
-0.017082 -0.006683 0.860000
0.009912 0.026837 0.868000
-0.010598 0.047327 0.851000
0.007741 0.045257 0.865000
-0.002862 0.048905 0.842000
0.002401 0.045257 0.865000
0.002412 0.011846 0.869000
0.011009 -0.034332 0.870000
-0.038629 0.033896 0.875000
0.015017 -0.029454 0.874000
0.001336 -0.023509 0.867000
-0.015312 0.026943 0.860000
-0.028056 -0.008919 0.871000
-0.006515 -0.007094 0.867000
-0.033510 0.011541 0.873000
0.007402 0.038582 0.867000
0.016777 -0.019337 0.872000
-0.011813 -0.037253 0.863000
0.003847 -0.013206 0.870000
0.003469 0.043833 0.865000
-0.005076 -0.039831 0.865000
0.004904 0.025379 0.867000
-0.006515 -0.008165 0.867000
0.018550 -0.039391 0.871000
0.018930 0.000761 0.872000
0.022186 -0.011096 0.873000
0.000622 -0.037426 0.867000
0.025630 0.022943 0.856000
0.006712 0.015082 0.870000
0.006339 0.031124 0.868000
-0.024402 0.033864 0.856000
-0.021280 0.020877 0.858000
-0.008261 -0.026597 0.863000
-0.000092 0.022472 0.865000
-0.028316 -0.002101 0.868000
-0.031423 0.016776 0.865000
-0.006137 -0.030184 0.864000
-0.004017 0.010034 0.867000
-0.000805 -0.042729 0.866000
-0.032791 0.007948 0.873000
-0.022191 -0.024194 0.866000
-0.012864 -0.019471 0.862000
-0.015062 -0.044867 0.866000
0.016418 0.000761 0.872000
0.000979 -0.019583 0.867000
-0.022217 -0.026007 0.867000
0.013127 0.036483 0.868000
0.014623 -0.036565 0.872000
0.002367 -0.051215 0.853000
-0.013542 0.025174 0.860000
-0.005053 -0.052404 0.861000
0.026765 -0.013922 0.870000
0.017874 -0.036247 0.873000
0.007045 0.042507 0.867000
-0.006864 -0.001739 0.866000
0.018171 0.016514 0.870000
-0.003643 0.035562 0.863000
-0.017062 0.030801 0.859000
-0.000092 -0.036712 0.867000
-0.000092 -0.020630 0.866000
0.005663 0.009396 0.874000
0.003131 -0.055101 0.870000
0.005975 0.023951 0.867000
0.016437 -0.008940 0.873000
0.006696 -0.020321 0.868000
0.015000 -0.009299 0.873000
0.006727 -0.009288 0.872000
-0.006493 -0.028761 0.864000
-0.027824 -0.016883 0.875000
0.003124 -0.037111 0.868000
0.017854 -0.011083 0.872000
-0.022782 -0.038491 0.875000
-0.018476 0.022316 0.859000
0.028360 -0.031649 0.875000
0.010675 -0.031899 0.872000
0.015682 -0.014655 0.871000
-0.030137 0.005050 0.869000
-0.001158 0.041649 0.864000
0.010688 -0.009658 0.873000
-0.012495 -0.005273 0.861000
0.010210 0.044087 0.863000
-0.004720 -0.038763 0.865000
0.011725 -0.019293 0.870000
0.020296 0.022218 0.869000
0.003052 -0.053009 0.848000
0.007759 0.024308 0.867000
-0.008972 -0.021624 0.863000
0.007402 0.027163 0.867000
-0.035666 0.020883 0.873000
0.005618 0.032872 0.867000
-0.008242 0.042922 0.861000
0.011367 -0.036481 0.870000
-0.006515 -0.001028 0.867000
-0.018808 0.027940 0.858000
-0.032183 0.000404 0.876000
-0.023046 0.012755 0.858000
0.030057 -0.032258 0.872000
-0.016020 0.000396 0.860000
-0.018584 -0.033384 0.864000
-0.029050 0.025115 0.858000
0.030775 -0.022209 0.872000
0.019135 0.031016 0.865000
-0.013558 -0.017676 0.861000
0.010269 0.029695 0.868000
-0.006493 -0.039785 0.864000
0.003481 -0.039969 0.868000
-0.000449 -0.017799 0.867000
-0.000804 0.026032 0.865000
0.017116 0.006496 0.871000
0.003116 -0.049145 0.866000
0.014297 -0.026576 0.874000
-0.030741 -0.006807 0.876000
-0.010393 -0.041160 0.863000
-0.004364 -0.045528 0.865000
-0.006840 0.022775 0.863000
-0.011813 0.005015 0.863000
-0.005088 -0.006023 0.867000
-0.018123 0.025144 0.859000
-0.015330 -0.021929 0.861000
0.011739 -0.039032 0.871000
-0.009348 0.007875 0.865000
0.031493 -0.031181 0.872000
0.008512 0.013307 0.871000
0.010269 0.030052 0.868000
-0.005775 -0.052171 0.863000
-0.034346 0.009057 0.876000
0.018233 -0.033013 0.873000
0.027217 -0.035169 0.873000
-0.005781 -0.024850 0.864000
0.015000 -0.010377 0.873000
-0.009671 0.022039 0.862000
0.016096 -0.030174 0.874000
-0.008596 0.043276 0.861000
0.013906 -0.013595 0.872000
-0.010368 0.039732 0.861000
-0.005426 0.015689 0.864000
-0.028982 0.032807 0.856000
-0.001161 0.032834 0.866000
-0.004364 -0.021318 0.865000
-0.026408 -0.002447 0.864000
-0.024715 -0.015301 0.867000
0.012829 -0.025798 0.872000
0.025478 -0.029128 0.875000
0.002052 0.030409 0.868000
-0.017769 0.030094 0.859000
0.005625 -0.019249 0.868000
0.017156 -0.026187 0.873000
-0.005775 0.018158 0.863000
-0.024583 -0.027327 0.875000
-0.009327 0.025261 0.863000
0.004542 0.040676 0.866000
-0.028186 0.005732 0.864000
0.007445 -0.011083 0.872000
0.003477 0.027520 0.867000
-0.019251 -0.023018 0.862000
0.013922 0.001840 0.873000
0.027327 0.024998 0.854000
0.024010 -0.034850 0.874000
-0.014976 -0.010943 0.861000
0.010639 0.015422 0.869000
0.022008 0.021429 0.866000
-0.025841 0.022264 0.857000
-0.008271 -0.012048 0.864000
-0.019891 0.000750 0.859000
0.023542 -0.004970 0.870000
0.029406 -0.026217 0.874000
0.022459 0.032455 0.856000
-0.002584 0.025676 0.865000
0.002005 -0.053009 0.848000
-0.015312 0.005706 0.860000
-0.007187 0.033392 0.862000
0.019626 0.001477 0.871000
0.019648 -0.002110 0.872000
-0.001517 -0.039521 0.866000
-0.016709 0.017013 0.859000
0.029305 -0.017164 0.871000
-0.010037 -0.017362 0.863000
0.004910 -0.017820 0.868000
0.010996 0.023291 0.869000
-0.008972 -0.032991 0.863000
-0.015312 -0.000665 0.860000
-0.008271 -0.035162 0.864000
0.012785 0.028298 0.869000
-0.018476 0.013124 0.859000
0.010305 -0.032938 0.871000
-0.009705 0.028168 0.865000
0.017854 -0.012877 0.872000
-0.007204 -0.023072 0.864000
-0.027464 -0.017963 0.875000
0.003120 -0.047417 0.867000
-0.010748 0.025617 0.863000
-0.016728 -0.006683 0.860000
-0.012126 0.040748 0.860000
0.015000 -0.031576 0.873000
-0.010037 0.011054 0.863000
0.004186 0.042814 0.866000
-0.019514 0.016993 0.858000
-0.024801 -0.021442 0.870000
-0.011286 0.047971 0.850000
-0.000448 -0.021699 0.866000
0.009555 0.037554 0.868000
-0.018476 0.013477 0.859000
0.008492 0.016853 0.869000
-0.012154 -0.001731 0.862000
0.007428 -0.033258 0.870000
0.022442 -0.039300 0.869000
-0.005788 0.026744 0.865000
0.003829 0.025706 0.866000
0.019671 -0.035529 0.873000
-0.004003 0.017823 0.864000
0.004553 -0.021035 0.868000
0.012125 -0.006065 0.873000
-0.007187 0.036940 0.862000
0.019915 0.017191 0.868000
0.010984 0.032910 0.868000
-0.012154 -0.013084 0.862000
-0.023645 -0.020297 0.867000
0.009957 -0.026874 0.872000
0.021108 -0.021516 0.873000
-0.027830 0.003954 0.864000
0.004195 -0.042827 0.868000
0.021802 -0.003546 0.872000
0.023190 0.028966 0.857000
0.022212 -0.024418 0.874000
0.015324 -0.014655 0.871000
0.023873 0.000401 0.869000
-0.001876 0.029304 0.867000
0.009957 -0.007853 0.872000
0.002754 0.047694 0.864000
0.007777 -0.038227 0.869000
0.000265 0.037069 0.865000
0.003113 0.042765 0.865000
-0.006508 -0.012432 0.866000
0.001698 -0.014280 0.870000
-0.005788 -0.016334 0.865000
0.027935 -0.020078 0.873000
-0.022957 -0.024965 0.868000
-0.023426 0.007113 0.859000
-0.017769 0.012770 0.859000
0.011367 -0.022874 0.870000
0.030451 -0.035169 0.873000
0.004910 -0.045685 0.868000
-0.022340 0.006752 0.858000
-0.023835 -0.004210 0.861000
-0.029320 0.007171 0.866000
0.003461 0.048349 0.863000
-0.025043 -0.012076 0.866000
-0.014958 0.008184 0.860000
-0.019161 0.019818 0.858000
-0.001161 0.027131 0.866000
-0.030888 0.006130 0.870000
-0.019537 -0.001725 0.859000
-0.023372 0.022264 0.857000
-0.011445 -0.025857 0.862000
-0.011077 0.040087 0.861000
-0.016412 -0.026566 0.862000
0.000623 -0.013548 0.869000
0.019245 0.019379 0.870000
-0.011103 -0.001023 0.863000
0.013874 0.025466 0.870000
0.003485 -0.033935 0.869000
0.022391 0.018955 0.867000
-0.037995 0.026032 0.877000
-0.006856 0.026388 0.865000
-0.010037 0.009988 0.863000
0.003493 -0.009995 0.871000
-0.001870 0.034892 0.864000
0.013906 0.003273 0.872000
-0.009705 0.007519 0.865000
0.016796 -0.002113 0.873000
-0.008982 -0.011337 0.864000
0.012844 -0.005706 0.873000
-0.005781 0.024580 0.864000
0.011367 -0.035048 0.870000
0.003131 -0.011774 0.870000
0.010269 0.031481 0.868000
-0.030846 -0.010810 0.879000
-0.008290 0.008241 0.866000
-0.004704 0.046519 0.862000
0.007419 -0.044665 0.869000
-0.014638 -0.035436 0.862000
-0.007577 0.004320 0.866000
0.012799 -0.020367 0.870000
0.018572 -0.004982 0.872000
0.008881 -0.028310 0.872000
-0.010380 -0.012730 0.862000
0.027576 -0.035169 0.873000
0.007795 0.008288 0.871000
-0.007897 0.034102 0.862000
-0.014621 0.041504 0.861000
-0.022217 -0.026720 0.867000
0.021443 -0.005340 0.872000
-0.013542 0.033669 0.860000
0.014232 0.028689 0.870000
-0.027925 0.034569 0.856000
0.020007 -0.002828 0.872000
0.016418 -0.019696 0.872000
0.010984 0.033982 0.868000
0.011739 0.012590 0.871000
-0.002933 0.045152 0.863000
0.016738 0.009353 0.870000
-0.022087 -0.043943 0.876000
0.003847 -0.028961 0.870000
0.019223 0.024722 0.869000
-0.031426 -0.001397 0.875000
0.003397 0.049544 0.847000
0.017435 0.029729 0.869000
-0.000448 0.025676 0.865000
-0.004709 0.034497 0.863000
0.003838 -0.046043 0.868000
0.024398 -0.033809 0.875000
0.002045 0.044901 0.865000
0.013562 -0.004987 0.873000
-0.020574 0.013462 0.858000
-0.021049 -0.021979 0.863000
0.001693 -0.044205 0.867000
-0.019810 -0.043692 0.871000
0.009555 0.024336 0.868000
-0.034229 0.014775 0.873000
-0.006144 -0.040899 0.865000
-0.013188 0.044641 0.860000
-0.024870 0.004290 0.860000
-0.002578 0.046928 0.863000
-0.017436 -0.010576 0.860000
0.026407 -0.010341 0.870000
-0.013204 -0.005982 0.861000
0.005612 0.040676 0.866000
0.002047 0.021072 0.866000
-0.016020 0.014201 0.860000
0.002409 -0.046757 0.868000
0.016456 -0.028735 0.874000
0.018129 0.030409 0.868000
0.025779 -0.015407 0.873000
0.009411 -0.048872 0.855000
0.020389 -0.011455 0.873000
0.016758 0.003986 0.871000
0.025891 0.026022 0.853000
0.011766 -0.026546 0.873000
-0.029368 0.030377 0.857000
-0.031031 0.018534 0.864000
0.013547 0.005785 0.872000
0.019311 -0.018641 0.873000
-0.010037 -0.028018 0.863000
-0.025194 0.011356 0.859000
0.010984 0.033625 0.868000
-0.017181 -0.041611 0.865000
-0.025312 -0.004220 0.863000
0.007795 0.011515 0.871000
-0.024886 -0.025827 0.873000
0.006719 -0.031862 0.871000
-0.019891 -0.001725 0.859000
0.021108 -0.025468 0.873000
-0.011445 0.010686 0.862000
-0.011077 0.022014 0.861000
-0.016412 -0.032597 0.862000
-0.000805 -0.029218 0.867000
-0.014250 0.012431 0.860000
-0.005082 0.029270 0.866000
-0.004354 0.045863 0.863000
-0.021305 -0.001725 0.859000
-0.006052 0.047733 0.852000
-0.006508 0.011805 0.866000
0.012858 -0.028375 0.874000
-0.030995 0.001121 0.873000
-0.023725 0.025439 0.857000
0.015376 -0.006072 0.874000
-0.000805 -0.022056 0.866000
0.016738 0.014008 0.870000
0.007402 0.025022 0.867000
0.002766 -0.038540 0.868000
0.013500 0.025437 0.869000
-0.026516 0.029989 0.856000
0.027544 -0.017543 0.872000
-0.020099 -0.036754 0.868000
0.009555 0.021121 0.868000
-0.009671 0.019201 0.862000
-0.001162 0.030731 0.867000
0.017116 0.002911 0.871000
-0.016020 0.003582 0.860000
0.018593 -0.006784 0.873000
-0.018852 -0.014116 0.860000
-0.000447 0.046272 0.864000
-0.030746 0.012161 0.866000
-0.032733 0.029490 0.862000
-0.001876 0.031445 0.867000
-0.008242 0.043985 0.861000
-0.032073 0.005433 0.873000
0.014982 -0.032976 0.872000
-0.019514 0.029706 0.858000
0.014657 -0.026576 0.874000
0.015718 -0.003191 0.873000
0.013890 -0.020391 0.871000
0.022931 -0.016504 0.874000
0.017495 -0.009288 0.872000
-0.033075 0.012949 0.871000
-0.025607 0.003232 0.861000
-0.021961 0.033904 0.857000
-0.001878 0.011118 0.868000
0.016777 -0.010006 0.872000
0.005560 -0.049750 0.858000
0.020366 -0.003187 0.872000
-0.016020 0.013847 0.860000
-0.023780 0.006406 0.859000
-0.000445 -0.050987 0.861000
-0.014604 0.007122 0.860000
0.008473 -0.047060 0.867000
0.003838 -0.039969 0.868000
0.017874 -0.006424 0.873000
0.007804 -0.008929 0.872000
-0.007204 -0.013826 0.864000
-0.013558 0.008902 0.861000
0.019581 0.023649 0.869000
0.004195 -0.047472 0.868000
-0.027276 -0.008541 0.869000
-0.021146 -0.030646 0.867000
0.021467 -0.016126 0.873000
-0.020291 -0.012006 0.861000
-0.006485 0.018158 0.863000
-0.008646 0.006459 0.866000
0.022212 -0.034130 0.874000
-0.005781 0.025646 0.864000
0.019201 -0.041041 0.868000
0.017515 -0.026187 0.873000
0.004899 0.036399 0.866000
0.020392 0.035003 0.858000
0.025691 -0.009625 0.870000
0.021577 0.026682 0.863000
-0.008646 0.003607 0.866000
0.012456 -0.035089 0.871000
0.013922 -0.011096 0.873000
-0.017122 -0.026566 0.862000
0.007445 -0.030104 0.872000
0.018380 0.035562 0.863000
-0.023073 0.001103 0.859000
-0.005420 0.037338 0.863000
-0.000450 -0.013906 0.869000
0.000979 0.027520 0.867000
0.010675 -0.000316 0.872000
-0.028897 0.007866 0.864000
0.003469 0.046325 0.865000
0.013547 -0.032976 0.872000
-0.030355 0.013571 0.865000
-0.013188 0.024820 0.860000
-0.007542 0.019910 0.862000
-0.010037 -0.037963 0.863000
0.000622 -0.042421 0.867000
0.017077 0.030444 0.869000
-0.008606 0.020265 0.862000
-0.024841 0.006053 0.859000
0.023705 -0.040698 0.876000
-0.027669 0.017013 0.859000
-0.000803 0.040582 0.864000
0.015700 -0.012160 0.872000
-0.012849 -0.003147 0.861000
0.012427 0.031160 0.869000
-0.007187 0.039069 0.862000
0.015306 0.030479 0.870000
0.022008 0.021072 0.866000
0.006361 -0.031145 0.871000
0.010971 -0.042778 0.867000
-0.008290 0.000756 0.866000
-0.029165 -0.005699 0.872000
0.014607 -0.039032 0.871000
0.010996 0.020787 0.869000
0.008881 0.004350 0.872000
-0.006158 0.001827 0.867000
-0.017082 -0.014470 0.860000
0.017136 -0.017543 0.872000
-0.033548 0.010115 0.874000
-0.002225 0.021735 0.864000
-0.003296 0.032440 0.865000
0.009533 0.042814 0.866000
0.000265 -0.026720 0.867000
0.008830 -0.045276 0.867000
-0.020433 -0.034214 0.867000
0.020725 -0.000675 0.872000
-0.024754 0.034217 0.856000
0.020654 0.004335 0.869000
-0.016095 -0.044053 0.864000
-0.006500 -0.014554 0.865000
-0.022782 -0.038851 0.875000
-0.005070 -0.051165 0.864000
-0.004008 -0.028795 0.865000
-0.011813 0.003950 0.863000
-0.026022 -0.002444 0.863000
0.020725 -0.003905 0.872000
-0.027284 0.022290 0.858000
0.004205 -0.014638 0.870000
0.026242 0.027075 0.853000
-0.006158 -0.007094 0.867000
0.009218 -0.035765 0.870000
-0.005801 -0.009949 0.867000
-0.003300 -0.015997 0.866000
0.006332 0.027163 0.867000
0.012829 -0.025080 0.872000
-0.014250 0.025528 0.860000
-0.007551 -0.017007 0.863000
0.000265 0.024608 0.865000
-0.011458 0.001108 0.863000
0.005267 -0.017463 0.868000
0.002406 0.016814 0.867000
0.012844 -0.001035 0.873000
-0.011458 -0.043646 0.863000
-0.007204 -0.048320 0.864000
-0.026577 0.017346 0.858000
0.015700 0.002914 0.872000
0.009599 -0.012518 0.872000
0.029339 -0.033693 0.872000
0.020030 -0.007143 0.873000
0.021108 -0.009658 0.873000
-0.001870 0.037026 0.864000
-0.016039 -0.024055 0.861000
0.016399 0.005420 0.871000
-0.017497 -0.034056 0.863000
-0.011800 -0.012375 0.862000
0.012456 -0.015730 0.871000
0.002054 -0.016052 0.869000
-0.023590 -0.016334 0.865000
0.007054 0.030409 0.868000
0.018529 0.016873 0.870000
0.005968 0.039606 0.866000
0.006346 -0.041804 0.869000
-0.012864 -0.023373 0.862000
-0.029368 0.028260 0.857000
0.022416 0.004330 0.868000
0.017874 -0.031936 0.873000
-0.007560 -0.026983 0.864000
-0.002587 -0.035600 0.866000
0.008434 0.045863 0.863000
-0.026547 0.023675 0.857000
-0.008261 -0.024111 0.863000
0.013874 0.015082 0.870000
0.000979 -0.047060 0.867000
0.027871 -0.017164 0.871000
0.013173 0.010798 0.871000
0.011341 0.031481 0.868000
-0.006144 -0.039119 0.865000
0.027999 -0.029848 0.875000
-0.008616 -0.015586 0.863000
0.016022 0.019379 0.870000
-0.019161 0.020877 0.858000
-0.001517 -0.038095 0.866000
0.020630 0.018977 0.868000
-0.018498 -0.013408 0.860000
0.022571 -0.021900 0.874000
0.017354 0.035645 0.865000
0.013858 0.028298 0.869000
0.021060 -0.000315 0.871000
0.021108 -0.010018 0.873000
0.001695 0.015405 0.868000
-0.026263 -0.016089 0.871000
0.011725 -0.022874 0.870000
0.014965 -0.039032 0.871000
-0.016469 -0.043747 0.865000
-0.024077 0.020853 0.857000
0.017455 0.027973 0.870000
-0.020083 -0.046112 0.883000
0.027871 -0.017523 0.871000
-0.023142 -0.036330 0.875000
-0.025253 -0.000312 0.861000
0.002744 -0.054531 0.861000
0.017895 -0.027296 0.874000
-0.008626 -0.037296 0.864000
-0.010037 -0.006706 0.863000
-0.021727 -0.045025 0.876000
-0.028663 0.027555 0.857000
-0.024723 -0.039073 0.880000
0.008144 -0.016070 0.870000
-0.017416 0.034690 0.859000
-0.005768 0.042971 0.862000
0.010210 0.044442 0.863000
0.014265 -0.024721 0.872000
-0.027411 0.006074 0.862000
0.005261 0.034300 0.867000
-0.025931 0.007830 0.860000
-0.017477 -0.025857 0.862000
-0.008646 0.001468 0.866000
0.005989 -0.037870 0.869000
-0.020574 0.033237 0.858000
-0.011772 0.040394 0.860000
-0.013896 0.011723 0.860000
0.019671 -0.018641 0.873000
-0.024133 0.008881 0.859000
0.003124 -0.018177 0.868000
-0.012509 -0.030469 0.862000
0.010675 -0.012877 0.872000
0.008860 -0.016429 0.870000
0.001693 -0.044562 0.867000
0.000621 -0.050156 0.865000
0.023900 -0.038271 0.870000
0.007070 -0.033616 0.870000
-0.017062 0.031155 0.859000
-0.001878 -0.011032 0.868000
0.005989 -0.042161 0.869000
-0.012126 0.039686 0.860000
0.016399 0.006854 0.871000
0.014523 -0.042016 0.866000
0.007062 -0.018913 0.869000
-0.002515 0.048212 0.842000
-0.011432 0.038315 0.861000
-0.026608 0.014538 0.859000
0.016418 -0.033693 0.872000
-0.018123 0.002164 0.859000
-0.003652 -0.028795 0.865000
0.018171 0.009711 0.870000
-0.029756 0.026881 0.858000
-0.006508 0.000756 0.866000
-0.002228 0.032796 0.865000
0.023291 -0.024418 0.874000
0.000265 -0.039923 0.867000
-0.023372 0.027555 0.857000
-0.029332 -0.013312 0.877000
-0.020551 -0.042307 0.872000
0.018844 0.012547 0.868000
0.005982 -0.021392 0.868000
-0.004017 0.009321 0.867000
0.005968 0.039963 0.866000
0.007419 -0.025351 0.869000
-0.005064 0.035917 0.863000
0.004195 0.032196 0.868000
0.022212 -0.021900 0.874000
0.011986 -0.046488 0.863000
-0.028442 0.013509 0.861000
0.000265 0.030767 0.868000
-0.018123 0.021609 0.859000
0.019311 -0.007502 0.873000
-0.005432 -0.043035 0.865000
0.024010 -0.023699 0.874000
-0.026224 0.014874 0.858000
-0.021429 -0.023427 0.864000
-0.033876 0.030269 0.864000
-0.024105 0.012402 0.858000
-0.016057 0.046164 0.862000
0.020007 0.000402 0.872000
-0.008606 0.016717 0.862000
-0.010748 -0.024821 0.863000
-0.007542 0.038359 0.862000
-0.021608 0.032846 0.857000
-0.015666 -0.006329 0.860000
-0.018186 -0.026921 0.862000
0.012398 0.038582 0.867000
0.026273 0.024295 0.854000
0.017813 0.025824 0.870000
-0.006137 -0.030539 0.864000
0.009566 0.017211 0.869000
-0.013896 0.018802 0.860000
-0.008972 -0.031215 0.863000
0.010933 -0.044053 0.864000
-0.019583 -0.014487 0.861000
-0.026608 0.013477 0.859000
-0.005426 0.032047 0.864000
0.022918 0.025882 0.860000
-0.007568 0.030304 0.865000
-0.028730 0.021609 0.859000
-0.007560 -0.050453 0.864000
-0.014604 0.007476 0.860000
0.008182 0.002921 0.874000
0.016059 0.001838 0.872000
0.002757 0.039561 0.865000
-0.010405 -0.001735 0.864000
0.004899 0.039963 0.866000
-0.000092 -0.028895 0.868000
0.012069 0.035809 0.869000
-0.008280 0.011079 0.865000
0.010269 0.028980 0.868000
0.020030 -0.026905 0.873000
-0.009327 -0.017007 0.863000
0.012097 -0.038674 0.871000
-0.019628 -0.026952 0.863000
0.014965 -0.039749 0.871000
-0.005070 -0.024494 0.864000
-0.010723 0.017052 0.861000
0.007777 -0.042877 0.869000
0.024809 0.031251 0.852000
0.012000 -0.042986 0.864000
-0.003269 -0.052222 0.858000
0.021827 -0.017204 0.873000
0.009923 0.016138 0.869000
0.018213 -0.023285 0.872000
-0.008716 -0.049182 0.873000
0.011712 0.031517 0.869000
-0.002230 0.027131 0.866000
0.018930 -0.012877 0.872000
0.014248 0.010439 0.871000
-0.011786 0.019887 0.861000
-0.027856 -0.017984 0.876000
0.011739 -0.032938 0.871000
-0.017852 -0.030504 0.863000
-0.030815 0.030765 0.858000
-0.007924 -0.011706 0.865000
0.005631 -0.045380 0.869000
0.017156 -0.007143 0.873000
-0.021961 0.032846 0.857000
0.002773 -0.014638 0.870000
0.004195 0.031838 0.868000
0.018233 -0.027264 0.873000
0.000265 -0.021343 0.866000
-0.013574 -0.035791 0.862000
0.013562 -0.008580 0.873000
-0.021608 0.027202 0.857000
-0.022366 0.005699 0.859000
-0.012140 0.013863 0.861000
-0.034747 0.026480 0.868000
-0.020646 -0.012715 0.861000
-0.000450 -0.014621 0.869000
0.026169 -0.017943 0.874000
0.026242 0.026022 0.853000
-0.023019 0.018737 0.857000
0.015682 0.006854 0.871000
-0.009316 0.020975 0.862000
-0.010393 -0.004575 0.863000
0.010651 -0.037913 0.870000
-0.013896 0.041102 0.860000
-0.000092 0.018556 0.865000
0.005989 -0.016052 0.869000
-0.018562 -0.031215 0.863000
-0.008626 0.011422 0.864000
0.019536 0.009678 0.867000
-0.019787 -0.042210 0.870000
-0.021759 -0.018783 0.863000
0.006346 -0.046096 0.869000
-0.020862 -0.037555 0.870000
-0.002916 -0.052222 0.858000
-0.017769 0.008174 0.859000
-0.013896 0.019156 0.860000
-0.020976 -0.003851 0.860000
0.020606 0.013246 0.867000
-0.002551 -0.052681 0.854000
0.012858 -0.028015 0.874000
-0.008271 -0.047253 0.864000
-0.022087 -0.043583 0.876000
-0.023890 -0.031685 0.876000
0.012814 0.009005 0.871000
-0.003296 -0.026303 0.865000
-0.010037 -0.043646 0.863000
-0.014267 0.002877 0.861000
-0.005413 0.042617 0.862000
-0.004364 -0.024523 0.865000
0.023515 -0.039658 0.869000
-0.019514 0.024056 0.858000
-0.010393 -0.023400 0.863000
-0.017416 0.028680 0.859000
-0.002581 0.036670 0.864000
-0.013234 -0.040805 0.863000
-0.013204 0.001814 0.861000
-0.036343 0.024807 0.872000
-0.024190 -0.002438 0.861000
0.029013 -0.024031 0.873000
-0.025217 -0.022209 0.872000
-0.015276 0.046656 0.858000
0.013203 -0.000316 0.873000
0.022459 0.035274 0.856000
-0.006158 -0.007451 0.867000
-0.012509 -0.016277 0.862000
0.004186 0.045309 0.866000
0.008502 -0.015354 0.870000
-0.008290 -0.007799 0.866000
-0.031786 0.000043 0.875000
0.017475 0.008288 0.871000
0.003473 0.034973 0.866000
-0.019891 0.001457 0.859000
-0.017062 0.007820 0.859000
-0.004364 -0.027015 0.865000
0.025304 -0.006037 0.869000
-0.017062 0.034337 0.859000
0.011262 -0.046079 0.862000
-0.003303 0.010748 0.867000
-0.009338 -0.009203 0.864000
0.004186 0.020716 0.866000
0.026049 -0.006760 0.870000
-0.001519 0.013960 0.867000
-0.024306 -0.037539 0.878000
0.000977 0.019624 0.865000
-0.004008 -0.050156 0.865000
-0.010037 -0.037608 0.863000
0.005618 0.035370 0.867000
-0.002228 0.016776 0.865000
-0.020339 -0.022690 0.863000
0.019648 -0.006058 0.872000
-0.027824 -0.017243 0.875000
-0.035584 0.023345 0.871000
0.016078 -0.010018 0.873000
0.001696 0.011131 0.869000
-0.021677 -0.041325 0.874000
0.019179 0.012175 0.867000
-0.016728 -0.003143 0.860000
-0.003901 0.047866 0.842000
-0.027538 -0.001739 0.866000
0.013188 -0.032617 0.872000
0.019892 0.008964 0.867000
0.029373 -0.033013 0.873000
0.024398 -0.028407 0.875000
0.003127 0.011846 0.869000
0.000621 0.027131 0.866000
0.003829 0.044596 0.866000
-0.026224 0.015227 0.858000
-0.013912 -0.023700 0.861000
-0.019583 -0.018030 0.861000
0.002415 -0.011774 0.870000
0.015736 -0.030533 0.874000
-0.020006 -0.029828 0.864000
0.011752 0.007221 0.872000
0.019915 0.025408 0.868000
-0.006123 0.035521 0.862000
-0.027983 -0.025310 0.880000
0.000265 0.026775 0.866000
0.002047 0.022854 0.866000
-0.023863 -0.006344 0.862000
-0.022037 -0.039526 0.874000
-0.016039 -0.014841 0.861000
-0.016747 -0.016613 0.861000
0.004910 -0.042470 0.868000
-0.010061 0.002535 0.865000
-0.027925 0.030341 0.856000
-0.019868 0.026881 0.858000
0.017515 -0.025827 0.873000
-0.000807 -0.011760 0.869000
-0.017082 -0.011638 0.860000
-0.012154 -0.032952 0.862000
-0.022666 0.030377 0.857000
0.008125 0.030409 0.868000
0.012069 0.035094 0.869000
-0.017122 -0.030114 0.862000
0.026656 0.023268 0.855000
0.002766 -0.047115 0.868000
-0.026868 0.032103 0.856000
-0.008616 0.032010 0.863000
-0.017769 -0.000311 0.859000
0.008881 0.003273 0.872000
-0.016431 -0.035832 0.863000
0.005261 -0.047774 0.867000
-0.012879 -0.038674 0.863000
-0.019628 -0.028018 0.863000
-0.022904 -0.020987 0.866000
-0.008252 0.021330 0.862000
-0.020903 0.032846 0.857000
-0.005420 0.024196 0.863000
-0.023890 -0.032766 0.876000
-0.007700 -0.053561 0.880000
-0.012509 -0.000667 0.862000
-0.005070 -0.020583 0.864000
0.014965 0.005779 0.871000
-0.019206 -0.010576 0.860000
0.007804 -0.010365 0.872000
-0.014604 0.006414 0.860000
0.007948 -0.050975 0.849000
-0.010723 0.042567 0.861000
-0.010393 -0.030859 0.863000
0.013562 0.002918 0.873000
-0.001878 -0.012104 0.868000
0.019289 -0.004264 0.872000
0.023461 0.032028 0.854000
-0.006130 0.017447 0.863000
-0.020503 -0.039345 0.870000
-0.008252 0.036940 0.862000
-0.019868 0.013462 0.858000
-0.007196 0.018158 0.863000
-0.021684 -0.006329 0.860000
-0.009316 0.033392 0.862000
0.010651 -0.020009 0.870000
0.012097 -0.039032 0.871000
0.023651 -0.024058 0.874000
0.027481 -0.013206 0.870000
-0.018476 0.018073 0.859000
-0.006158 -0.004596 0.867000
0.023651 -0.018662 0.874000
0.003120 -0.022081 0.867000
-0.007212 0.030660 0.865000
-0.026993 0.011015 0.860000
-0.014250 0.013847 0.860000
0.009555 0.035411 0.868000
-0.020903 0.035315 0.857000
-0.025014 -0.010994 0.865000
0.005954 -0.048675 0.864000
-0.018691 -0.044665 0.869000
0.010269 0.022550 0.868000
-0.019514 0.033944 0.858000
0.021852 -0.030533 0.874000
-0.005076 -0.043747 0.865000
0.012441 0.015440 0.870000
0.004181 0.045969 0.865000
0.000620 0.045560 0.864000
0.030091 -0.025827 0.873000
-0.031495 0.014316 0.867000
0.013142 0.034379 0.869000
-0.004720 -0.018470 0.865000
-0.006832 0.044036 0.862000
0.016738 0.028689 0.870000
0.004558 0.015065 0.869000
0.018572 -0.003905 0.872000
0.017813 0.016873 0.870000
0.014640 -0.031576 0.873000
0.012484 0.003277 0.873000
-0.001161 -0.044511 0.866000
-0.011077 0.032290 0.861000
-0.017769 0.006406 0.859000
-0.004008 -0.022030 0.865000
0.002049 -0.019583 0.867000
0.018572 -0.004623 0.872000
-0.004709 0.039469 0.863000
-0.003643 0.041956 0.863000
-0.002596 0.009342 0.869000
0.007759 0.033586 0.867000
-0.015330 -0.015904 0.861000
-0.023529 -0.031685 0.876000
-0.024386 -0.017820 0.868000
0.006704 -0.036797 0.869000
-0.009671 0.018491 0.862000
0.011034 0.006862 0.872000
-0.002230 -0.032392 0.866000
-0.003292 -0.051165 0.864000
0.022545 -0.008580 0.873000
0.022212 -0.016504 0.874000
-0.015312 0.007476 0.860000
-0.002230 -0.047006 0.866000
-0.020221 0.021937 0.858000
0.006704 -0.037154 0.869000
-0.016728 0.007830 0.860000
0.007795 0.009364 0.871000
-0.013204 -0.000666 0.861000
0.011766 -0.029420 0.873000
0.000265 -0.025620 0.866000
0.000974 0.048349 0.863000
-0.019184 0.004992 0.859000
0.022545 -0.012533 0.873000
0.026079 -0.012863 0.871000
-0.019273 -0.025531 0.863000
-0.020244 0.001457 0.859000
0.017813 0.014724 0.870000
-0.013558 0.007130 0.861000
-0.028055 0.013139 0.860000
0.018233 -0.025109 0.873000
0.026242 0.029884 0.853000
-0.032246 0.016476 0.868000
-0.022473 -0.043632 0.877000
-0.037463 0.029147 0.873000
0.002773 -0.028603 0.870000
-0.010037 -0.032280 0.863000
0.002049 -0.019227 0.867000
0.009935 -0.035765 0.870000
-0.009660 0.039732 0.861000
-0.020598 0.001457 0.859000
-0.002587 -0.048788 0.866000
-0.007924 -0.010282 0.865000
-0.015666 0.014201 0.860000
-0.015294 0.036811 0.859000
0.011393 -0.013236 0.872000
0.023651 -0.018303 0.874000
-0.007551 0.015671 0.863000
-0.011077 0.017052 0.861000
-0.016355 0.030094 0.859000
-0.016355 0.018073 0.859000
0.000265 -0.042421 0.867000
0.001339 0.011488 0.869000
-0.016020 0.047119 0.860000
-0.026293 -0.018620 0.872000
0.005844 -0.051613 0.848000
-0.026670 0.004295 0.861000
0.030775 -0.021850 0.872000
-0.018498 -0.013054 0.860000
-0.033481 0.030234 0.863000
0.028327 -0.033051 0.874000
-0.000092 0.024964 0.865000
-0.004720 -0.029863 0.865000
0.016041 0.007213 0.871000
0.019468 0.030980 0.864000
0.010984 0.027551 0.868000
-0.017811 -0.019802 0.861000
-0.002230 -0.046293 0.866000
0.008840 0.025051 0.868000
0.019090 0.036273 0.863000
0.006193 -0.051962 0.848000
-0.024754 0.035274 0.856000
-0.005781 -0.019871 0.864000
0.004904 0.027520 0.867000
0.001693 -0.041708 0.867000
0.001689 0.040273 0.865000
0.016758 0.007930 0.871000
0.018930 -0.009647 0.872000
0.005612 -0.048432 0.866000
0.009577 0.014366 0.870000
0.029080 -0.029128 0.875000
0.020030 -0.037685 0.873000
0.014607 -0.019674 0.871000
-0.003648 0.018534 0.864000
-0.016450 -0.039785 0.864000
0.024588 -0.004249 0.869000
-0.029064 0.000401 0.869000
0.014657 -0.030174 0.874000
0.020749 -0.012892 0.873000
-0.024430 0.023675 0.857000
-0.002947 0.012175 0.867000
-0.006515 -0.003882 0.867000
-0.007212 0.026388 0.865000
-0.020670 -0.020535 0.862000
-0.000805 -0.027759 0.866000
-0.021255 0.030024 0.857000
-0.014267 -0.018030 0.861000
