0.022891 -0.007382 0.859000
-0.002566 0.022316 0.859000
-0.005728 -0.032371 0.856000
0.021123 -0.007382 0.859000
-0.025280 -0.008354 0.850000
-0.017562 -0.009043 0.849000
-0.041120 0.003899 0.852000
-0.027827 0.022862 0.853000
0.028983 -0.040237 0.851000
0.004474 -0.016810 0.853000
-0.020550 -0.018652 0.857000
0.029991 -0.040409 0.840000
0.027938 -0.000667 0.862000
-0.009262 0.041311 0.857000
-0.016165 -0.014984 0.849000
-0.000090 0.037213 0.852000
0.014622 -0.035334 0.851000
-0.030528 0.009838 0.850000
-0.023697 0.032455 0.856000
0.000972 0.029810 0.861000
-0.028957 0.039689 0.845000
0.020902 -0.043689 0.850000
-0.037437 0.008069 0.848000
-0.030805 0.005277 0.848000
0.001314 -0.015756 0.853000
-0.006455 0.014538 0.859000
0.022261 0.004300 0.862000
-0.029300 0.032065 0.855000
0.004437 0.037299 0.846000
0.006588 0.030973 0.854000
0.014101 0.001107 0.862000
-0.014234 0.030801 0.859000
0.032196 -0.001377 0.862000
0.038982 -0.010258 0.863000
-0.045413 -0.000671 0.867000
-0.022912 0.014085 0.853000
-0.025106 0.018010 0.856000
0.025455 0.003590 0.862000
-0.005058 -0.036855 0.862000
-0.037481 0.003536 0.849000
0.002009 -0.034243 0.850000
-0.010798 -0.034214 0.867000
0.026242 -0.036821 0.853000
0.001681 0.030873 0.861000
-0.006737 -0.013602 0.850000
0.027551 -0.013424 0.861000
-0.011498 -0.033105 0.866000
-0.031540 0.007380 0.849000
-0.021961 0.031435 0.857000
-0.022992 0.029989 0.856000
-0.018261 -0.013237 0.849000
0.038094 -0.020817 0.859000
-0.014250 0.025528 0.860000
-0.012335 -0.020249 0.850000
0.006288 0.018115 0.861000
0.032867 0.000397 0.861000
-0.037786 0.009814 0.848000
0.013376 -0.004210 0.861000
0.033147 -0.041589 0.850000
0.005858 -0.035292 0.850000
0.004166 0.013524 0.862000
-0.037967 0.027297 0.860000
-0.018102 0.029000 0.858000
0.006565 -0.040588 0.851000
0.021805 -0.011258 0.858000
0.023272 -0.003497 0.860000
0.007326 -0.046219 0.858000
0.008759 0.018802 0.860000
0.031582 -0.031629 0.855000
-0.024901 -0.004850 0.849000
-0.022455 -0.007646 0.849000
-0.037875 0.002491 0.850000
-0.001850 -0.010163 0.855000
-0.025726 -0.018470 0.865000
0.028063 -0.031629 0.855000
0.002014 -0.016790 0.852000
0.024008 0.000751 0.861000
-0.014553 0.021911 0.857000
-0.006102 0.011002 0.859000
0.038227 -0.011665 0.862000
-0.002569 0.024112 0.860000
0.032249 -0.034755 0.854000
-0.026330 -0.008004 0.850000
-0.028395 -0.002055 0.849000
0.015113 -0.008089 0.859000
-0.042324 0.012956 0.848000
-0.030356 0.035936 0.855000
-0.007096 -0.011867 0.851000
0.031059 -0.016594 0.860000
0.008779 0.007138 0.862000
0.015448 -0.008786 0.858000
0.009433 0.022264 0.857000
-0.016963 0.015156 0.854000
-0.004283 -0.025117 0.849000
0.030879 -0.032333 0.855000
0.009695 -0.036998 0.849000
-0.001141 -0.017821 0.851000
-0.007490 -0.001367 0.856000
0.022731 -0.035768 0.853000
-0.011026 0.009213 0.857000
0.027359 -0.028814 0.855000
0.033145 0.002517 0.859000
-0.017213 -0.010441 0.849000
-0.047579 0.004649 0.861000
0.001683 0.027716 0.862000
0.003807 0.015635 0.861000
-0.005741 0.038534 0.858000
0.013021 0.012446 0.861000
-0.018764 0.042320 0.856000
-0.035692 0.007022 0.848000
-0.007179 0.033708 0.861000
-0.020197 0.031788 0.857000
-0.012364 -0.023803 0.852000
0.038627 -0.007772 0.863000
0.026874 -0.000667 0.862000
-0.017233 -0.001357 0.850000
-0.003631 0.016325 0.860000
-0.026224 -0.013730 0.858000
0.008022 0.022264 0.857000
-0.003989 0.034417 0.861000
-0.015484 -0.017450 0.850000
-0.013369 -0.018129 0.849000
0.022537 -0.019756 0.859000
-0.034890 0.024647 0.854000
-0.012760 0.013766 0.855000
0.017274 -0.003856 0.861000
-0.017213 -0.007646 0.849000
-0.030492 0.005633 0.849000
0.036099 -0.009891 0.862000
0.027295 -0.038225 0.853000
0.024716 -0.002438 0.861000
0.041066 -0.009182 0.862000
-0.010308 0.003918 0.856000
-0.035551 0.029533 0.853000
-0.007787 -0.012902 0.850000
-0.014767 -0.012538 0.849000
0.020926 -0.041989 0.851000
0.010870 0.017720 0.859000
0.002359 -0.033543 0.850000
0.004797 0.035991 0.848000
0.003037 0.039642 0.844000
-0.013511 0.022996 0.858000
0.039601 -0.016259 0.861000
0.012213 -0.018938 0.854000
-0.000799 0.022342 0.860000
-0.001833 0.041875 0.847000
0.017567 0.015580 0.858000
-0.004687 0.024084 0.859000
-0.005000 -0.011881 0.852000
0.033930 -0.000666 0.861000
-0.002536 -0.025816 0.849000
0.017899 -0.012656 0.857000
0.018847 -0.035726 0.852000
-0.025600 -0.004850 0.849000
0.033966 -0.027693 0.853000
-0.018326 0.007055 0.852000
-0.019401 0.012681 0.853000
0.029003 -0.014858 0.862000
-0.017294 -0.019618 0.853000
-0.045203 0.001463 0.863000
0.032121 -0.016948 0.860000
-0.006777 -0.005588 0.855000
0.037474 -0.014841 0.861000
-0.028013 -0.001703 0.848000
-0.036211 -0.000659 0.852000
0.014811 0.006074 0.862000
0.030527 -0.032685 0.855000
-0.014587 0.037872 0.859000
-0.011971 -0.017779 0.849000
-0.024783 0.036020 0.857000
-0.032938 0.009127 0.849000
0.039292 -0.005634 0.862000
0.040711 -0.009891 0.862000
-0.021756 -0.001356 0.849000
0.025921 -0.033349 0.854000
-0.001153 0.025174 0.860000
-0.006094 0.019818 0.858000
0.006288 0.018824 0.861000
0.014288 -0.029765 0.852000
-0.014941 0.024084 0.859000
-0.007560 -0.035874 0.864000
0.003409 -0.035642 0.850000
-0.015502 -0.000308 0.851000
-0.022992 0.031751 0.856000
-0.035613 -0.008127 0.863000
-0.015593 0.041263 0.856000
0.016723 -0.036735 0.851000
-0.018720 0.014453 0.854000
0.026104 -0.019071 0.860000
-0.010698 0.026205 0.859000
0.009134 0.011041 0.862000
0.002038 -0.043596 0.862000
-0.020707 -0.006597 0.849000
0.020016 -0.011950 0.857000
-0.011985 -0.020599 0.850000
0.021477 -0.020110 0.859000
-0.035776 0.017884 0.850000
-0.009615 0.012740 0.857000
-0.030492 -0.003103 0.849000
0.008424 0.006783 0.862000
0.027873 -0.009160 0.860000
-0.041625 0.013654 0.848000
0.021452 -0.019027 0.858000
-0.045701 0.004285 0.859000
0.012593 -0.013698 0.856000
-0.007860 0.012755 0.858000
0.000959 -0.031058 0.849000
-0.032051 0.038532 0.835000
-0.002194 0.038616 0.852000
-0.022534 0.011614 0.852000
0.011106 -0.036342 0.850000
-0.019659 -0.009742 0.849000
0.025390 -0.045331 0.848000
0.019046 -0.002438 0.861000
0.022564 -0.004913 0.860000
-0.030708 0.032769 0.855000
-0.003962 -0.008403 0.855000
-0.047061 0.006399 0.858000
0.028315 -0.046246 0.852000
0.007616 -0.041989 0.851000
0.035655 -0.035357 0.835000
0.012667 0.014572 0.861000
0.006635 0.018802 0.860000
-0.006380 -0.022322 0.849000
0.026134 -0.017322 0.861000
0.000618 0.030164 0.861000
0.002398 -0.045119 0.864000
-0.003989 0.029101 0.861000
-0.001837 -0.024418 0.849000
-0.028745 -0.004151 0.849000
-0.019729 0.008458 0.852000
0.012505 -0.038441 0.850000
-0.042074 0.007389 0.850000
-0.028630 0.035626 0.856000
-0.006109 0.030837 0.860000
-0.019005 0.001793 0.851000
0.028767 -0.033388 0.855000
-0.000441 -0.034674 0.852000
0.014604 -0.041939 0.850000
-0.027125 0.018649 0.853000
0.007215 0.037950 0.845000
0.018627 0.013108 0.858000
0.015520 0.000752 0.862000
0.007334 0.021962 0.859000
-0.017624 0.006003 0.852000
-0.006387 -0.013952 0.850000
-0.035384 0.002837 0.849000
0.014439 0.011028 0.861000
0.020016 -0.018299 0.857000
0.009007 -0.040890 0.850000
-0.034994 0.009465 0.848000
-0.019469 0.018363 0.856000
0.018103 -0.041240 0.850000
-0.019446 0.042974 0.855000
-0.021833 0.010211 0.852000
-0.032781 0.033082 0.854000
0.032866 -0.038061 0.834000
-0.016709 -0.023999 0.859000
-0.004988 -0.026896 0.850000
0.037474 -0.016259 0.861000
-0.025600 0.042673 0.849000
0.021477 -0.021524 0.859000
-0.009615 0.012035 0.857000
-0.035200 0.032692 0.853000
-0.011013 0.010259 0.856000
0.011889 -0.012641 0.856000
0.021099 -0.011611 0.858000
-0.036519 0.000743 0.851000
-0.007104 -0.009075 0.852000
-0.018017 0.015156 0.854000
-0.022904 -0.022056 0.866000
-0.032543 -0.007365 0.857000
-0.000445 0.016698 0.861000
-0.027508 0.024295 0.854000
-0.021756 -0.007995 0.849000
-0.002566 0.035397 0.859000
0.016743 -0.032219 0.852000
-0.033479 0.035864 0.845000
-0.007814 -0.006979 0.853000
0.019175 -0.037435 0.851000
-0.003589 -0.028645 0.850000
-0.029934 0.026724 0.853000
-0.033249 0.004579 0.848000
-0.041700 -0.002447 0.864000
0.029712 0.001462 0.862000
0.031804 0.001106 0.861000
-0.010236 -0.023398 0.850000
0.005858 -0.035642 0.850000
-0.013173 0.024437 0.859000
-0.014802 -0.020623 0.851000
0.029085 -0.035810 0.854000
-0.001841 -0.016070 0.851000
0.029255 0.005699 0.859000
-0.026899 0.037078 0.857000
-0.009592 -0.003125 0.855000
0.023326 0.002881 0.862000
0.011262 0.003945 0.862000
0.014456 0.000397 0.862000
0.024107 -0.040986 0.852000
-0.023154 -0.008694 0.849000
0.043752 -0.007029 0.859000
0.029643 0.003228 0.860000
-0.019659 -0.004850 0.849000
-0.002572 0.014572 0.861000
-0.011286 -0.021648 0.850000
-0.041507 0.000396 0.860000
-0.034726 0.014735 0.850000
-0.013479 0.020829 0.856000
-0.014854 0.012696 0.854000
0.014639 -0.031167 0.852000
0.022158 -0.013730 0.858000
0.007607 -0.037391 0.850000
-0.003262 -0.008061 0.856000
0.008616 0.035906 0.846000
0.001681 0.015989 0.861000
-0.011352 0.013415 0.855000
-0.012834 0.037562 0.860000
0.007005 0.009267 0.862000
-0.023046 0.039947 0.858000
-0.022804 0.000741 0.849000
-0.013448 0.000745 0.854000
-0.002906 -0.008755 0.855000
0.015672 -0.034283 0.851000
0.023461 -0.032295 0.854000
-0.030285 0.025671 0.853000
0.006281 0.021280 0.860000
-0.013112 0.003209 0.855000
0.018692 0.007484 0.861000
-0.007079 -0.020924 0.849000
-0.008185 -0.029518 0.855000
0.022406 -0.029483 0.854000
-0.021756 -0.003103 0.849000
0.011197 0.019089 0.857000
-0.010611 -0.005569 0.852000
-0.042874 0.006003 0.852000
-0.006455 0.012417 0.859000
-0.027093 0.015471 0.852000
-0.006094 0.020524 0.858000
-0.031615 0.016504 0.851000
0.011604 0.013509 0.861000
-0.020430 0.011614 0.852000
-0.016767 -0.025502 0.862000
0.028293 0.001816 0.862000
0.003807 0.017761 0.861000
0.041776 -0.012730 0.862000
0.008820 0.003607 0.866000
0.017174 -0.015107 0.856000
0.027229 0.003236 0.862000
0.034720 -0.005285 0.863000
0.010406 -0.033893 0.850000
0.014622 -0.035684 0.851000
-0.019844 0.019089 0.857000
-0.032742 0.025671 0.853000
0.014656 -0.026991 0.853000
0.004808 -0.029695 0.850000
0.010895 0.012800 0.861000
-0.015134 -0.004506 0.850000
0.028260 -0.004919 0.861000
0.031267 -0.027791 0.856000
0.003807 0.021659 0.861000
0.016900 0.012431 0.860000
0.022406 -0.030186 0.854000
0.017073 -0.035334 0.851000
0.006915 -0.025176 0.851000
-0.036690 -0.001717 0.855000
0.007343 0.019510 0.860000
-0.017604 -0.017471 0.851000
0.037561 -0.007416 0.863000
0.013052 0.006791 0.863000
-0.037042 -0.001365 0.855000
-0.004334 0.015952 0.859000
0.027538 -0.043814 0.839000
0.008424 0.010686 0.862000
0.009356 -0.040890 0.850000
-0.039301 -0.006017 0.866000
0.007283 -0.018565 0.853000
0.020976 -0.032959 0.853000
-0.028496 0.019679 0.852000
-0.020079 0.011263 0.852000
-0.008567 0.012402 0.858000
0.022678 -0.041288 0.851000
-0.013173 0.034337 0.859000
0.039246 -0.016613 0.861000
0.008346 -0.015423 0.854000
-0.012070 0.005679 0.856000
0.010870 -0.009503 0.859000
0.032513 -0.014487 0.861000
0.034205 0.001103 0.859000
-0.015648 0.039286 0.859000
-0.033366 0.019656 0.851000
-0.049523 0.004666 0.864000
-0.000445 0.027684 0.861000
0.004108 -0.035992 0.850000
-0.001496 -0.012611 0.854000
-0.036891 -0.009246 0.868000
0.015007 -0.027693 0.853000
-0.000445 0.014926 0.861000
-0.038135 0.007720 0.848000
-0.002902 -0.011206 0.854000
-0.034498 0.024267 0.853000
-0.026868 0.040206 0.856000
-0.020903 0.031435 0.857000
0.012855 -0.039840 0.850000
-0.028707 -0.017483 0.869000
0.014954 -0.042639 0.850000
-0.024373 0.026435 0.855000
-0.011272 -0.017080 0.849000
0.019525 -0.041288 0.851000
-0.011759 0.027619 0.859000
-0.013718 -0.017779 0.849000
0.018825 -0.037085 0.851000
0.026976 -0.033349 0.854000
-0.005407 0.034062 0.861000
-0.012700 -0.022024 0.851000
-0.003980 0.020195 0.859000
0.043398 -0.006675 0.859000
0.010056 -0.034942 0.850000
0.003059 -0.035292 0.850000
-0.008271 -0.034807 0.864000
-0.012350 -0.022374 0.851000
0.009400 -0.016478 0.854000
0.005158 -0.034942 0.850000
-0.010332 0.025115 0.858000
0.002390 0.024140 0.861000
0.017774 -0.038486 0.851000
-0.033093 -0.004171 0.853000
-0.015611 0.040606 0.857000
-0.030178 0.010187 0.850000
0.024035 0.002881 0.862000
-0.023345 0.020476 0.856000
0.020369 -0.015478 0.857000
-0.007915 -0.035518 0.864000
0.031972 -0.027438 0.856000
-0.027508 0.026404 0.854000
0.030316 0.004992 0.859000
-0.022105 -0.001006 0.849000
-0.029334 0.035626 0.856000
0.015538 0.003950 0.863000
0.002373 -0.014034 0.855000
-0.024202 -0.000657 0.849000
0.018627 -0.009492 0.858000
-0.039182 0.031454 0.848000
0.038892 -0.016613 0.861000
0.012696 0.006791 0.863000
-0.028462 -0.007664 0.851000
0.012284 -0.008089 0.859000
-0.019775 0.014453 0.854000
-0.011051 0.031508 0.859000
0.035389 -0.010601 0.862000
-0.024754 0.032807 0.856000
-0.011365 0.010964 0.856000
0.025690 -0.021499 0.858000
-0.025280 0.007039 0.850000
0.003417 -0.019245 0.852000
0.007607 -0.038791 0.850000
-0.007525 0.029775 0.860000
0.020016 -0.019710 0.857000
0.019922 -0.033661 0.853000
-0.033947 0.004928 0.848000
0.005934 0.018115 0.861000
-0.043422 0.009127 0.849000
0.009070 -0.013698 0.856000
-0.027347 0.004585 0.849000
-0.028745 0.005982 0.849000
0.042436 -0.011297 0.861000
-0.013463 0.016230 0.855000
-0.033987 0.011573 0.849000
0.010541 0.012091 0.861000
0.030741 -0.013069 0.861000
-0.008137 -0.014651 0.850000
0.011958 -0.003147 0.861000
-0.035566 0.034125 0.845000
-0.018476 0.024791 0.859000
-0.025781 -0.012626 0.855000
0.005201 -0.012656 0.857000
-0.022314 0.033904 0.857000
-0.014434 -0.007655 0.850000
-0.037955 0.033390 0.844000
-0.024202 -0.007296 0.849000
-0.009284 0.030094 0.859000
-0.016863 -0.010441 0.849000
-0.017416 0.028680 0.859000
0.024362 0.000397 0.861000
0.004825 -0.017161 0.853000
-0.032353 0.021783 0.852000
0.030387 -0.011652 0.861000
0.007616 -0.026227 0.851000
-0.013735 -0.019899 0.850000
-0.002569 0.024466 0.860000
-0.021156 -0.015756 0.853000
-0.029828 0.012636 0.850000
-0.016572 0.006705 0.852000
0.005560 0.029706 0.858000
-0.014451 -0.019923 0.851000
-0.043473 0.007739 0.850000
0.015042 -0.015441 0.855000
-0.028395 0.004235 0.849000
0.009843 0.010686 0.862000
0.018273 0.014874 0.858000
0.025071 -0.000312 0.861000
-0.015466 -0.012887 0.849000
-0.002936 -0.036229 0.864000
-0.029444 -0.002754 0.849000
-0.005761 0.033708 0.861000
0.011861 -0.016829 0.854000
-0.009273 0.021937 0.858000
0.013251 -0.025236 0.853000
-0.025399 -0.012260 0.854000
-0.035776 0.001441 0.850000
0.002712 0.035418 0.851000
0.011847 -0.024533 0.853000
-0.003250 -0.011543 0.853000
0.019686 -0.021146 0.858000
0.001334 -0.045580 0.866000
-0.034067 -0.002060 0.851000
-0.029513 0.015804 0.851000
-0.029231 0.025320 0.853000
0.023051 -0.047664 0.865000
-0.011418 0.032961 0.860000
-0.001861 0.025528 0.860000
-0.024402 -0.014755 0.856000
0.015077 0.016620 0.857000
-0.020503 -0.025739 0.870000
0.020600 -0.038531 0.852000
-0.001500 -0.007356 0.856000
-0.039880 0.011909 0.848000
0.014725 -0.010892 0.857000
-0.009874 -0.019876 0.849000
-0.000445 0.013154 0.861000
0.025042 -0.018363 0.860000
0.011119 -0.029730 0.851000
0.004485 0.032065 0.855000
-0.008127 -0.019526 0.849000
0.031023 0.002871 0.859000
0.022511 0.011343 0.858000
0.010516 -0.007029 0.859000
-0.036433 0.012272 0.849000
-0.018102 0.029353 0.858000
-0.020707 -0.007296 0.849000
-0.037786 0.010163 0.848000
-0.028964 -0.016353 0.866000
0.020369 -0.015125 0.857000
-0.001140 -0.022698 0.850000
0.033970 -0.005634 0.862000
-0.002889 -0.020249 0.850000
0.004842 -0.013698 0.856000
0.014639 -0.028011 0.852000
0.002362 -0.021674 0.851000
0.007679 -0.009139 0.858000
-0.034499 0.036514 0.836000
0.024838 -0.038928 0.853000
-0.008547 -0.001015 0.856000
-0.012611 -0.033220 0.869000
-0.023263 0.013734 0.853000
0.003421 -0.016108 0.853000
0.005225 -0.046380 0.861000
0.035722 -0.025587 0.853000
0.000263 0.021988 0.860000
-0.015946 0.020476 0.856000
0.019525 -0.037786 0.851000
0.011249 0.015281 0.861000
-0.017749 0.033944 0.858000
0.041018 -0.015904 0.861000
-0.017912 -0.013237 0.849000
0.004516 0.022722 0.861000
-0.016963 0.016211 0.854000
0.023109 -0.031943 0.854000
0.012155 -0.034593 0.850000
-0.020009 -0.004850 0.849000
-0.017769 0.022670 0.859000
-0.028277 0.037388 0.856000
-0.001507 0.018094 0.860000
-0.023965 -0.012948 0.853000
-0.001514 -0.041563 0.864000
-0.020406 0.005646 0.851000
0.040780 -0.019335 0.856000
0.010467 -0.014738 0.855000
0.024305 -0.011978 0.859000
0.045166 -0.012332 0.859000
-0.029828 0.009838 0.850000
-0.016374 0.027297 0.860000
0.016723 -0.037085 0.851000
-0.040153 -0.006395 0.869000
-0.032589 0.000042 0.849000
-0.017954 -0.016770 0.851000
0.007360 0.010686 0.862000
-0.020707 -0.002055 0.849000
-0.022885 0.012315 0.852000
-0.018830 0.040347 0.859000
0.010103 -0.016126 0.854000
-0.015223 0.015174 0.855000
-0.017749 0.021937 0.858000
0.005927 0.024466 0.860000
0.014085 0.011737 0.861000
0.001675 -0.040922 0.858000
0.010056 -0.040190 0.850000
-0.033366 0.021057 0.851000
-0.002199 -0.034755 0.854000
-0.029758 0.002485 0.848000
-0.033987 0.001789 0.849000
0.028868 0.005693 0.858000
-0.000800 0.032290 0.861000
-0.005332 -0.023021 0.849000
-0.041603 -0.001377 0.862000
-0.016903 0.002844 0.851000
-0.017666 0.016562 0.854000
-0.012422 0.040911 0.856000
-0.024930 0.006689 0.850000
-0.011635 -0.009054 0.850000
-0.012140 -0.029370 0.861000
-0.027188 0.031713 0.855000
0.026150 -0.043689 0.850000
0.024867 -0.033701 0.854000
0.001328 -0.043241 0.862000
-0.017975 0.004601 0.852000
0.024692 -0.046029 0.848000
-0.031439 0.040003 0.837000
-0.020574 0.021937 0.858000
-0.014784 -0.004856 0.850000
-0.014836 0.005308 0.853000
-0.039531 0.008069 0.848000
0.003077 -0.040427 0.855000
0.020109 0.003586 0.861000
-0.032491 -0.012418 0.865000
-0.010936 -0.021648 0.850000
0.028129 -0.023943 0.857000
0.005865 -0.022374 0.851000
-0.014854 0.013399 0.854000
-0.009886 -0.012902 0.850000
0.029574 -0.021852 0.858000
-0.000090 0.039783 0.847000
-0.030320 0.031676 0.854000
0.009389 -0.021725 0.853000
0.034979 -0.027661 0.852000
0.005920 0.028680 0.859000
0.009820 0.017387 0.860000
-0.041603 -0.001731 0.862000
-0.021935 0.026114 0.856000
-0.035229 0.036558 0.837000
0.007005 0.005719 0.862000
-0.025280 0.005639 0.850000
0.019709 -0.005614 0.859000
0.015838 0.013493 0.860000
0.038582 -0.012020 0.862000
-0.028529 0.020405 0.853000
0.030032 -0.016613 0.861000
-0.004359 -0.038718 0.864000
-0.011759 0.026559 0.859000
0.007351 0.013509 0.861000
0.012593 -0.012641 0.856000
-0.016689 0.021584 0.858000
0.008336 -0.044194 0.853000
-0.006809 0.012770 0.859000
-0.006817 0.037562 0.860000
-0.010923 -0.016731 0.849000
0.037829 -0.003856 0.861000
0.015838 -0.006329 0.860000
-0.027347 0.001440 0.849000
0.029813 -0.042918 0.835000
0.036808 -0.010601 0.862000
-0.039875 -0.002089 0.863000
0.016900 0.012077 0.860000
-0.003584 -0.026166 0.849000
0.025277 -0.024620 0.856000
-0.030842 -0.000657 0.849000
0.018958 -0.014067 0.857000
-0.028797 -0.013069 0.861000
0.027906 -0.005982 0.861000
-0.010661 0.002861 0.856000
0.013555 -0.038791 0.850000
-0.006470 0.032645 0.861000
-0.027444 -0.009075 0.852000
-0.002533 0.040877 0.848000
-0.038484 0.010163 0.848000
0.016802 -0.017201 0.855000
0.029153 -0.030609 0.856000
-0.016883 -0.002757 0.850000
-0.008127 -0.016381 0.849000
0.001310 -0.032494 0.850000
-0.014485 0.001446 0.853000
-0.018541 -0.023728 0.862000
-0.006395 -0.012217 0.851000
0.001659 -0.033543 0.850000
0.012155 -0.035292 0.850000
-0.024430 0.034962 0.857000
0.030777 -0.001022 0.862000
-0.009979 0.039594 0.858000
-0.012715 -0.023102 0.852000
-0.008547 0.000042 0.856000
0.005176 -0.041385 0.853000
-0.038810 -0.002799 0.863000
0.006940 -0.043543 0.854000
0.009843 0.006429 0.862000
0.027519 -0.018363 0.860000
-0.015557 0.014805 0.854000
0.009832 0.014217 0.861000
0.001681 0.026620 0.861000
-0.012700 -0.021674 0.851000
0.030281 -0.020793 0.858000
-0.007507 0.008871 0.858000
-0.031540 0.007729 0.849000
-0.003938 -0.019549 0.850000
0.011236 -0.005621 0.860000
-0.001154 0.013863 0.861000
-0.032641 -0.013548 0.869000
0.017588 -0.007382 0.859000
0.015430 -0.010892 0.857000
-0.025720 -0.011192 0.853000
-0.004288 -0.018500 0.850000
0.021627 -0.043390 0.851000
-0.034498 0.028480 0.853000
-0.045808 0.003232 0.861000
-0.038006 -0.008541 0.869000
-0.008194 0.040558 0.856000
0.023980 -0.005975 0.860000
0.018231 -0.016164 0.856000
0.031486 -0.001022 0.862000
0.011972 0.007848 0.862000
-0.019161 0.024762 0.858000
0.017920 0.015227 0.858000
0.011249 0.013863 0.861000
-0.020406 -0.014318 0.851000
-0.030708 0.033121 0.855000
-0.023909 0.008798 0.851000
0.031065 -0.039072 0.841000
0.032791 0.001810 0.859000
-0.030214 -0.012006 0.861000
0.028315 -0.039934 0.852000
-0.021255 0.024733 0.857000
0.002390 0.011382 0.861000
-0.006102 0.024437 0.859000
0.027906 -0.013069 0.861000
0.032180 -0.038404 0.834000
-0.017253 -0.000308 0.851000
0.009832 0.011737 0.861000
0.017878 -0.014403 0.856000
0.029003 -0.003150 0.862000
-0.003627 0.016659 0.859000
-0.014434 -0.006605 0.850000
0.026273 -0.033701 0.854000
0.023299 0.007130 0.861000
0.005508 -0.038091 0.850000
0.010044 -0.038046 0.849000
0.030281 -0.021499 0.858000
-0.033837 -0.009548 0.863000
-0.029083 -0.011978 0.859000
-0.006102 0.014184 0.859000
-0.002889 -0.019199 0.850000
-0.038135 0.012258 0.848000
-0.046896 0.007784 0.855000
-0.021107 0.004595 0.851000
-0.007087 -0.014302 0.850000
0.003409 -0.025147 0.850000
-0.007481 -0.005236 0.855000
-0.036678 -0.006706 0.863000
-0.019117 0.018715 0.856000
0.038272 -0.007416 0.863000
-0.007860 0.007458 0.858000
-0.014417 -0.016381 0.849000
-0.002919 0.020195 0.859000
0.022564 -0.003851 0.860000
-0.016728 0.027297 0.860000
0.012327 0.005010 0.862000
-0.021404 -0.021624 0.863000
-0.009933 -0.004176 0.854000
0.000973 0.013879 0.862000
-0.009536 -0.023747 0.850000
-0.013112 0.004969 0.855000
-0.038666 0.001445 0.852000
-0.002923 0.012431 0.860000
0.005213 0.029033 0.859000
-0.033598 0.003881 0.848000
-0.032467 -0.006292 0.855000
-0.025106 0.017658 0.856000
0.001659 -0.024797 0.850000
-0.012408 0.000042 0.855000
-0.012126 0.036146 0.860000
0.032362 -0.026765 0.857000
0.036680 -0.001725 0.859000
-0.030492 0.008079 0.849000
-0.013832 0.020476 0.856000
0.024164 -0.031943 0.854000
0.023055 -0.039583 0.852000
0.012155 -0.039141 0.850000
0.018146 -0.033271 0.852000
-0.002902 0.038355 0.854000
-0.022992 0.021886 0.856000
0.012313 0.013863 0.861000
0.011805 -0.036342 0.850000
-0.027508 0.027458 0.854000
0.026811 -0.010576 0.860000
-0.025841 0.039548 0.857000
-0.033716 -0.002060 0.851000
-0.006094 0.021584 0.858000
0.017878 -0.015460 0.856000
0.004870 0.018824 0.861000
0.029678 -0.006336 0.861000
0.025396 -0.019779 0.860000
0.005872 -0.041337 0.852000
0.011145 -0.022076 0.853000
-0.008920 0.007105 0.858000
0.025218 -0.035107 0.854000
-0.005728 -0.004890 0.856000
-0.012408 0.014118 0.855000
-0.043123 0.008088 0.850000
-0.010236 -0.011853 0.850000
0.021025 -0.027406 0.855000
-0.022288 0.029989 0.856000
-0.033796 0.029884 0.853000
-0.043473 0.008788 0.850000
0.002038 0.028070 0.862000
0.019548 -0.034674 0.852000
-0.006448 0.021937 0.858000
0.027583 0.000397 0.862000
-0.012422 0.003213 0.856000
-0.048457 0.003954 0.864000
-0.002885 -0.023370 0.849000
0.032638 -0.029166 0.855000
-0.007507 0.022290 0.858000
-0.011026 0.040253 0.857000
-0.001138 -0.027214 0.849000
-0.047690 0.003950 0.863000
0.011496 -0.021374 0.853000
-0.003292 -0.037296 0.864000
-0.013526 0.031862 0.859000
-0.000443 -0.008061 0.856000
-0.039974 0.031178 0.850000
0.004162 0.009256 0.861000
0.022511 -0.023618 0.858000
-0.017769 -0.022938 0.859000
-0.004022 -0.041398 0.868000
0.024334 -0.018717 0.860000
-0.040229 0.010862 0.848000
-0.043025 0.004265 0.855000
0.015875 0.006074 0.862000
0.002007 -0.028262 0.849000
0.020582 -0.045580 0.866000
-0.002923 0.034377 0.860000
-0.034994 0.007022 0.848000
-0.016553 0.000392 0.851000
-0.004283 -0.020924 0.849000
-0.015205 -0.022453 0.854000
-0.011405 0.029033 0.859000
-0.049038 0.002544 0.868000
-0.011378 0.007802 0.857000
-0.044575 0.007748 0.851000
-0.022131 0.001092 0.850000
-0.003999 -0.036898 0.863000
0.003109 -0.045831 0.864000
-0.030214 -0.005212 0.851000
-0.035076 0.017184 0.850000
0.006581 -0.018214 0.853000
0.008385 -0.047631 0.858000
-0.005041 0.009942 0.859000
-0.025781 0.027843 0.855000
0.026211 -0.041687 0.852000
-0.017728 0.042017 0.857000
-0.026680 -0.007305 0.850000
0.003095 0.018802 0.860000
0.043044 -0.014100 0.859000
0.006295 0.009977 0.862000
-0.031578 0.010887 0.850000
0.011617 0.003590 0.862000
0.021830 0.009588 0.859000
-0.025607 -0.016613 0.861000
0.002406 -0.047060 0.867000
0.033458 -0.035251 0.849000
0.003453 0.029455 0.861000
0.035655 -0.035013 0.835000
0.012284 -0.009150 0.859000
-0.021379 -0.021244 0.862000
-0.024316 0.042874 0.853000
-0.004698 0.032645 0.861000
-0.038484 0.009465 0.848000
0.006642 0.007130 0.861000
0.026913 -0.040285 0.852000
0.018648 0.012417 0.859000
-0.006380 -0.021972 0.849000
-0.000090 -0.019572 0.851000
-0.013526 0.038933 0.859000
0.016743 -0.033973 0.852000
-0.036826 0.001791 0.850000
-0.032666 0.019656 0.851000
0.031656 -0.026765 0.857000
-0.007154 0.008165 0.858000
0.034099 -0.035526 0.839000
-0.027476 0.017947 0.853000
-0.003277 0.011723 0.860000
-0.009284 0.038579 0.859000
0.030032 -0.005982 0.861000
-0.006809 0.026912 0.859000
-0.005748 0.010295 0.859000
-0.022481 0.004590 0.850000
0.023272 -0.001727 0.860000
-0.029320 -0.015640 0.866000
0.005579 0.014926 0.861000
0.006948 -0.015090 0.855000
-0.028846 0.016874 0.852000
-0.024580 0.005639 0.850000
-0.002566 0.018781 0.859000
-0.035734 0.011573 0.849000
0.044459 -0.010564 0.859000
-0.031652 0.022835 0.852000
-0.015134 -0.018850 0.850000
0.013762 0.006081 0.863000
0.018847 -0.036778 0.852000
-0.030178 0.012287 0.850000
-0.002223 -0.040094 0.863000
-0.041458 0.000750 0.859000
0.027327 -0.034755 0.854000
-0.033796 0.030586 0.853000
-0.020244 0.039640 0.859000
0.026656 -0.029869 0.855000
-0.001148 -0.010527 0.856000
0.004464 -0.025176 0.851000
0.015875 0.005010 0.862000
0.007714 0.007848 0.862000
-0.027125 0.022160 0.853000
-0.011013 0.017658 0.856000
0.018209 -0.027054 0.855000
-0.008557 0.015562 0.857000
0.037561 -0.008127 0.863000
-0.048530 0.006760 0.859000
-0.023019 0.021206 0.857000
-0.001517 -0.042729 0.866000
-0.011718 0.008498 0.856000
-0.003277 0.010661 0.860000
0.003433 0.032455 0.856000
-0.013127 0.019067 0.856000
-0.006052 -0.010127 0.852000
0.043650 -0.015830 0.857000
0.028506 -0.043709 0.837000
-0.028563 0.026404 0.854000
-0.014819 -0.000659 0.852000
-0.030878 0.012636 0.850000
-0.009592 -0.001365 0.855000
0.017294 0.000397 0.862000
0.012855 -0.039141 0.850000
-0.002572 0.029455 0.861000
-0.016963 0.012344 0.854000
0.026012 -0.024296 0.857000
0.002390 0.011028 0.861000
-0.002189 -0.029345 0.850000
0.002757 -0.046240 0.865000
-0.021986 0.036769 0.858000
-0.002536 -0.028262 0.849000
-0.036782 0.003886 0.849000
-0.016747 -0.024763 0.861000
-0.009626 0.023349 0.858000
0.012227 -0.015793 0.855000
0.021805 -0.023971 0.858000
0.041421 -0.013084 0.862000
0.010056 -0.035992 0.850000
0.009345 -0.036299 0.849000
0.009356 -0.039141 0.850000
-0.023154 -0.009742 0.849000
-0.007162 0.024084 0.859000
-0.020550 0.030729 0.857000
0.030422 -0.001377 0.862000
0.029357 -0.001377 0.862000
0.002038 0.028425 0.862000
-0.027848 0.040636 0.843000
0.038582 -0.010956 0.862000
0.004469 -0.018193 0.852000
0.017920 0.014521 0.858000
-0.026163 0.032103 0.856000
0.019220 -0.030853 0.853000
0.000260 -0.023398 0.850000
-0.033796 0.030937 0.853000
-0.003281 0.031227 0.861000
-0.027220 0.034569 0.856000
0.007317 -0.011950 0.857000
0.005605 -0.048732 0.865000
-0.033288 0.010175 0.849000
0.012682 0.002881 0.862000
-0.027599 0.040781 0.846000
0.002706 -0.029660 0.849000
0.004490 -0.012641 0.856000
-0.036433 0.016116 0.849000
-0.040578 0.013305 0.848000
-0.010710 0.033669 0.860000
-0.009909 -0.006270 0.852000
0.011262 0.009622 0.862000
-0.011635 -0.022348 0.850000
-0.004354 -0.037253 0.863000
-0.032239 0.001090 0.849000
0.009123 0.014217 0.861000
-0.005017 -0.008052 0.855000
-0.008586 0.034023 0.860000
0.003041 0.038994 0.845000
-0.011013 0.015896 0.856000
-0.029409 -0.001005 0.848000
-0.033445 0.028128 0.853000
0.037829 -0.003501 0.861000
-0.021583 0.017658 0.856000
-0.023208 0.009499 0.851000
0.031095 0.001814 0.861000
-0.000439 -0.024768 0.849000
-0.000796 0.035315 0.857000
0.025216 -0.048788 0.866000
0.020062 -0.007382 0.859000
-0.031364 0.038189 0.835000
0.018825 -0.037435 0.851000
-0.000442 -0.011571 0.855000
-0.016355 0.029387 0.859000
0.011469 -0.031131 0.851000
-0.039321 0.030164 0.851000
-0.035776 0.018934 0.850000
0.027197 -0.016259 0.861000
0.025041 -0.046727 0.848000
-0.002919 0.020902 0.859000
0.016041 -0.031167 0.852000
-0.017811 -0.023700 0.861000
0.010908 0.008557 0.862000
-0.017253 0.001793 0.851000
-0.030805 0.000391 0.848000
-0.013035 -0.019899 0.850000
-0.041276 0.012258 0.848000
0.023812 -0.032646 0.854000
-0.030214 0.016154 0.851000
-0.018611 -0.006248 0.849000
-0.009956 0.012373 0.856000
-0.008213 0.006752 0.858000
0.005906 -0.010539 0.857000
-0.003985 0.035438 0.860000
-0.039578 0.007031 0.849000
-0.036999 -0.001012 0.854000
-0.029540 -0.013439 0.862000
0.028448 -0.029552 0.856000
0.012946 -0.012993 0.856000
-0.013542 0.028005 0.860000
-0.028046 -0.002754 0.849000
-0.032003 0.022485 0.852000
0.025100 0.002881 0.862000
-0.033132 -0.004879 0.854000
0.009028 -0.023102 0.852000
-0.021558 0.042974 0.855000
-0.028244 0.039455 0.855000
0.022210 0.008538 0.860000
-0.035384 0.015068 0.849000
0.004870 0.015281 0.861000
-0.035035 0.002837 0.849000
0.008405 0.019510 0.860000
-0.014819 -0.020998 0.852000
-0.003610 -0.008755 0.855000
-0.007481 -0.004533 0.855000
0.015148 0.009256 0.861000
-0.034027 0.016485 0.850000
-0.002569 0.012431 0.860000
-0.028244 0.033473 0.855000
0.000621 -0.044104 0.865000
-0.033987 0.001090 0.849000
0.010198 0.005364 0.862000
-0.021756 -0.010790 0.849000
0.021477 -0.022231 0.859000
0.005501 -0.033154 0.849000
0.012198 -0.023480 0.853000
0.026457 -0.006329 0.860000
-0.043478 -0.000669 0.864000
0.007714 0.012460 0.862000
-0.011365 0.015544 0.856000
-0.011026 0.021559 0.857000
0.002035 0.017407 0.861000
0.013905 -0.041589 0.850000
-0.023046 0.040653 0.858000
-0.014836 0.004957 0.853000
0.003098 0.027329 0.861000
0.008060 0.013509 0.861000
0.017053 -0.041939 0.850000
-0.026836 0.030306 0.855000
-0.014958 0.024820 0.860000
0.037917 -0.006351 0.863000
-0.009262 0.004275 0.857000
0.032797 -0.035992 0.850000
0.003417 -0.017491 0.852000
0.023868 -0.026381 0.856000
-0.027157 0.025350 0.854000
-0.024105 0.039594 0.858000
0.005566 -0.045565 0.859000
-0.026639 -0.014824 0.860000
-0.024049 0.018010 0.856000
-0.023614 -0.013299 0.853000
-0.046246 0.006384 0.856000
-0.007824 -0.005933 0.854000
-0.015983 0.040653 0.858000
0.019310 -0.014419 0.857000
0.009389 -0.020320 0.853000
-0.027411 0.011600 0.851000
-0.027991 -0.018198 0.869000
-0.039880 0.009814 0.848000
-0.021482 0.012315 0.852000
0.017294 0.006783 0.862000
-0.022885 0.010211 0.852000
0.036851 -0.007061 0.863000
-0.006038 -0.015351 0.850000
0.004118 -0.020297 0.852000
-0.041200 -0.000312 0.861000
0.024573 -0.024620 0.856000
-0.025600 0.002488 0.849000
0.003759 -0.034942 0.850000
0.025100 0.001462 0.862000
-0.048643 0.006067 0.861000
0.004162 0.009965 0.861000
-0.043874 0.013352 0.851000
-0.012321 -0.011839 0.849000
0.026104 -0.013408 0.860000
0.016450 -0.018960 0.855000
-0.027347 0.005982 0.849000
-0.007507 0.039594 0.858000
0.001659 -0.022698 0.850000
0.024716 -0.000666 0.861000
-0.009219 -0.005224 0.853000
0.033852 -0.020110 0.859000
-0.034884 0.036213 0.837000
-0.013463 0.014118 0.855000
-0.034027 -0.000308 0.850000
0.008424 0.009267 0.862000
-0.011365 0.011669 0.856000
0.012608 -0.011598 0.857000
-0.023853 0.000741 0.849000
0.028293 0.000397 0.862000
-0.039858 0.001098 0.855000
0.040356 -0.009891 0.862000
-0.008826 -0.022671 0.849000
-0.019469 -0.019335 0.856000
-0.024402 0.019772 0.856000
-0.018304 0.000392 0.851000
0.019175 -0.037786 0.851000
-0.040324 0.031178 0.850000
-0.026998 -0.003452 0.849000
-0.004660 -0.009800 0.854000
0.005851 -0.033154 0.849000
0.021074 -0.013009 0.857000
0.030843 -0.035810 0.854000
-0.032040 0.028480 0.853000
0.016469 -0.012993 0.856000
0.005579 0.017052 0.861000
0.000971 0.023050 0.860000
-0.017562 -0.007995 0.849000
-0.002566 0.021962 0.859000
0.004516 0.008547 0.861000
-0.049054 0.005719 0.862000
0.001308 -0.026515 0.849000
-0.038530 0.015766 0.849000
0.042741 -0.014470 0.860000
-0.017375 0.020853 0.857000
0.030951 -0.024648 0.857000
-0.017604 0.003895 0.851000
0.003790 0.031788 0.857000
-0.032190 -0.007718 0.857000
0.020745 -0.024677 0.858000
-0.019752 0.012330 0.853000
-0.040419 0.003549 0.852000
-0.025449 0.042769 0.844000
-0.028529 0.024618 0.853000
-0.016533 -0.017450 0.850000
0.030175 -0.034444 0.855000
-0.017274 0.007055 0.852000
0.001311 -0.034984 0.851000
-0.031364 0.038532 0.835000
-0.017375 -0.021827 0.857000
-0.010949 -0.007664 0.851000
-0.027220 0.039501 0.856000
0.035619 -0.000665 0.859000
-0.005011 -0.032295 0.854000
0.009488 0.006074 0.862000
-0.010673 -0.028528 0.857000
0.023488 -0.028110 0.855000
0.029540 -0.024648 0.857000
-0.027411 0.013352 0.851000
0.010870 0.018073 0.859000
0.007679 0.022643 0.858000
0.023190 -0.023943 0.857000
-0.006801 0.016287 0.858000
0.022328 -0.042689 0.851000
-0.016279 0.017989 0.855000
-0.034994 0.008418 0.848000
-0.022992 0.032103 0.856000
-0.030004 0.033473 0.855000
-0.025570 -0.002401 0.848000
0.007938 0.033199 0.848000
-0.015187 0.004957 0.853000
-0.002539 -0.020599 0.850000
-0.004988 -0.027946 0.850000
0.017649 0.003236 0.862000
0.034912 -0.019403 0.859000
-0.048288 0.005712 0.861000
0.025218 -0.033701 0.854000
-0.000091 0.015635 0.861000
-0.016611 0.013399 0.854000
-0.006102 0.010649 0.859000
-0.015223 0.017285 0.855000
0.011469 -0.045141 0.851000
0.031095 0.001106 0.861000
0.011563 -0.010552 0.858000
-0.006080 -0.003833 0.856000
0.023952 -0.007382 0.859000
-0.038879 0.005283 0.849000
-0.011378 0.008508 0.857000
0.018252 -0.022179 0.857000
0.031231 -0.032685 0.855000
0.021099 0.010990 0.858000
0.037518 -0.005279 0.862000
0.003417 -0.018543 0.852000
-0.017102 -0.024763 0.861000
-0.014889 0.019067 0.856000
0.000260 -0.033933 0.851000
-0.019682 0.000042 0.850000
-0.023669 0.025379 0.855000
-0.013542 0.037916 0.860000
0.012855 -0.037741 0.850000
-0.027315 0.000391 0.848000
-0.008213 0.022643 0.858000
-0.003281 0.029455 0.861000
-0.018038 0.042974 0.855000
0.017774 -0.038136 0.851000
-0.009749 -0.036081 0.869000
0.019024 -0.004913 0.860000
0.029357 -0.013439 0.862000
-0.014300 -0.028373 0.863000
-0.013526 0.033630 0.859000
-0.014802 -0.019923 0.851000
-0.000091 0.014217 0.861000
0.030951 -0.025707 0.857000
-0.000802 -0.040805 0.863000
-0.007437 -0.024447 0.850000
0.010418 -0.043390 0.851000
-0.014417 -0.014634 0.849000
-0.030107 0.001438 0.848000
0.017878 -0.021801 0.856000
-0.021406 -0.004850 0.849000
0.032551 -0.005634 0.862000
-0.015187 0.004255 0.853000
0.000960 -0.032494 0.850000
-0.010710 0.035085 0.860000
0.017444 -0.031869 0.852000
-0.001154 0.013509 0.861000
0.012855 -0.036342 0.850000
-0.020244 -0.020463 0.859000
0.032866 -0.038747 0.834000
-0.015484 -0.004156 0.850000
0.013205 -0.042639 0.850000
0.017899 -0.010187 0.857000
0.014673 -0.020696 0.854000
0.027327 -0.036864 0.854000
0.023626 0.007830 0.860000
-0.020756 0.005996 0.851000
0.012327 0.009267 0.862000
0.014003 -0.012289 0.856000
-0.034849 0.021107 0.853000
0.029404 -0.040900 0.843000
0.000617 0.023758 0.860000
-0.007162 0.006406 0.859000
0.006907 -0.032494 0.850000
-0.032744 0.036516 0.844000
0.012341 -0.000313 0.863000
-0.020707 -0.002404 0.849000
0.007317 -0.013009 0.857000
-0.015908 -0.021399 0.854000
0.023924 0.008871 0.858000
0.012870 -0.033232 0.851000
-0.007121 -0.030186 0.854000
-0.043984 0.001812 0.860000
-0.004283 -0.026515 0.849000
0.011875 -0.015793 0.855000
-0.015812 -0.029966 0.868000
0.013650 -0.011936 0.856000
0.028648 -0.015923 0.862000
0.002703 0.037038 0.848000
0.024487 -0.036821 0.853000
0.025600 -0.027054 0.855000
0.002356 -0.032455 0.849000
-0.025600 0.003536 0.849000
-0.009648 0.035438 0.860000
-0.036912 0.031953 0.852000
0.020721 -0.025001 0.857000
-0.022105 -0.008344 0.849000
-0.016001 0.033630 0.859000
0.018980 0.014521 0.858000
0.012298 -0.003851 0.860000
0.034237 -0.031831 0.851000
-0.043014 -0.003534 0.869000
0.029221 -0.021852 0.858000
-0.024580 -0.009404 0.850000
-0.014184 0.019772 0.856000
-0.010586 -0.021299 0.850000
0.024008 0.005712 0.861000
-0.017416 0.038933 0.859000
0.027391 -0.027438 0.856000
-0.012819 0.029033 0.859000
-0.001861 0.022696 0.860000
-0.023235 0.011614 0.852000
-0.005681 -0.025117 0.849000
-0.021583 0.026818 0.856000
-0.013020 -0.015333 0.849000
-0.013479 0.019420 0.856000
0.007317 0.029671 0.857000
0.003763 -0.020973 0.851000
0.008268 0.035558 0.846000
-0.024609 0.007748 0.851000
-0.030815 -0.009845 0.858000
0.017294 0.002526 0.862000
-0.000091 0.014572 0.861000
0.026488 -0.014841 0.861000
-0.028745 0.004585 0.849000
0.026874 0.003590 0.862000
-0.023669 0.026083 0.855000
0.022891 -0.021878 0.859000
-0.039228 0.016116 0.849000
0.022971 0.005364 0.862000
0.022616 0.003590 0.862000
0.022236 0.003232 0.861000
0.001659 -0.034243 0.850000
0.004162 0.027329 0.861000
-0.041200 0.000043 0.861000
-0.009637 0.038933 0.859000
-0.001489 0.039225 0.850000
0.024008 0.006776 0.861000
-0.028897 -0.015248 0.864000
-0.013188 0.037208 0.860000
0.002365 -0.017491 0.852000
-0.013173 0.032569 0.859000
-0.000441 -0.015738 0.852000
-0.000091 0.024466 0.860000
-0.023725 0.041664 0.857000
0.028472 -0.042969 0.836000
-0.035200 0.030586 0.853000
-0.015241 0.019420 0.856000
-0.035343 0.009116 0.848000
-0.041217 0.002854 0.854000
0.014690 -0.015793 0.855000
0.023299 0.001460 0.861000
-0.010598 -0.006613 0.851000
0.036042 -0.034711 0.836000
0.026562 -0.041687 0.852000
0.000260 -0.020599 0.850000
0.012198 -0.023129 0.853000
0.007598 -0.033853 0.849000
-0.015484 -0.006255 0.850000
0.032867 -0.009880 0.861000
-0.022261 -0.016145 0.855000
0.014035 0.018052 0.858000
-0.023752 0.038534 0.858000
-0.021583 0.018010 0.856000
0.001328 0.014943 0.862000
-0.013112 0.007080 0.855000
0.020016 -0.013714 0.857000
-0.017583 -0.001707 0.850000
-0.016709 0.038579 0.859000
-0.014941 0.032569 0.859000
-0.009604 -0.000662 0.856000
0.015376 -0.025617 0.854000
0.035010 -0.034711 0.836000
-0.000799 0.021634 0.860000
0.018337 -0.002792 0.861000
-0.023475 -0.003797 0.848000
-0.043371 0.011909 0.848000
0.037387 -0.001372 0.859000
-0.015775 -0.029184 0.866000
-0.033445 0.030586 0.853000
0.028063 -0.031981 0.855000
-0.014333 -0.029507 0.865000
-0.024202 -0.001356 0.849000
0.002719 -0.016108 0.853000
-0.004031 -0.041852 0.870000
0.013682 0.018406 0.858000
-0.016611 0.015859 0.854000
0.003098 0.023431 0.861000
-0.014767 -0.013586 0.849000
-0.004339 0.013847 0.860000
0.006550 -0.033853 0.849000
-0.010248 -0.007313 0.851000
-0.018283 -0.015701 0.850000
-0.036912 0.028797 0.852000
-0.033122 0.036514 0.836000
-0.011985 -0.008354 0.850000
0.009433 0.020853 0.857000
-0.014871 -0.023183 0.855000
-0.026711 0.012301 0.851000
0.031804 -0.010589 0.861000
-0.023019 0.042017 0.857000
-0.004982 -0.025816 0.849000
0.031450 -0.012006 0.861000
-0.028046 -0.002404 0.849000
-0.004671 -0.033428 0.856000
0.027669 -0.042982 0.843000
0.022406 -0.028780 0.854000
0.017547 -0.024296 0.857000
-0.043275 0.005308 0.853000
0.032866 -0.038404 0.834000
-0.002189 -0.020599 0.850000
0.009786 0.021206 0.857000
0.013391 0.001107 0.862000
-0.005350 -0.011530 0.852000
-0.006448 0.016640 0.858000
-0.027729 0.009488 0.850000
-0.002189 -0.029695 0.850000
-0.036948 -0.005273 0.861000
0.011106 -0.037391 0.850000
0.031150 -0.040463 0.834000
0.015412 -0.013698 0.856000
-0.034067 0.018255 0.851000
-0.018060 0.018715 0.856000
-0.015152 -0.002060 0.851000
0.004142 -0.010892 0.857000
-0.019868 0.022643 0.858000
-0.050824 0.005402 0.868000
-0.008836 -0.012552 0.850000
-0.013112 0.015174 0.855000
0.015042 -0.018257 0.855000
-0.020574 0.034297 0.858000
0.023245 -0.022231 0.859000
-0.019355 0.005296 0.851000
0.022758 -0.029483 0.854000
-0.029444 -0.001705 0.849000
0.040263 -0.017302 0.860000
-0.008606 -0.033307 0.862000
0.018583 -0.017926 0.856000
-0.030356 0.033825 0.855000
0.028581 -0.010930 0.860000
-0.044329 0.006713 0.853000
-0.025539 0.043618 0.847000
0.024372 -0.047131 0.849000
-0.015116 -0.009393 0.849000
-0.042824 0.006347 0.851000
0.005858 -0.027596 0.850000
-0.022140 -0.021649 0.864000
0.010418 -0.043740 0.851000
-0.006402 -0.009075 0.852000
0.009488 0.011041 0.862000
-0.035776 0.017184 0.850000
-0.022666 0.018384 0.857000
-0.029305 0.039342 0.845000
-0.000786 0.042522 0.846000
-0.001841 -0.031831 0.851000
-0.028112 0.015453 0.851000
0.019046 0.002877 0.861000
0.001652 0.039040 0.846000
0.018337 0.010674 0.861000
0.009444 -0.010905 0.858000
0.029289 -0.009868 0.860000
-0.021107 0.006697 0.851000
0.016565 0.007839 0.861000
0.004516 0.017407 0.861000
0.040356 -0.008827 0.862000
0.025750 -0.008807 0.860000
0.034547 -0.031094 0.850000
0.032450 -0.037342 0.841000
0.007679 -0.010552 0.858000
-0.013188 -0.027920 0.860000
-0.026868 0.032455 0.856000
-0.002551 -0.011206 0.854000
0.022511 -0.011258 0.858000
-0.006455 0.012770 0.859000
0.037697 -0.021852 0.858000
0.001334 -0.045224 0.866000
-0.010320 0.010977 0.857000
0.000617 0.019156 0.860000
0.036015 -0.019779 0.860000
0.014972 -0.036034 0.851000
0.020745 -0.009492 0.858000
0.029788 -0.035458 0.854000
-0.001491 -0.015369 0.851000
0.042189 -0.017573 0.856000
-0.000790 -0.022698 0.850000
0.032084 -0.018342 0.859000
0.025891 -0.036470 0.853000
0.039337 -0.009548 0.863000
-0.010586 -0.012552 0.850000
0.011132 -0.026609 0.852000
0.013391 0.000752 0.862000
-0.001509 0.013509 0.861000
-0.010356 0.037208 0.860000
-0.003656 -0.040590 0.866000
-0.003269 0.036769 0.858000
0.006940 -0.015423 0.854000
-0.019537 0.040347 0.859000
-0.014234 0.031862 0.859000
-0.007516 0.027266 0.859000
0.029928 0.004280 0.858000
0.020745 0.012755 0.858000
-0.040277 0.031840 0.849000
0.008697 -0.015423 0.854000
-0.008204 0.013799 0.857000
0.032600 -0.029835 0.854000
0.009843 0.006074 0.862000
-0.017912 -0.006248 0.849000
-0.001154 0.031936 0.861000
0.038227 -0.004570 0.862000
-0.028211 -0.009800 0.854000
0.020392 -0.009492 0.858000
-0.009284 -0.031070 0.859000
-0.022965 0.044734 0.855000
-0.012804 -0.027149 0.858000
-0.015648 0.029033 0.859000
-0.034336 0.011573 0.849000
-0.021131 0.009861 0.852000
0.021099 -0.011964 0.858000
0.044105 -0.010564 0.859000
-0.009294 0.037562 0.860000
-0.032239 0.011224 0.849000
-0.025841 0.036020 0.857000
0.029712 -0.013794 0.862000
-0.022314 0.034609 0.857000
-0.021781 0.002141 0.850000
0.005586 0.009267 0.862000
0.031767 -0.016594 0.860000
-0.027029 0.010187 0.850000
0.018958 -0.011950 0.857000
-0.020358 -0.010092 0.849000
0.020600 -0.038181 0.852000
0.011483 -0.026609 0.852000
0.019046 0.009965 0.861000
-0.002189 -0.020949 0.850000
-0.009262 0.018384 0.857000
-0.014167 0.013766 0.855000
0.019686 0.013462 0.858000
-0.011013 0.018010 0.856000
0.032905 -0.004924 0.862000
-0.023503 0.001440 0.849000
0.001683 0.013524 0.862000
-0.002215 0.023758 0.860000
-0.002187 -0.024768 0.849000
-0.048925 0.003251 0.866000
0.008336 -0.018916 0.853000
-0.019844 0.031435 0.857000
0.004113 -0.022725 0.851000
-0.032003 0.022134 0.852000
-0.025751 0.020429 0.854000
0.042189 -0.017221 0.856000
0.040664 -0.005982 0.861000
-0.006038 -0.013602 0.850000
-0.008137 -0.014302 0.850000
0.002706 -0.032106 0.849000
0.003059 -0.023747 0.850000
0.018359 0.004300 0.862000
-0.005748 0.010649 0.859000
0.031095 -0.014841 0.861000
0.030210 -0.029552 0.856000
0.036141 -0.005640 0.863000
0.020440 0.010307 0.860000
-0.005394 -0.034959 0.859000
0.036015 -0.017302 0.860000
0.044054 -0.012671 0.858000
-0.011525 -0.033896 0.868000
0.026811 -0.019779 0.860000
-0.000090 -0.036119 0.853000
-0.033756 0.035109 0.852000
-0.013173 0.033276 0.859000
-0.006737 -0.015001 0.850000
0.005219 0.026236 0.860000
-0.040467 0.002851 0.853000
-0.007096 -0.027628 0.851000
-0.041583 -0.004964 0.869000
-0.005748 0.024437 0.859000
-0.031852 0.002834 0.848000
0.005934 0.018824 0.861000
-0.047544 0.008829 0.854000
0.019220 -0.030502 0.853000
-0.013637 -0.030967 0.866000
-0.016728 0.027651 0.860000
-0.034498 -0.002767 0.853000
-0.007860 0.023703 0.858000
-0.000806 -0.044614 0.868000
-0.026485 0.028898 0.855000
0.039325 -0.021776 0.855000
0.011590 0.016679 0.860000
-0.016001 0.037872 0.859000
0.035744 -0.003505 0.862000
-0.015484 -0.005905 0.850000
0.042790 -0.011652 0.861000
0.037561 -0.005996 0.863000
0.005934 0.015281 0.861000
0.023653 0.000397 0.861000
0.015060 -0.014403 0.856000
-0.001158 -0.041919 0.864000
0.011930 -0.008443 0.859000
0.018273 0.014521 0.858000
0.002715 -0.038181 0.852000
0.000263 0.031936 0.861000
0.005934 0.016698 0.861000
0.011262 0.003590 0.862000
0.027487 0.007467 0.859000
-0.009933 -0.003824 0.854000
0.012564 -0.016829 0.854000
-0.000448 -0.043035 0.865000
-0.030004 0.037696 0.855000
-0.019332 0.000742 0.850000
-0.007933 -0.036313 0.866000
0.023516 -0.026029 0.856000
0.028615 0.002877 0.861000
-0.022522 -0.021674 0.865000
0.038183 -0.003501 0.861000
-0.022885 0.011965 0.852000
-0.017749 0.029706 0.858000
0.020392 -0.008080 0.858000
0.036424 -0.025587 0.853000
0.023136 -0.026702 0.855000
0.019686 -0.007374 0.858000
-0.008477 -0.015683 0.849000
0.020600 -0.036427 0.852000
-0.035241 -0.002770 0.854000
-0.021986 0.038887 0.858000
-0.000090 -0.034633 0.851000
0.008626 0.034206 0.847000
0.025366 -0.010918 0.859000
-0.031726 0.036246 0.854000
0.036411 -0.014487 0.861000
-0.021231 0.029637 0.856000
0.018958 -0.013714 0.857000
0.009060 -0.015090 0.855000
0.032600 -0.031240 0.854000
0.011456 -0.041939 0.850000
0.013037 0.002526 0.862000
0.029323 -0.007399 0.861000
0.001326 0.016344 0.861000
-0.026268 -0.001354 0.848000
-0.011272 -0.020225 0.849000
-0.004344 0.031582 0.861000
-0.013880 0.024791 0.859000
-0.029969 -0.007691 0.854000
-0.034377 0.015085 0.850000
0.042081 -0.009526 0.861000
-0.042673 0.014003 0.848000
-0.004693 0.036146 0.860000
-0.017954 0.000743 0.851000
-0.028395 -0.004850 0.849000
0.023245 -0.009150 0.859000
-0.016709 0.024791 0.859000
-0.027925 0.038797 0.856000
0.028293 -0.002796 0.862000
0.023952 -0.011978 0.859000
-0.018123 0.039993 0.859000
-0.029582 0.024267 0.853000
-0.032704 0.022485 0.852000
0.009389 -0.021023 0.853000
-0.002916 0.036062 0.858000
-0.024715 -0.020654 0.867000
0.016173 0.014184 0.859000
0.004108 0.035376 0.850000
-0.034538 -0.003473 0.854000
0.008738 0.023349 0.858000
0.004808 -0.025846 0.850000
0.006295 0.010686 0.862000
0.005579 0.021305 0.861000
-0.018655 0.003194 0.851000
0.011805 -0.035292 0.850000
0.003433 -0.012641 0.856000
-0.026680 0.007739 0.850000
-0.035944 0.026052 0.854000
0.009729 -0.024154 0.852000
-0.006455 0.013477 0.859000
-0.022288 0.024704 0.856000
0.006281 0.023758 0.860000
0.008060 0.014572 0.861000
-0.001502 0.035668 0.857000
-0.016533 -0.003456 0.850000
0.004162 0.025557 0.861000
0.036099 -0.007408 0.862000
0.002362 -0.019923 0.851000
-0.007146 0.017679 0.857000
-0.010698 0.030801 0.859000
0.009763 -0.047113 0.855000
-0.022209 0.014436 0.853000
0.029540 -0.023943 0.857000
-0.027540 0.032065 0.855000
0.010198 0.007848 0.862000
0.032829 -0.015178 0.860000
-0.009991 0.029033 0.859000
0.008395 0.020548 0.859000
0.018803 -0.042639 0.850000
0.011106 -0.034942 0.850000
-0.035692 0.008418 0.848000
-0.010332 0.025468 0.858000
0.022564 0.008184 0.860000
-0.026998 -0.004501 0.849000
-0.002899 -0.012246 0.853000
0.009718 -0.027978 0.851000
-0.017912 -0.014634 0.849000
0.012682 0.000043 0.862000
-0.008909 0.040958 0.857000
0.009155 0.003599 0.864000
0.011276 0.001819 0.863000
-0.033016 0.019656 0.851000
-0.023641 -0.014017 0.854000
-0.006448 0.021584 0.858000
-0.036433 0.003536 0.849000
0.015691 -0.030817 0.852000
-0.044087 0.001107 0.862000
0.000972 0.024849 0.861000
-0.013385 -0.009054 0.850000
0.018605 -0.022885 0.857000
0.000970 0.032569 0.859000
-0.033716 -0.002410 0.851000
0.010541 0.014217 0.861000
0.002012 -0.036034 0.851000
-0.003273 0.019841 0.859000
-0.005376 -0.005242 0.856000
-0.012466 0.032215 0.859000
0.027551 -0.017676 0.861000
-0.010611 -0.025206 0.852000
-0.013896 0.037916 0.860000
-0.011064 0.036146 0.860000
0.016354 -0.041589 0.850000
0.000621 -0.044867 0.866000
-0.028745 0.006681 0.849000
-0.001852 -0.009118 0.856000
-0.029793 -0.003452 0.849000
0.042081 -0.013778 0.861000
0.002007 -0.028612 0.849000
