-0.000456 0.043968 0.882000
-0.013496 -0.029427 0.930000
0.023984 -0.033294 0.900000
0.030652 -0.021070 0.900000
0.008805 -0.021093 0.901000
0.001388 -0.009968 0.901000
0.020234 -0.033589 0.898000
-0.008816 -0.019666 0.921000
-0.017516 -0.009421 0.920000
0.012799 0.034418 0.870000
-0.033986 0.020673 0.895000
0.002789 0.034616 0.875000
0.000279 -0.023202 0.911000
0.006781 0.019218 0.879000
-0.013282 0.039239 0.890000
0.013384 -0.003235 0.885000
-0.020321 -0.034674 0.927000
-0.035748 0.022097 0.893000
-0.018928 0.000045 0.915000
0.000998 0.021146 0.884000
-0.005009 -0.021491 0.918000
0.001023 -0.015617 0.906000
-0.011096 0.033049 0.891000
0.001732 0.015377 0.887000
-0.010747 -0.020871 0.924000
-0.006329 0.023514 0.891000
0.009282 0.018792 0.876000
-0.018254 -0.009411 0.919000
0.008163 0.027319 0.872000
-0.001614 -0.032554 0.921000
-0.002632 0.034491 0.881000
-0.013496 -0.029810 0.930000
-0.027560 -0.016883 0.914000
-0.026678 0.031425 0.897000
0.011524 0.003674 0.882000
-0.014575 0.022319 0.902000
0.016593 -0.034443 0.901000
0.020512 -0.027184 0.894000
-0.020765 0.002300 0.913000
0.005176 -0.036861 0.915000
-0.005405 -0.026110 0.921000
0.032504 -0.019218 0.900000
-0.004133 0.010691 0.892000
-0.017953 -0.017809 0.923000
-0.009954 -0.017771 0.921000
0.015676 -0.016092 0.891000
-0.004490 0.051327 0.890000
-0.004561 -0.003304 0.904000
-0.001971 -0.016453 0.911000
-0.010340 0.035902 0.889000
0.004059 -0.039249 0.918000
0.024900 -0.019436 0.893000
0.014976 -0.018701 0.893000
-0.000856 -0.034071 0.921000
0.029170 -0.024774 0.900000
0.006536 -0.014322 0.895000
0.032098 -0.018086 0.899000
-0.000466 -0.010339 0.901000
-0.011412 0.040567 0.887000
0.033615 -0.017365 0.900000
0.029944 -0.024060 0.901000
-0.033505 0.027946 0.892000
0.030754 -0.026715 0.903000
0.032648 -0.026372 0.904000
-0.002991 0.038798 0.880000
-0.011019 -0.005227 0.915000
-0.009597 0.028917 0.888000
0.000662 -0.040223 0.923000
-0.010086 0.018545 0.899000
0.014741 0.008003 0.879000
0.002161 -0.030802 0.914000
0.013937 0.015511 0.874000
-0.001192 0.050903 0.889000
-0.004662 -0.031519 0.924000
0.017936 -0.025345 0.894000
0.023010 -0.017925 0.891000
0.000631 0.040201 0.879000
0.009166 -0.020329 0.900000
-0.014785 0.000422 0.915000
0.011458 0.013760 0.877000
0.014412 0.004032 0.881000
0.002559 -0.041697 0.922000
-0.007086 0.021753 0.894000
-0.016095 0.021253 0.904000
0.001417 -0.037820 0.920000
-0.017002 0.041576 0.893000
0.011022 0.035892 0.871000
0.009409 -0.005804 0.888000
-0.030539 0.008954 0.902000
-0.013648 0.040704 0.890000
-0.009918 0.043704 0.884000
-0.030391 -0.028354 0.920000
-0.000460 0.007728 0.889000
-0.029230 0.029178 0.896000
-0.026279 0.035816 0.896000
0.010996 0.030087 0.869000
-0.009126 -0.007855 0.914000
-0.006718 0.011819 0.894000
-0.018713 -0.020089 0.923000
0.005068 -0.013969 0.896000
0.013732 -0.040690 0.908000
-0.035908 0.018135 0.897000
0.016399 0.022628 0.871000
-0.019444 0.025717 0.904000
-0.026547 -0.025269 0.918000
-0.028845 -0.033618 0.919000
0.015781 -0.028014 0.897000
0.005046 -0.007299 0.892000
0.000992 0.022836 0.879000
-0.014262 -0.031724 0.930000
0.014674 0.014088 0.875000
-0.003766 0.052544 0.892000
-0.030402 -0.010805 0.909000
-0.005803 -0.030759 0.924000
-0.026373 -0.008964 0.912000
-0.010409 0.025830 0.895000
-0.027530 -0.014986 0.913000
-0.018012 -0.027776 0.926000
-0.018990 -0.007889 0.918000
-0.006357 0.016621 0.895000
-0.013834 -0.022846 0.927000
-0.014863 0.031056 0.897000
-0.015900 0.039004 0.893000
0.004282 0.004420 0.886000
-0.006029 -0.000697 0.901000
-0.009673 0.023988 0.895000
-0.009346 0.014105 0.899000
-0.030808 0.016325 0.899000
0.012069 0.029014 0.869000
-0.002994 0.041018 0.881000
0.000630 0.027869 0.878000
0.007445 0.028396 0.872000
0.002163 -0.031212 0.915000
-0.024308 0.015689 0.905000
-0.016598 0.050651 0.891000
0.027227 -0.022476 0.897000
-0.019009 0.030824 0.901000
-0.027409 -0.003322 0.909000
-0.029393 0.014507 0.901000
-0.012901 0.039927 0.889000
-0.003479 -0.016489 0.913000
0.002891 -0.026460 0.907000
-0.013431 0.023011 0.900000
0.011313 -0.015778 0.894000
0.005504 -0.030939 0.907000
0.015447 0.009439 0.878000
0.018345 -0.028720 0.896000
0.020903 -0.027952 0.895000
-0.014830 0.034302 0.895000
-0.035948 0.017785 0.898000
0.004229 0.038217 0.875000
-0.029215 -0.002568 0.907000
0.008825 -0.025600 0.903000
0.009992 0.019130 0.875000
0.000278 -0.017913 0.909000
0.031323 -0.016957 0.898000
-0.014365 0.049074 0.889000
-0.003867 -0.021067 0.916000
0.022720 -0.024609 0.894000
0.001777 -0.021304 0.910000
-0.000098 -0.039463 0.923000
0.033282 -0.019239 0.901000
0.006085 0.009856 0.883000
-0.008866 0.026724 0.888000
-0.012142 0.048964 0.887000
0.010896 -0.009846 0.890000
-0.009016 0.003018 0.903000
0.001420 -0.039800 0.922000
-0.014030 0.040016 0.891000
-0.012470 0.004544 0.911000
0.017495 0.021218 0.872000
-0.025173 0.040979 0.896000
0.006982 -0.024167 0.905000
-0.010700 -0.013586 0.920000
-0.008635 0.003757 0.902000
-0.018700 0.025345 0.904000
0.010209 -0.014674 0.894000
0.015498 -0.035595 0.902000
0.014942 -0.015358 0.891000
-0.005411 -0.028036 0.922000
0.015412 0.013023 0.876000
0.012613 0.003311 0.882000
-0.008089 0.046199 0.883000
-0.005182 0.028391 0.883000
0.006085 0.014217 0.883000
0.011576 -0.003603 0.886000
0.036077 -0.022329 0.906000
0.018955 -0.016074 0.890000
0.011712 0.029729 0.869000
-0.029160 -0.028639 0.917000
-0.032095 0.000417 0.904000
-0.028492 0.029915 0.896000
0.001712 0.026393 0.877000
-0.000093 0.024644 0.879000
0.003685 -0.039670 0.919000
-0.023381 0.036635 0.898000
-0.017915 -0.013601 0.921000
-0.022025 0.025317 0.903000
0.014623 0.020141 0.872000
-0.024174 -0.009359 0.914000
0.004073 -0.042789 0.921000
-0.012549 0.038140 0.890000
0.004584 0.037095 0.874000
-0.021038 -0.032696 0.925000
0.015570 -0.003235 0.885000
-0.003850 -0.014219 0.912000
-0.024385 -0.031831 0.922000
0.005316 0.024921 0.876000
-0.006876 -0.013136 0.915000
-0.007735 0.039338 0.884000
-0.012122 0.000045 0.913000
0.007273 -0.015059 0.895000
0.016380 0.029763 0.870000
-0.000480 -0.038149 0.928000
-0.034529 0.032645 0.890000
0.027257 -0.024719 0.898000
-0.013099 -0.027484 0.929000
0.022107 -0.033997 0.899000
-0.006991 0.040338 0.882000
-0.026797 0.021924 0.901000
0.020099 -0.004729 0.892000
-0.016256 0.006433 0.913000
-0.012128 0.044532 0.886000
0.014935 -0.045424 0.913000
-0.006635 0.038930 0.883000
-0.031386 -0.002563 0.905000
-0.013618 0.042806 0.888000
0.013064 -0.006535 0.888000
0.001353 0.030760 0.878000
-0.034431 0.013704 0.897000
0.029202 -0.027026 0.901000
-0.026250 0.037986 0.895000
0.002106 0.052118 0.891000
0.002894 -0.029105 0.908000
0.017813 0.026899 0.870000
-0.013438 -0.022441 0.926000
0.008881 0.026243 0.872000
0.002073 0.029642 0.877000
-0.030168 0.009326 0.902000
0.008189 -0.042134 0.915000
0.027934 -0.017657 0.896000
0.021910 -0.017925 0.891000
0.009819 -0.012806 0.892000
-0.025599 0.031830 0.898000
-0.025370 0.018628 0.903000
0.000268 0.035417 0.877000
-0.002292 0.051327 0.890000
-0.020479 -0.007126 0.917000
0.004011 -0.023847 0.907000
-0.017268 -0.026662 0.927000
-0.007831 0.053826 0.895000
-0.001182 0.042879 0.882000
0.023139 -0.027614 0.896000
0.021543 -0.020492 0.891000
0.015517 0.001859 0.882000
0.009288 -0.039368 0.912000
-0.010805 -0.030161 0.929000
-0.029466 0.037859 0.892000
-0.008673 -0.002193 0.906000
0.001001 0.016837 0.887000
-0.023247 -0.028036 0.922000
0.011752 0.036292 0.872000
-0.034024 0.016270 0.896000
0.000636 0.019006 0.886000
0.002068 0.034976 0.875000
-0.010040 -0.030161 0.929000
-0.000479 -0.037645 0.925000
-0.003123 -0.027566 0.919000
0.018589 -0.016074 0.890000
0.023824 -0.023137 0.894000
0.001365 0.012442 0.886000
-0.006577 -0.031206 0.926000
-0.002664 0.008488 0.892000
0.030382 -0.027458 0.903000
-0.014930 -0.016688 0.924000
-0.010747 -0.021251 0.924000
-0.008846 0.037604 0.886000
-0.030607 0.002649 0.904000
-0.005595 0.022414 0.891000
0.014965 0.020835 0.871000
0.003874 0.029247 0.876000
-0.015011 -0.027866 0.929000
-0.022272 0.038483 0.898000
0.011161 0.004037 0.882000
0.011602 -0.007266 0.888000
-0.007629 -0.012006 0.915000
-0.025313 0.025261 0.901000
0.015988 -0.007631 0.888000
0.016964 -0.035556 0.901000
-0.017478 -0.004111 0.918000
0.001732 0.006980 0.887000
-0.010041 0.025093 0.895000
-0.007102 0.054623 0.896000
-0.029962 -0.002195 0.907000
0.019191 0.002227 0.884000
-0.005258 0.054992 0.896000
0.004804 -0.038033 0.916000
-0.001544 0.042468 0.881000
0.028863 -0.028170 0.902000
0.013158 0.024392 0.870000
-0.020434 -0.003721 0.915000
0.001353 0.031482 0.878000
-0.020501 -0.011290 0.918000
-0.001178 0.038754 0.879000
-0.005558 0.032462 0.885000
-0.024255 0.021229 0.903000
-0.024412 -0.033765 0.923000
0.020459 -0.041811 0.908000
-0.023011 0.037004 0.898000
-0.022347 0.029711 0.901000
-0.021399 0.014246 0.908000
0.016870 -0.027614 0.896000
-0.014487 -0.009042 0.920000
0.033009 -0.028545 0.914000
0.000278 -0.025798 0.910000
0.020443 -0.014991 0.891000
-0.024359 -0.027247 0.921000
0.003170 0.020712 0.881000
0.004955 0.024200 0.876000
-0.000818 0.040971 0.880000
0.006398 0.023839 0.876000
0.008416 -0.017716 0.899000
0.005364 0.004774 0.884000
-0.024147 0.033345 0.899000
-0.012959 0.034226 0.893000
0.018870 -0.002144 0.886000
-0.012470 0.003045 0.911000
0.020512 -0.026449 0.894000
-0.013863 0.017904 0.904000
-0.007621 -0.010112 0.914000
-0.011817 0.036675 0.890000
0.007176 0.004405 0.883000
-0.005922 0.033555 0.885000
-0.004082 0.043919 0.881000
-0.014688 0.011643 0.909000
-0.012535 0.039195 0.889000
-0.029022 0.014136 0.901000
0.013624 0.010872 0.877000
-0.008462 0.046615 0.884000
-0.010340 0.035170 0.889000
-0.001924 0.019802 0.889000
0.018421 0.004400 0.882000
-0.009951 0.048964 0.887000
-0.020255 0.018337 0.907000
-0.018700 0.024973 0.904000
-0.014979 -0.024373 0.927000
-0.009694 0.021457 0.897000
0.006974 -0.025256 0.904000
-0.007997 -0.010112 0.914000
0.021984 -0.025345 0.894000
0.006065 0.018153 0.880000
0.005903 -0.032201 0.911000
-0.029499 0.035328 0.893000
-0.001559 0.017627 0.890000
-0.016054 -0.015150 0.923000
0.018589 -0.013143 0.890000
0.002144 -0.017501 0.907000
-0.028498 -0.034791 0.920000
0.020144 -0.026449 0.894000
0.004637 0.007320 0.884000
-0.016071 -0.017068 0.924000
-0.010537 0.006757 0.906000
0.013780 -0.006893 0.887000
-0.014016 0.001926 0.914000
-0.016363 -0.007519 0.919000
0.004944 0.031339 0.874000
-0.011346 0.001920 0.911000
0.000630 0.027507 0.878000
-0.031705 0.031285 0.893000
-0.013431 0.024122 0.900000
-0.022642 0.036265 0.898000
-0.011862 -0.015134 0.922000
0.003549 0.014978 0.885000
0.014215 0.027941 0.869000
0.000661 -0.037861 0.921000
-0.036116 0.022464 0.893000
0.009271 0.021291 0.875000
-0.000097 -0.035587 0.921000
0.020764 -0.038321 0.905000
0.017876 -0.020492 0.891000
-0.006991 0.041064 0.882000
-0.006022 0.001156 0.900000
0.013233 0.014809 0.875000
0.019082 0.010897 0.879000
0.000629 0.038305 0.877000
-0.013849 -0.026309 0.928000
0.025865 -0.031476 0.901000
0.018304 -0.026081 0.894000
-0.005411 -0.027656 0.922000
0.002094 0.012442 0.886000
0.013536 -0.019848 0.895000
-0.027124 -0.009714 0.912000
0.009676 0.014153 0.879000
0.015658 -0.012777 0.890000
0.012856 -0.025486 0.899000
0.014412 0.004395 0.881000
0.004273 0.012778 0.884000
-0.005322 -0.010408 0.907000
0.007111 0.024892 0.875000
-0.000094 0.012456 0.887000
0.005864 -0.029009 0.905000
0.018785 0.005126 0.882000
0.005419 -0.009880 0.893000
-0.020278 0.014993 0.908000
-0.015128 0.005682 0.913000
0.017104 -0.009103 0.889000
-0.005240 0.014746 0.893000
-0.018531 0.003055 0.914000
-0.029556 0.028385 0.906000
-0.012607 -0.012085 0.921000
0.006182 -0.015462 0.897000
0.007427 -0.038702 0.914000
-0.017007 0.005682 0.913000
-0.014251 0.017179 0.905000
-0.020561 0.025717 0.904000
0.004418 -0.033812 0.914000
0.005534 -0.032987 0.912000
-0.012606 0.032424 0.894000
0.028303 -0.017288 0.896000
0.014948 0.022244 0.870000
0.001739 0.052118 0.891000
0.011009 0.033702 0.870000
-0.012648 0.027364 0.897000
0.033839 -0.026804 0.906000
-0.014559 0.024149 0.901000
0.003268 -0.029105 0.908000
-0.029556 -0.001074 0.906000
-0.001976 -0.027762 0.913000
0.000273 0.053338 0.893000
-0.015674 -0.016290 0.923000
-0.002697 -0.009619 0.903000
-0.026084 0.020092 0.902000
0.012116 -0.023636 0.899000
-0.011146 0.027672 0.895000
0.015093 -0.031442 0.900000
-0.004445 0.038479 0.881000
-0.026946 0.027639 0.906000
0.008891 0.025195 0.873000
-0.001906 0.041380 0.881000
0.006966 -0.020768 0.903000
0.007176 0.010946 0.883000
-0.022743 -0.012410 0.917000
-0.019926 0.013513 0.909000
0.008453 -0.024856 0.903000
0.031462 -0.024458 0.902000
0.007812 -0.041757 0.915000
-0.026112 -0.019559 0.916000
-0.004824 0.025148 0.884000
-0.010503 0.009708 0.903000
-0.000093 0.044382 0.883000
-0.018373 -0.025462 0.925000
-0.017895 -0.010178 0.920000
0.029811 -0.018415 0.897000
0.007249 -0.010236 0.892000
0.001385 -0.011056 0.899000
-0.015165 0.038636 0.893000
0.005389 -0.000322 0.888000
0.014496 -0.042980 0.909000
0.029811 -0.018046 0.897000
-0.032503 -0.003308 0.905000
0.002520 -0.027984 0.908000
0.030583 -0.018066 0.898000
-0.007437 0.052544 0.892000
0.010790 -0.042371 0.912000
-0.023589 0.014960 0.906000
0.001773 -0.018267 0.908000
-0.009900 -0.009380 0.916000
-0.008759 -0.008993 0.915000
0.024642 -0.027645 0.897000
-0.023962 0.013096 0.906000
-0.005364 -0.014626 0.914000
0.000636 0.013552 0.887000
0.001419 -0.038240 0.921000
-0.018450 0.011281 0.910000
-0.004829 0.024448 0.885000
-0.008217 0.015550 0.897000
-0.034024 0.017377 0.896000
0.006507 -0.008391 0.891000
0.009577 0.034776 0.870000
-0.004813 0.035619 0.882000
-0.000818 0.040609 0.880000
-0.028064 0.004519 0.906000
0.000999 0.019713 0.885000
-0.028437 0.002655 0.906000
-0.008472 0.037561 0.885000
-0.032467 -0.000327 0.904000
-0.004272 -0.029933 0.922000
-0.035421 0.007561 0.913000
-0.017156 -0.010947 0.921000
0.014965 0.021552 0.871000
-0.034892 0.006031 0.909000
-0.019325 -0.003348 0.916000
-0.021588 -0.007872 0.916000
-0.012648 0.026257 0.897000
0.010340 0.020547 0.874000
-0.001559 0.051693 0.890000
-0.009200 0.047760 0.885000
-0.017098 0.034048 0.898000
0.014526 -0.008728 0.888000
0.014739 -0.032218 0.901000
0.017313 0.004032 0.881000
-0.021725 0.020181 0.906000
-0.025538 0.000419 0.909000
-0.028460 0.032829 0.895000
0.013611 -0.028478 0.900000
0.004427 -0.036148 0.916000
-0.030776 -0.010431 0.909000
0.032874 -0.018477 0.900000
0.000283 -0.041833 0.925000
0.000282 -0.037103 0.921000
-0.007094 0.019936 0.895000
-0.006650 0.048489 0.885000
-0.027154 -0.011980 0.913000
-0.009554 0.045160 0.884000
-0.026084 0.020463 0.902000
0.034881 -0.021535 0.904000
0.000279 -0.028076 0.911000
0.005819 -0.015848 0.898000
-0.032844 0.025433 0.894000
0.010006 -0.035497 0.909000
-0.020886 0.029744 0.902000
0.020973 -0.033589 0.898000
-0.000098 -0.041542 0.927000
-0.025496 -0.029901 0.921000
-0.016598 0.050285 0.891000
-0.036727 0.029349 0.890000
-0.019410 -0.013965 0.920000
-0.022322 0.033012 0.900000
-0.034163 0.036675 0.890000
0.013811 -0.009469 0.889000
0.009044 -0.005438 0.888000
-0.031081 -0.023002 0.918000
0.019210 -0.037080 0.902000
0.011043 -0.029655 0.902000
0.002789 0.035336 0.875000
0.015754 0.014809 0.875000
-0.036524 0.022857 0.894000
0.015816 -0.031407 0.899000
-0.028751 -0.026345 0.916000
0.010376 0.015925 0.877000
0.013888 -0.019089 0.894000
0.019321 -0.009846 0.890000
-0.017331 0.044784 0.891000
0.006843 -0.002147 0.887000
-0.007866 0.006705 0.899000
-0.011386 0.046303 0.885000
0.013475 -0.012791 0.891000
-0.027569 0.022319 0.902000
-0.012803 0.009761 0.908000
0.014129 -0.005426 0.886000
-0.007118 0.005958 0.898000
0.035704 -0.023448 0.906000
-0.006665 0.024869 0.887000
-0.007848 0.008905 0.897000
-0.023876 -0.015429 0.917000
0.003878 0.022423 0.877000
0.023824 -0.023505 0.894000
0.017008 -0.001412 0.884000
-0.020674 0.013139 0.909000
-0.002751 -0.031038 0.921000
-0.007910 -0.001444 0.904000
-0.018328 0.024973 0.904000
0.032205 -0.022601 0.902000
-0.021725 0.019435 0.906000
0.001712 0.039027 0.877000
0.004637 0.008048 0.884000
0.017856 -0.012044 0.890000
-0.008836 0.038290 0.885000
-0.006556 -0.026547 0.923000
0.005292 0.033780 0.872000
0.008901 0.022346 0.874000
-0.025552 -0.036424 0.923000
-0.024626 0.019742 0.903000
-0.005922 0.032462 0.885000
-0.001600 -0.020247 0.913000
-0.015195 -0.002219 0.917000
-0.026827 0.023433 0.902000
0.006851 -0.003246 0.888000
-0.016989 0.007177 0.912000
-0.005975 0.014378 0.893000
0.004442 -0.041183 0.919000
0.022669 -0.020515 0.892000
0.016815 0.017670 0.874000
-0.019494 -0.026195 0.924000
-0.012718 0.018607 0.902000
-0.024147 0.032975 0.899000
-0.007379 0.048125 0.885000
0.008519 -0.034413 0.910000
0.010506 -0.006900 0.888000
0.006449 0.009856 0.883000
0.012222 0.006563 0.880000
-0.028028 -0.027129 0.917000
-0.025398 0.016788 0.904000
-0.031723 -0.000327 0.904000
0.018965 -0.042559 0.908000
-0.017021 0.040519 0.894000
-0.001180 0.040247 0.880000
-0.010934 0.004903 0.908000
-0.019473 -0.022368 0.923000
0.008200 0.020955 0.876000
-0.025136 0.005277 0.908000
0.008972 0.012009 0.881000
-0.024765 -0.031831 0.922000
-0.015228 -0.006007 0.919000
-0.022642 0.038113 0.898000
-0.020099 0.033383 0.900000
-0.010333 -0.017013 0.921000
-0.018741 0.021673 0.906000
-0.022591 0.040610 0.896000
-0.032367 0.033782 0.891000
-0.022768 0.024574 0.903000
-0.034623 0.007469 0.902000
-0.008976 0.014845 0.899000
-0.012402 0.011232 0.906000
-0.017759 0.005306 0.913000
-0.013771 0.027025 0.898000
-0.018085 0.047404 0.892000
-0.029784 -0.019495 0.913000
0.016409 -0.017192 0.891000
-0.000093 0.036500 0.877000
0.020257 -0.033997 0.899000
0.010920 -0.012438 0.892000
-0.023652 -0.033385 0.923000
0.019712 -0.042185 0.908000
-0.030168 0.011182 0.902000
0.009654 0.016647 0.877000
-0.030201 0.007106 0.903000
0.028735 -0.020653 0.898000
0.023403 -0.018312 0.892000
-0.014429 0.036431 0.893000
-0.013694 0.035696 0.893000
-0.035209 0.013350 0.898000
0.001387 -0.013291 0.900000
-0.011358 0.000045 0.912000
-0.020956 0.023139 0.905000
0.010026 0.014137 0.878000
-0.028531 -0.006315 0.909000
0.002821 0.009878 0.885000
0.010311 -0.030060 0.903000
-0.026925 -0.026781 0.918000
-0.015131 0.041117 0.891000
0.005310 0.026693 0.875000
-0.007102 0.009264 0.896000
-0.017526 0.029340 0.901000
-0.023485 0.025289 0.902000
0.009356 0.002588 0.883000
0.010281 0.030444 0.869000
-0.015572 -0.002597 0.917000
0.022672 -0.040559 0.922000
0.014297 0.015871 0.874000
-0.013351 -0.009800 0.920000
0.022277 -0.016825 0.891000
0.013906 0.019065 0.872000
-0.008080 0.044694 0.882000
0.013013 -0.043027 0.910000
-0.007437 0.023908 0.892000
-0.019874 -0.025815 0.924000
-0.007512 0.001899 0.901000
-0.032344 -0.011204 0.911000
-0.024227 -0.013150 0.916000
0.000636 0.010996 0.887000
0.018222 -0.012411 0.890000
-0.011109 0.031617 0.892000
-0.012901 0.040658 0.889000
-0.020879 -0.010534 0.918000
0.007858 0.019196 0.878000
0.012888 0.013383 0.876000
-0.031513 0.017046 0.898000
-0.011425 0.049384 0.888000
0.016366 -0.044102 0.909000
0.016606 0.002948 0.882000
-0.003483 -0.018012 0.914000
0.015277 -0.044949 0.911000
-0.029850 -0.025187 0.915000
-0.012210 0.034187 0.892000
-0.005551 0.026604 0.884000
0.010340 0.019468 0.874000
0.001038 -0.034375 0.919000
0.008099 -0.031989 0.905000
0.004631 0.017125 0.883000
0.022302 -0.022351 0.892000
0.017824 -0.042512 0.907000
0.019343 -0.019759 0.891000
0.015988 -0.009093 0.888000
-0.035266 0.008276 0.909000
0.020212 -0.032444 0.897000
-0.015572 -0.003351 0.917000
0.013593 0.013728 0.875000
0.017756 -0.002870 0.885000
0.012597 -0.038032 0.907000
0.001385 -0.011796 0.899000
-0.034290 0.004876 0.903000
0.002476 0.052911 0.892000
-0.026778 -0.012731 0.913000
0.008081 -0.028573 0.903000
-0.004878 0.009243 0.894000
-0.028155 0.029210 0.897000
-0.003395 0.012879 0.891000
-0.008663 -0.001445 0.905000
0.004637 0.014233 0.884000
-0.021797 0.010895 0.909000
-0.005240 0.010703 0.893000
0.011779 0.018389 0.874000
0.010095 0.000044 0.884000
0.018657 0.015907 0.876000
-0.022293 -0.003341 0.914000
-0.029532 0.033160 0.894000
0.015862 0.004032 0.881000
-0.023355 0.038809 0.897000
-0.011258 0.012695 0.904000
-0.024416 0.003038 0.909000
0.006230 -0.027861 0.904000
-0.021396 -0.030378 0.924000
-0.008807 -0.017373 0.920000
0.012785 0.028656 0.869000
-0.018555 0.038071 0.897000
0.017332 0.003674 0.882000
0.022745 -0.026846 0.895000
-0.030101 0.016714 0.900000
0.018785 0.005852 0.882000
0.016950 0.004395 0.881000
-0.017269 0.017963 0.907000
-0.006393 0.001526 0.900000
-0.026916 0.009729 0.905000
0.002938 -0.042456 0.922000
-0.013467 -0.026309 0.928000
-0.013909 0.013484 0.907000
-0.000470 -0.015651 0.908000
0.013108 -0.012424 0.891000
-0.016452 -0.017829 0.924000
0.006812 0.009856 0.883000
-0.031989 0.008574 0.901000
-0.006393 0.002267 0.900000
-0.032991 0.015198 0.898000
0.000654 -0.020577 0.911000
-0.035091 0.017357 0.895000
0.007787 -0.036740 0.912000
-0.005595 0.052118 0.891000
0.015292 -0.013876 0.890000
0.012999 -0.041483 0.909000
0.009566 0.031160 0.869000
-0.012348 -0.029427 0.930000
0.013142 0.029371 0.869000
-0.024416 0.004160 0.909000
0.023770 -0.019047 0.892000
-0.032954 0.017027 0.897000
0.016832 -0.024609 0.894000
0.024219 -0.023900 0.895000
0.019126 0.007658 0.881000
0.025494 -0.032218 0.901000
0.005942 -0.040339 0.917000
0.018017 0.008012 0.880000
0.016041 0.021911 0.871000
0.009146 -0.017327 0.898000
0.000650 -0.015617 0.906000
-0.014314 0.010520 0.909000
0.016380 0.031196 0.870000
0.003869 0.031015 0.875000
-0.027047 0.031056 0.897000
-0.009616 -0.024320 0.925000
-0.017545 0.026774 0.902000
-0.014946 -0.018609 0.925000
0.019533 0.006585 0.883000
0.028334 -0.020261 0.897000
-0.020211 0.022021 0.905000
0.021592 -0.023846 0.893000
-0.010254 -0.005974 0.914000
0.018870 -0.002874 0.886000
-0.030970 0.033123 0.893000
-0.031965 0.037041 0.890000
-0.005564 0.024476 0.886000
0.010300 -0.025943 0.902000
0.023850 -0.025373 0.895000
-0.016951 0.012030 0.910000
-0.023396 -0.004464 0.913000
-0.000847 -0.021351 0.912000
-0.014656 0.014604 0.907000
-0.003110 -0.021044 0.915000
0.005936 -0.039541 0.916000
-0.031847 0.020719 0.897000
-0.026618 0.036512 0.895000
-0.011171 0.023672 0.897000
0.010639 0.031875 0.869000
-0.017857 0.034085 0.899000
0.011067 -0.031581 0.904000
0.005722 0.009129 0.883000
0.017816 -0.007266 0.888000
0.009218 0.029047 0.870000
-0.000094 0.049273 0.886000
0.014623 0.019424 0.872000
-0.000096 -0.020577 0.911000
-0.033693 0.014073 0.897000
-0.019904 0.015741 0.908000
-0.013113 -0.029427 0.930000
0.001041 -0.039041 0.922000
0.016851 -0.025373 0.895000
0.014607 0.021194 0.871000
-0.018075 0.011656 0.910000
0.013278 0.009078 0.878000
-0.006379 0.007067 0.898000
0.023227 -0.040867 0.929000
0.008294 -0.001780 0.886000
0.015395 -0.025033 0.896000
0.010639 0.033306 0.869000
0.014049 0.004757 0.881000
0.024059 -0.036564 0.917000
-0.014139 -0.012477 0.922000
-0.006156 -0.022295 0.920000
-0.006861 -0.010852 0.913000
-0.018373 -0.023939 0.925000
-0.000826 0.009191 0.889000
-0.016106 -0.023965 0.926000
-0.012872 0.044218 0.887000
0.010847 -0.002509 0.886000
0.009896 -0.019566 0.899000
-0.024819 -0.036463 0.924000
-0.011084 0.050961 0.890000
-0.031618 0.008945 0.901000
0.033208 -0.016236 0.899000
-0.009727 0.010046 0.900000
-0.024120 0.036265 0.898000
-0.018783 0.016115 0.908000
-0.007471 0.010739 0.896000
0.008952 0.014876 0.879000
0.002080 0.040971 0.880000
-0.033655 0.018852 0.896000
-0.023063 0.032642 0.900000
-0.024735 0.010124 0.907000
-0.010694 0.038054 0.888000
-0.033101 0.034149 0.891000
-0.024438 -0.036083 0.924000
-0.005170 0.040292 0.881000
-0.025524 -0.034487 0.922000
-0.020470 0.034123 0.900000
0.003625 -0.016698 0.904000
-0.026975 0.004524 0.907000
-0.032060 0.002646 0.903000
-0.001904 0.034452 0.880000
-0.004455 0.033479 0.883000
-0.006029 0.000045 0.901000
0.006154 -0.011350 0.893000
-0.034138 0.009665 0.899000
0.026947 -0.028108 0.900000
0.001732 0.007345 0.887000
0.015664 0.032270 0.870000
0.012932 0.008003 0.879000
-0.004998 -0.018428 0.916000
0.012430 -0.018374 0.895000
-0.012308 -0.023991 0.927000
-0.008453 0.043655 0.883000
-0.022098 0.017198 0.906000
0.001353 0.022810 0.878000
-0.020434 -0.002214 0.915000
-0.010293 0.046303 0.885000
-0.017915 -0.012464 0.921000
0.004710 -0.015479 0.898000
-0.034801 0.013335 0.897000
-0.026916 0.009357 0.905000
-0.031634 0.037449 0.891000
-0.008291 -0.002190 0.905000
0.019710 -0.012058 0.891000
0.001001 0.009171 0.887000
0.011900 0.002951 0.883000
-0.020657 -0.020894 0.925000
-0.018125 0.048614 0.894000
0.009346 0.008030 0.882000
-0.007157 -0.000699 0.903000
-0.009211 0.037604 0.886000
-0.029834 0.038226 0.892000
-0.012265 0.027703 0.896000
0.034099 -0.021512 0.903000
-0.020910 0.027547 0.903000
0.014416 -0.036046 0.904000
0.014215 0.027583 0.869000
0.014232 0.032986 0.870000
0.002078 0.022112 0.879000
0.010766 -0.039282 0.910000
-0.032001 0.035616 0.891000
-0.000094 0.014663 0.888000
-0.006002 0.055053 0.897000
-0.023641 0.008267 0.908000
-0.035668 0.027181 0.891000
-0.018146 0.042775 0.895000
0.008081 -0.030431 0.903000
-0.025257 0.030015 0.899000
-0.015079 0.010158 0.910000
-0.032876 -0.003308 0.905000
-0.007704 -0.026195 0.924000
-0.021419 -0.032315 0.925000
0.009632 -0.035123 0.909000
0.013842 -0.012791 0.891000
-0.014866 -0.009800 0.920000
-0.032918 0.019221 0.896000
-0.012916 0.039239 0.890000
-0.020743 0.004174 0.912000
-0.004450 0.027270 0.882000
-0.019114 0.020554 0.906000
-0.029654 -0.007438 0.909000
0.011712 0.030444 0.869000
-0.024654 0.017160 0.904000
0.008266 0.003678 0.883000
0.007059 -0.040251 0.915000
-0.035618 0.014845 0.899000
0.000653 -0.020180 0.910000
-0.021797 0.009772 0.909000
-0.017448 0.035856 0.897000
0.012932 0.008726 0.879000
-0.026983 -0.031383 0.920000
0.005559 -0.039164 0.916000
-0.001190 0.011739 0.888000
0.010712 0.017330 0.875000
0.021177 -0.019392 0.891000
0.015658 -0.013876 0.890000
-0.013730 -0.009800 0.920000
-0.014204 0.022319 0.902000
-0.012676 -0.022441 0.926000
0.006030 0.026693 0.875000
-0.004933 -0.005164 0.904000
-0.023070 -0.007487 0.915000
-0.018679 0.026061 0.903000
-0.012916 -0.003348 0.916000
-0.020546 -0.016615 0.920000
0.014512 -0.044151 0.910000
0.010470 -0.001778 0.885000
-0.011476 0.032352 0.892000
-0.014801 -0.001840 0.916000
0.005722 0.011310 0.883000
0.001761 -0.009979 0.902000
-0.021095 0.006419 0.911000
-0.000838 -0.012578 0.902000
0.017915 0.016249 0.875000
0.013233 0.015529 0.875000
-0.013618 0.047922 0.888000
-0.009608 0.034438 0.889000
-0.011936 0.021505 0.899000
-0.022995 -0.000706 0.912000
-0.033796 0.033012 0.890000
-0.019283 0.003431 0.914000
0.009808 -0.010958 0.891000
-0.001186 0.048853 0.885000
0.000279 -0.021702 0.911000
-0.011682 0.007519 0.908000
0.019732 -0.023819 0.892000
0.011022 0.024420 0.871000
-0.000459 0.012470 0.888000
-0.022667 0.034456 0.899000
-0.014946 0.022691 0.902000
-0.030472 0.014121 0.900000
-0.025627 0.028165 0.899000
-0.035091 0.018094 0.895000
0.002172 -0.037401 0.919000
-0.008836 0.038654 0.885000
-0.009738 0.006720 0.901000
-0.007462 0.013305 0.895000
-0.010669 0.040156 0.886000
-0.003357 0.041743 0.881000
-0.019114 0.020181 0.906000
0.015261 -0.044151 0.910000
0.000271 0.018297 0.887000
-0.006357 0.017726 0.895000
-0.027620 -0.023706 0.916000
-0.026142 0.013439 0.904000
-0.031953 0.010787 0.900000
-0.025635 -0.036923 0.926000
-0.031629 -0.016096 0.912000
-0.004133 0.017299 0.892000
-0.008976 0.009295 0.899000
-0.026169 -0.022247 0.918000
-0.020233 0.020554 0.906000
-0.013061 0.022640 0.900000
-0.031048 -0.002938 0.906000
-0.036442 0.025009 0.892000
-0.016019 -0.011706 0.921000
0.008620 0.006941 0.882000
-0.030135 0.011540 0.901000
-0.013371 0.029546 0.896000
0.000636 0.009536 0.887000
0.010311 -0.030803 0.903000
0.005540 -0.033399 0.913000
-0.002269 0.025063 0.881000
0.004742 -0.017815 0.904000
-0.005399 -0.023810 0.920000
-0.030671 0.028408 0.895000
0.031057 -0.023689 0.901000
0.015952 -0.005426 0.886000
-0.025855 0.007511 0.907000
0.005754 -0.002515 0.888000
-0.027661 0.022766 0.905000
-0.023772 -0.004088 0.913000
-0.006286 0.030641 0.885000
-0.026916 0.008984 0.905000
0.019317 -0.041392 0.907000
-0.016377 0.030015 0.899000
0.004234 0.027805 0.876000
-0.024517 0.030385 0.899000
-0.009565 0.040840 0.885000
-0.027273 -0.023732 0.917000
-0.031386 -0.002190 0.905000
0.016704 -0.041765 0.907000
-0.015351 0.020881 0.904000
-0.008447 -0.022344 0.922000
0.001042 -0.041362 0.923000
0.003909 0.016053 0.884000
0.004379 -0.028295 0.906000
-0.001181 0.042106 0.881000
-0.025109 0.009004 0.907000
0.000637 0.016125 0.888000
-0.003372 0.048489 0.885000
-0.007023 0.034322 0.886000
0.005715 0.016379 0.882000
-0.025398 0.014927 0.904000
-0.015463 0.047244 0.889000
0.007505 0.017771 0.879000
0.007769 -0.033664 0.910000
-0.025275 -0.009725 0.913000
-0.024174 0.029308 0.900000
0.023957 -0.031777 0.899000
0.021737 -0.034367 0.899000
0.014931 0.026868 0.869000
0.007876 0.014531 0.880000
0.012236 0.005845 0.881000
-0.027620 -0.023329 0.916000
0.022352 -0.026081 0.894000
-0.012457 0.004914 0.910000
0.014590 0.022244 0.870000
-0.019573 0.011281 0.910000
-0.025342 0.020092 0.902000
0.015808 0.009439 0.878000
0.008434 -0.019610 0.901000
0.027166 -0.018742 0.895000
0.003188 0.006608 0.886000
0.030822 -0.029009 0.905000
0.015816 -0.030667 0.899000
-0.009629 0.051751 0.891000
0.004423 -0.034602 0.915000
-0.005182 0.034933 0.883000
-0.022293 -0.004845 0.914000
-0.032404 0.031617 0.892000
0.031125 -0.026343 0.903000
-0.017698 0.045517 0.891000
-0.002272 0.024003 0.882000
-0.033166 -0.007095 0.913000
0.029944 -0.024801 0.901000
0.029137 -0.023266 0.899000
0.008541 0.038174 0.874000
-0.021352 0.018316 0.906000
0.016409 -0.018659 0.891000
0.014193 -0.012044 0.890000
0.014774 0.003670 0.881000
-0.015776 0.015724 0.907000
-0.019918 -0.032350 0.926000
-0.013730 -0.010557 0.920000
-0.023989 0.011244 0.907000
0.033319 -0.021117 0.902000
-0.024765 -0.031072 0.922000
0.004950 0.037857 0.875000
0.012156 -0.029284 0.902000
0.032984 -0.023742 0.903000
-0.010433 0.022196 0.897000
-0.029165 0.034632 0.894000
0.013138 -0.015760 0.893000
0.030583 -0.017696 0.898000
-0.013162 0.010871 0.907000
-0.016505 -0.026280 0.927000
0.003874 0.029969 0.876000
-0.025275 -0.009349 0.913000
-0.025330 -0.014642 0.915000
0.010577 -0.015042 0.894000
-0.010328 0.036958 0.888000
-0.016505 -0.026662 0.927000
-0.005004 -0.019958 0.917000
-0.004263 -0.025703 0.920000
-0.015776 0.016097 0.907000
-0.006650 0.029912 0.885000
-0.012577 0.052177 0.892000
-0.022122 0.014230 0.907000
-0.017383 0.006809 0.913000
0.015288 0.028656 0.869000
0.019232 -0.037865 0.903000
0.011141 -0.039282 0.910000
-0.005240 0.018054 0.893000
0.010293 0.034060 0.870000
-0.016486 0.021649 0.905000
-0.031847 0.018135 0.897000
-0.019767 -0.011302 0.919000
0.016188 0.008364 0.879000
-0.001558 0.012118 0.889000
-0.023563 0.018669 0.905000
-0.009006 0.003757 0.902000
-0.011079 -0.013586 0.920000
-0.034316 0.022489 0.894000
-0.010642 -0.005604 0.915000
0.007813 0.027351 0.873000
-0.002351 -0.018744 0.913000
-0.018051 -0.033184 0.928000
0.017515 0.019087 0.873000
-0.023720 0.001170 0.911000
-0.036924 0.017706 0.913000
-0.009016 0.002646 0.903000
0.008891 0.024117 0.873000
0.007437 0.031231 0.871000
0.003206 0.052118 0.891000
-0.002264 0.036583 0.879000
-0.016413 0.027115 0.901000
-0.022793 0.020881 0.904000
-0.015759 -0.028218 0.928000
0.000998 0.046251 0.884000
0.005864 -0.028264 0.905000
0.020076 -0.014625 0.891000
0.001030 -0.029609 0.912000
-0.028874 -0.004813 0.908000
0.003874 0.038982 0.876000
-0.011803 0.037731 0.889000
-0.017194 -0.017049 0.923000
-0.006786 -0.002929 0.903000
-0.005975 0.013276 0.893000
-0.030160 -0.020998 0.913000
0.002144 -0.017874 0.907000
-0.027997 -0.022575 0.916000
-0.010718 0.034111 0.890000
-0.003001 0.024030 0.883000
-0.004091 0.047289 0.883000
-0.013029 -0.017448 0.924000
-0.004500 0.013628 0.892000
0.018827 0.000771 0.884000
0.016004 0.029729 0.869000
0.009196 -0.025600 0.903000
0.010981 -0.018415 0.897000
-0.000457 0.046979 0.884000
-0.032513 0.023251 0.895000
0.016738 0.027257 0.870000
0.019365 -0.023819 0.892000
-0.019494 -0.025054 0.924000
-0.028312 -0.019893 0.914000
-0.023641 0.010135 0.908000
-0.013648 0.050594 0.890000
-0.006650 0.034647 0.885000
-0.021611 -0.010522 0.917000
0.007454 0.026632 0.873000
0.009367 0.000044 0.884000
-0.007110 0.007428 0.897000
0.003605 -0.015126 0.899000
-0.028092 0.033197 0.895000
0.016299 -0.002870 0.885000
-0.023268 0.009388 0.908000
0.006292 -0.035653 0.913000
0.025381 -0.025061 0.897000
-0.016887 -0.025899 0.927000
-0.012416 0.010871 0.907000
-0.016185 0.012765 0.909000
-0.003821 -0.006287 0.905000
0.014788 -0.036790 0.904000
-0.035222 0.034438 0.889000
-0.018638 0.030453 0.901000
-0.000817 0.033689 0.879000
0.017695 0.002585 0.882000
-0.006279 0.036064 0.884000
-0.009867 -0.004840 0.913000
-0.024435 0.040241 0.896000
-0.012535 0.039561 0.889000
-0.031425 -0.020335 0.917000
-0.021375 0.016470 0.907000
-0.011420 -0.008635 0.917000
-0.007840 0.011108 0.896000
-0.031219 -0.014953 0.911000
-0.019431 -0.016633 0.921000
-0.008491 0.034726 0.887000
0.008565 -0.042134 0.915000
-0.031372 0.029480 0.894000
-0.011209 0.018566 0.900000
-0.003490 -0.021821 0.916000
0.021959 -0.023111 0.893000
0.023062 -0.022008 0.893000
-0.011764 0.045991 0.886000
-0.026827 0.027888 0.902000
0.019191 0.001499 0.884000
0.001027 -0.027671 0.910000
0.007902 0.003314 0.883000
-0.000825 0.018318 0.888000
0.014106 -0.041811 0.908000
0.013490 -0.014274 0.892000
0.016380 0.023318 0.870000
-0.001595 -0.015686 0.910000
-0.002632 0.040655 0.881000
0.003311 -0.040849 0.920000
-0.003357 0.043556 0.881000
0.017115 -0.044102 0.909000
0.018568 -0.008006 0.889000
0.006966 -0.019653 0.903000
-0.016449 0.024202 0.903000
-0.010503 0.012309 0.903000
0.016294 -0.040183 0.905000
0.003152 0.024921 0.876000
0.010458 0.001499 0.884000
0.004579 0.035256 0.873000
0.018366 -0.030968 0.897000
0.019104 -0.031706 0.897000
-0.003897 -0.032625 0.923000
-0.032697 0.036675 0.890000
-0.011520 -0.020513 0.925000
0.004736 -0.017423 0.903000
-0.030402 -0.010431 0.909000
0.009324 0.012358 0.880000
0.009218 0.030479 0.870000
0.013531 0.021194 0.871000
-0.013148 0.013096 0.906000
0.028799 -0.024403 0.900000
0.006580 -0.017756 0.901000
-0.029929 0.000791 0.906000
-0.026895 -0.024110 0.917000
0.006044 0.022062 0.877000
-0.005416 -0.028446 0.923000
0.023984 -0.032923 0.900000
-0.029473 -0.024810 0.915000
-0.023772 -0.005592 0.913000
0.000629 0.035417 0.877000
-0.035954 0.034804 0.889000
0.017097 0.026899 0.870000
-0.005633 0.055423 0.897000
0.020787 -0.039109 0.906000
0.006398 0.023118 0.876000
-0.032876 -0.002190 0.905000
0.011766 0.020165 0.873000
-0.014644 -0.032107 0.930000
0.013953 0.014088 0.875000
0.008766 -0.016569 0.897000
-0.002354 -0.021774 0.914000
0.002515 -0.016735 0.906000
-0.016983 0.043365 0.892000
-0.012306 0.022615 0.899000
-0.011720 0.002670 0.911000
-0.011811 -0.009023 0.918000
0.012785 0.025079 0.869000
-0.005539 0.046509 0.882000
0.016738 0.025108 0.870000
-0.017554 -0.015893 0.922000
-0.021493 0.003423 0.912000
0.013500 0.026510 0.869000
-0.020054 0.037004 0.898000
-0.018774 -0.029301 0.926000
0.003905 0.018578 0.883000
-0.007181 -0.005922 0.906000
0.006735 0.037052 0.873000
-0.015112 0.006426 0.912000
0.017273 0.009088 0.879000
-0.010322 -0.015479 0.920000
0.005431 -0.012480 0.895000
0.023930 -0.031002 0.898000
0.007778 -0.035575 0.911000
-0.018125 0.042359 0.894000
-0.027844 -0.009329 0.911000
-0.034856 0.032975 0.889000
0.004019 -0.030634 0.909000
-0.029505 -0.027476 0.916000
-0.001596 -0.016453 0.911000
-0.029850 -0.024810 0.915000
-0.035460 0.019199 0.895000
0.006092 0.004046 0.884000
0.017956 0.012677 0.877000
-0.016577 0.012405 0.910000
0.005000 0.010595 0.884000
-0.009727 0.008935 0.900000
-0.006951 -0.029650 0.925000
-0.001185 0.047706 0.884000
-0.012858 0.045626 0.886000
0.018609 -0.020492 0.891000
0.010281 0.032233 0.869000
-0.007752 0.035416 0.886000
-0.024817 0.001169 0.910000
0.004637 0.013506 0.884000
-0.004455 0.047289 0.883000
0.016312 -0.041346 0.906000
0.003505 0.035656 0.874000
-0.007126 0.005225 0.899000
0.000641 0.053338 0.893000
-0.026895 -0.022600 0.917000
-0.009738 0.007461 0.901000
-0.009585 -0.020067 0.922000
0.012470 0.020500 0.872000
0.001712 0.027476 0.877000
0.024273 -0.028383 0.897000
0.019621 -0.002877 0.887000
-0.024095 -0.001455 0.911000
-0.034878 0.011515 0.899000
-0.006951 -0.030031 0.925000
-0.015195 -0.002597 0.917000
-0.020058 -0.002968 0.915000
-0.007462 0.054194 0.895000
-0.028436 -0.029048 0.918000
0.002092 0.018256 0.885000
0.007094 0.037052 0.873000
-0.007354 0.042516 0.882000
-0.008492 -0.029332 0.927000
-0.020412 0.000421 0.914000
0.013309 0.005839 0.880000
-0.024058 -0.034562 0.924000
0.020833 -0.022351 0.892000
-0.016579 0.049495 0.890000
0.024900 -0.018333 0.893000
0.016757 -0.013876 0.890000
0.004820 -0.009411 0.919000
0.020833 -0.023085 0.892000
0.006750 0.038578 0.875000
-0.009965 -0.018549 0.922000
0.012139 0.018029 0.874000
-0.030369 -0.006682 0.908000
-0.000845 -0.016435 0.910000
-0.015327 -0.018990 0.925000
0.030618 -0.020306 0.899000
0.011490 -0.037700 0.908000
0.015481 -0.033701 0.901000
0.032838 -0.016976 0.899000
-0.013395 -0.014770 0.923000
0.024505 -0.017945 0.892000
0.005364 0.006593 0.884000
0.001380 0.006682 0.896000
0.014137 -0.044151 0.910000
0.008678 -0.006535 0.888000
0.005322 0.023145 0.877000
0.015160 -0.037534 0.904000
0.004224 0.034936 0.874000
0.003874 0.026724 0.876000
-0.023804 0.030049 0.900000
-0.027530 -0.014610 0.913000
-0.015917 0.038679 0.894000
0.010996 0.032590 0.869000
0.007078 0.034458 0.871000
0.019495 -0.032850 0.898000
-0.017759 0.006809 0.913000
0.018380 0.007287 0.880000
-0.003509 -0.029522 0.921000
-0.027168 0.022295 0.901000
-0.012321 -0.026309 0.928000
0.012456 0.035175 0.871000
-0.026886 0.011951 0.904000
0.017555 0.015529 0.875000
-0.012635 -0.015910 0.923000
-0.006492 -0.013121 0.914000
-0.033186 -0.012124 0.924000
0.019017 0.021315 0.876000
-0.007462 0.019936 0.895000
-0.016220 0.009419 0.911000
0.010039 -0.041245 0.912000
-0.026925 -0.027159 0.918000
-0.022545 0.010146 0.909000
0.025807 -0.028447 0.899000
-0.011333 0.003790 0.910000
-0.020233 0.021300 0.906000
-0.007023 0.031040 0.886000
-0.016598 0.043684 0.891000
0.009558 -0.027799 0.902000
-0.007848 0.018135 0.897000
-0.001911 0.023303 0.883000
-0.011034 0.040886 0.886000
-0.029183 0.000418 0.906000
-0.033948 0.023225 0.894000
-0.004133 0.015464 0.892000
-0.014995 -0.025545 0.928000
-0.025770 0.016044 0.904000
0.016299 -0.003235 0.885000
-0.026229 0.006018 0.907000
0.005057 -0.009891 0.894000
-0.018969 -0.003351 0.917000
-0.002292 0.051693 0.890000
-0.026708 0.028873 0.898000
-0.011022 0.043754 0.885000
0.019104 0.009460 0.880000
-0.013580 0.006787 0.910000
-0.013565 0.009772 0.909000
-0.003855 -0.016489 0.913000
0.003891 0.021051 0.880000
-0.037544 0.030883 0.892000
0.006223 -0.019653 0.903000
-0.014764 0.051385 0.891000
0.018870 -0.002509 0.886000
0.007590 -0.006542 0.889000
-0.027741 -0.033276 0.920000
-0.006123 -0.015019 0.915000
-0.014246 -0.029396 0.929000
-0.012498 0.000421 0.913000
0.008081 -0.029316 0.903000
-0.020788 0.000421 0.914000
-0.017574 -0.017429 0.923000
0.014480 -0.042185 0.908000
-0.000826 0.008825 0.889000
0.022923 -0.035966 0.902000
-0.018234 -0.004866 0.918000
0.004273 0.016416 0.884000
-0.008956 0.019242 0.897000
0.020810 -0.016458 0.891000
-0.016089 -0.019371 0.925000
-0.008076 -0.024647 0.923000
-0.014581 -0.022441 0.926000
-0.019072 -0.019687 0.922000
-0.029033 -0.017616 0.913000
-0.002313 0.055854 0.898000
-0.027783 -0.004819 0.909000
-0.020635 -0.022012 0.924000
0.008911 0.022011 0.875000
0.017915 0.017330 0.875000
0.007078 0.033024 0.871000
-0.015463 0.045415 0.889000
0.005358 0.009856 0.883000
0.008453 -0.029316 0.903000
-0.012945 0.036023 0.892000
-0.002994 0.034128 0.881000
-0.002351 -0.024756 0.913000
0.012486 -0.023636 0.899000
0.005871 -0.023075 0.906000
0.017874 0.020165 0.873000
0.014352 -0.029219 0.900000
-0.007735 0.038611 0.884000
-0.021773 0.013125 0.908000
-0.025911 0.036922 0.896000
0.008117 -0.032433 0.907000
-0.008300 -0.003684 0.906000
-0.020856 -0.009013 0.917000
-0.008807 -0.017751 0.920000
-0.026983 -0.030626 0.920000
-0.015917 0.037575 0.894000
-0.020674 0.013513 0.909000
0.008182 0.025224 0.874000
-0.003871 -0.021845 0.917000
-0.013940 0.010146 0.909000
0.012785 0.028298 0.869000
0.009218 0.030121 0.870000
-0.013327 0.034226 0.893000
0.014330 0.013383 0.876000
0.007462 0.026303 0.874000
0.014931 0.029729 0.869000
0.012427 0.030802 0.869000
0.014774 0.002944 0.881000
-0.018294 -0.014359 0.921000
-0.013401 0.027395 0.898000
-0.010723 -0.017031 0.922000
0.032612 -0.023370 0.903000
-0.014597 -0.023609 0.927000
-0.030671 0.028777 0.895000
-0.006650 0.028091 0.885000
-0.013264 -0.000331 0.914000
-0.020233 -0.022748 0.923000
-0.032954 0.017396 0.897000
0.018735 -0.031337 0.897000
0.012713 -0.008006 0.889000
0.011367 0.025824 0.870000
-0.001542 0.033727 0.880000
-0.037754 0.029579 0.897000
-0.027228 0.014539 0.903000
0.011439 -0.032325 0.904000
-0.025627 0.027425 0.899000
0.014129 -0.003968 0.886000
-0.018551 0.001175 0.915000
0.014875 -0.006893 0.887000
-0.024147 -0.006719 0.913000
-0.006315 0.024193 0.889000
-0.021653 0.026432 0.903000
-0.001223 -0.023603 0.912000
0.009685 -0.043216 0.914000
0.012542 -0.031918 0.903000
-0.013191 0.008650 0.909000
-0.006620 0.042831 0.881000
0.018117 -0.037865 0.903000
-0.027213 -0.019161 0.915000
-0.007362 0.046199 0.883000
0.012947 0.006925 0.880000
-0.029830 0.007106 0.903000
0.017588 -0.026846 0.895000
-0.030946 -0.020645 0.914000
0.004700 -0.013232 0.896000
-0.025656 0.026715 0.900000
-0.004258 -0.024540 0.919000
-0.016632 0.005306 0.913000
-0.020166 0.027176 0.903000
-0.011187 -0.029013 0.929000
-0.018413 -0.030859 0.927000
0.001003 0.007719 0.888000
0.009324 0.011996 0.880000
-0.001542 0.027932 0.880000
0.006449 0.006222 0.883000
0.001026 -0.025022 0.909000
0.020535 -0.028688 0.895000
-0.027755 0.032128 0.896000
0.013188 0.019783 0.872000
-0.014526 0.027055 0.899000
-0.016089 -0.020132 0.925000
0.019798 -0.027952 0.895000
-0.025370 0.019371 0.903000
-0.011408 -0.006364 0.916000
-0.025713 0.021206 0.902000
-0.035084 0.005312 0.914000
-0.003817 -0.007769 0.904000
0.005498 -0.021583 0.906000
-0.021164 -0.001083 0.914000
-0.005752 -0.017674 0.916000
-0.031490 -0.009298 0.908000
-0.010120 0.008583 0.902000
-0.025735 -0.017674 0.916000
-0.011103 -0.017410 0.922000
-0.007308 -0.024241 0.922000
-0.031548 0.015215 0.899000
-0.000846 -0.024327 0.911000
0.009642 -0.036660 0.910000
-0.004867 0.012159 0.892000
0.014461 -0.002139 0.884000
0.021910 -0.015358 0.891000
0.016391 -0.013509 0.890000
0.008932 0.018452 0.877000
-0.028374 -0.024460 0.916000
-0.013970 0.006044 0.911000
0.018359 0.009450 0.879000
0.003152 0.030329 0.876000
0.009125 -0.016182 0.896000
-0.011370 -0.002210 0.913000
-0.006921 -0.022699 0.921000
0.008756 -0.015813 0.896000
-0.009206 -0.020067 0.922000
-0.003357 0.035941 0.881000
0.003228 -0.011031 0.897000
0.020810 -0.018292 0.891000
0.011641 -0.010958 0.891000
-0.002673 0.008148 0.895000
0.015240 -0.006893 0.887000
-0.027017 0.033603 0.896000
-0.021118 0.004549 0.912000
0.027627 -0.022871 0.898000
0.020257 -0.034737 0.899000
-0.001904 0.025035 0.880000
0.015664 0.023318 0.870000
-0.019794 0.026061 0.903000
-0.029505 -0.025591 0.916000
-0.019874 -0.026195 0.924000
-0.021375 0.015724 0.907000
-0.015114 0.043635 0.890000
-0.024200 -0.012383 0.915000
0.010300 -0.026314 0.902000
-0.004465 0.048489 0.885000
-0.015671 0.025632 0.901000
-0.021611 -0.010145 0.917000
-0.015012 0.016079 0.906000
-0.012859 0.002297 0.912000
0.007265 -0.013938 0.894000
0.007701 -0.020745 0.902000
-0.024281 0.019392 0.904000
0.018976 -0.021226 0.891000
-0.018928 -0.000331 0.915000
0.000653 -0.026173 0.910000
-0.009086 -0.002951 0.910000
-0.006786 -0.001442 0.903000
0.011477 -0.035046 0.907000
-0.019030 0.027888 0.902000
-0.004495 0.052118 0.891000
-0.007717 0.042153 0.882000
0.000663 -0.041407 0.924000
0.015570 -0.002506 0.885000
-0.012761 0.014571 0.905000
0.012083 0.023318 0.870000
0.006313 -0.040295 0.916000
-0.018206 0.044027 0.898000
0.004340 -0.015109 0.898000
-0.005533 0.039930 0.881000
-0.008855 -0.025081 0.925000
-0.009694 0.021826 0.897000
-0.034100 0.011872 0.898000
0.012913 -0.031918 0.903000
-0.032367 0.037449 0.891000
0.012829 0.020859 0.872000
-0.005558 0.048489 0.885000
0.016682 -0.004697 0.886000
0.008453 -0.025600 0.903000
0.014288 -0.023189 0.896000
-0.017650 -0.028569 0.927000
-0.024954 -0.012383 0.915000
0.003641 -0.022752 0.908000
0.000272 0.016491 0.888000
0.008698 -0.009114 0.890000
-0.031630 -0.021608 0.923000
0.015790 0.011594 0.877000
0.014808 0.000770 0.883000
0.025836 -0.029589 0.900000
-0.032881 0.022883 0.895000
-0.025623 -0.007087 0.912000
0.030754 -0.027086 0.903000
0.014641 -0.022794 0.895000
0.004059 -0.038494 0.918000
0.019603 -0.037493 0.903000
0.012250 0.004037 0.882000
0.007346 -0.029721 0.904000
-0.022694 -0.006734 0.915000
-0.034895 0.030081 0.890000
0.007241 -0.008757 0.891000
-0.011720 0.002295 0.911000
0.013935 -0.023215 0.897000
-0.014015 0.040338 0.890000
0.009261 0.021986 0.874000
-0.000095 -0.011451 0.901000
-0.028683 0.013409 0.902000
0.004224 0.032418 0.874000
-0.002748 -0.029490 0.920000
-0.028092 0.035039 0.895000
-0.012563 0.036716 0.891000
-0.024738 -0.028764 0.921000
-0.006726 0.018831 0.895000
-0.011843 0.052177 0.892000
-0.011450 0.050961 0.890000
-0.014817 -0.002219 0.917000
0.013641 -0.031140 0.902000
-0.006485 -0.011228 0.913000
-0.021749 0.017217 0.907000
-0.010305 0.047814 0.886000
-0.003134 -0.031451 0.922000
-0.020613 -0.024267 0.923000
0.013858 0.032590 0.869000
0.025635 -0.018333 0.893000
-0.008856 0.027424 0.887000
0.014336 -0.027336 0.899000
-0.014817 -0.003351 0.917000
0.001367 0.050059 0.887000
-0.002272 0.044331 0.882000
0.004268 0.017488 0.883000
0.016096 0.016950 0.874000
0.018593 0.021602 0.873000
0.009268 -0.035536 0.910000
0.013857 -0.015375 0.892000
-0.006265 0.038160 0.882000
-0.027753 -0.000703 0.908000
-0.009225 -0.022772 0.924000
-0.023216 0.014960 0.906000
0.019754 -0.024949 0.893000
0.013152 -0.016882 0.894000
0.009547 -0.021835 0.901000
0.013718 0.000770 0.883000
0.015664 0.024392 0.870000
0.008172 0.026632 0.873000
-0.006913 -0.021159 0.920000
-0.019220 0.009794 0.911000
-0.019155 -0.030063 0.926000
0.001034 -0.030869 0.916000
-0.001193 0.051327 0.890000
0.019061 0.013053 0.878000
0.002821 0.011335 0.885000
0.029977 -0.026314 0.902000
-0.001904 0.034089 0.880000
0.012928 -0.033814 0.904000
-0.016595 0.010169 0.911000
-0.007340 -0.030063 0.926000
0.001001 0.008440 0.887000
-0.009813 0.001913 0.908000
0.009303 0.015221 0.878000
-0.019262 0.005682 0.913000
0.002859 0.055423 0.897000
0.015754 0.014088 0.875000
0.017136 0.021218 0.872000
-0.006658 0.033228 0.886000
-0.007387 0.034322 0.886000
-0.016434 -0.015150 0.923000
-0.005902 0.037797 0.882000
0.008825 -0.024113 0.903000
0.013749 -0.003235 0.885000
-0.006357 0.017357 0.895000
0.006168 -0.013585 0.895000
-0.013694 0.034593 0.893000
-0.023114 0.025289 0.902000
-0.001224 -0.020998 0.913000
-0.005915 0.028787 0.884000
-0.016777 -0.010947 0.921000
0.005663 0.029540 0.874000
0.013020 -0.001413 0.885000
-0.010910 0.008621 0.906000
-0.027814 -0.007446 0.910000
-0.011159 0.025859 0.896000
-0.020412 0.001550 0.914000
0.018996 0.019490 0.875000
0.012319 -0.004702 0.887000
-0.001224 -0.021374 0.913000
0.010060 0.009471 0.881000
0.017804 -0.040601 0.906000
-0.036318 0.020003 0.898000
-0.021072 0.010532 0.910000
0.002068 0.036057 0.875000
0.005571 -0.041894 0.918000
0.008871 0.035892 0.871000
-0.022471 0.016079 0.906000
-0.018886 0.004930 0.913000
-0.015758 0.018316 0.906000
-0.022818 0.019414 0.905000
-0.025513 0.039459 0.895000
-0.009900 -0.009757 0.916000
0.011432 0.016609 0.875000
-0.018531 0.002302 0.914000
-0.020771 0.039917 0.897000
-0.015521 0.003807 0.914000
0.009377 -0.001778 0.885000
-0.011134 0.028745 0.894000
0.035292 -0.023794 0.905000
-0.021061 -0.033112 0.926000
-0.008759 -0.009746 0.915000
-0.016989 0.007928 0.912000
-0.031048 -0.004057 0.906000
-0.008491 0.035091 0.887000
-0.001221 -0.017953 0.911000
-0.030970 0.033490 0.893000
0.029040 -0.018026 0.896000
-0.007086 0.053765 0.894000
-0.018115 0.007928 0.912000
-0.015178 -0.001463 0.916000
-0.021729 -0.025759 0.922000
-0.024572 0.026745 0.901000
-0.012224 0.032020 0.893000
0.000274 0.054562 0.895000
0.016832 -0.023873 0.894000
-0.023345 0.000795 0.911000
-0.029344 -0.011953 0.911000
