-0.047037 0.011779 0.891000
-0.032324 -0.018106 0.900000
0.047108 -0.009990 0.903000
-0.018162 0.009078 0.878000
-0.000468 -0.019675 0.904000
-0.003808 -0.018518 0.902000
-0.007102 -0.030933 0.896000
0.024758 -0.005719 0.875000
-0.012715 0.028797 0.852000
-0.029745 0.031124 0.868000
-0.037779 0.021936 0.872000
0.015306 0.002191 0.870000
-0.018698 0.029884 0.853000
-0.025089 -0.004734 0.893000
-0.024299 -0.011324 0.891000
-0.018166 -0.009175 0.896000
-0.035428 -0.010155 0.885000
-0.018146 -0.002903 0.895000
-0.000823 -0.005426 0.886000
-0.004530 -0.031741 0.898000
-0.002215 0.016325 0.860000
-0.038050 0.030838 0.870000
-0.011676 0.027426 0.853000
0.034403 -0.004628 0.873000
-0.041209 -0.000320 0.884000
0.009526 -0.016976 0.899000
-0.033064 0.004440 0.890000
0.019975 -0.024113 0.903000
0.038981 0.006555 0.879000
-0.027631 0.000411 0.892000
0.016815 -0.003554 0.874000
-0.032878 -0.016348 0.885000
0.020374 -0.014210 0.888000
-0.014958 0.020926 0.860000
0.016926 -0.019936 0.899000
0.018547 -0.012383 0.888000
0.014540 0.007180 0.867000
-0.021875 0.008030 0.882000
-0.045524 0.030571 0.883000
-0.008976 -0.009946 0.899000
-0.026918 0.018284 0.869000
0.000636 -0.007614 0.886000
-0.035405 -0.016308 0.903000
0.028914 0.000043 0.870000
-0.025282 0.023813 0.862000
0.010234 0.013927 0.865000
0.040659 -0.018512 0.884000
0.012741 0.011092 0.866000
-0.021022 -0.016844 0.892000
-0.014125 -0.013985 0.897000
0.011485 -0.006830 0.879000
-0.006080 0.022238 0.856000
0.035882 -0.002115 0.874000
-0.009219 0.028128 0.853000
-0.044070 0.003678 0.883000
-0.046146 0.001857 0.881000
-0.002313 -0.038024 0.898000
-0.038050 0.022960 0.870000
0.026002 -0.019803 0.893000
-0.005721 0.023268 0.855000
-0.014429 -0.026419 0.893000
0.015628 0.006831 0.868000
-0.028301 -0.008381 0.890000
-0.006029 -0.015531 0.901000
-0.023637 0.009823 0.880000
0.007362 -0.022329 0.906000
0.011720 -0.016569 0.897000
-0.008245 -0.011809 0.900000
0.033955 -0.012995 0.880000
-0.021781 -0.011717 0.893000
-0.008245 -0.012920 0.900000
-0.003265 0.020148 0.857000
-0.000798 0.016659 0.859000
-0.013401 -0.008087 0.898000
0.034482 0.005445 0.875000
-0.014941 0.021255 0.859000
0.012097 -0.000674 0.871000
-0.044420 0.017260 0.890000
-0.042931 -0.001772 0.882000
-0.011909 0.012934 0.870000
-0.017645 0.031639 0.853000
-0.002936 0.012845 0.864000
0.038258 0.008726 0.879000
-0.010802 -0.007709 0.897000
0.012236 -0.008659 0.881000
-0.012930 -0.002156 0.891000
-0.047181 -0.001043 0.880000
0.029678 -0.020538 0.893000
-0.015330 0.018824 0.861000
0.017902 -0.030326 0.911000
-0.002320 -0.026656 0.901000
0.036946 -0.021959 0.891000
0.022517 -0.015637 0.886000
0.017450 -0.012383 0.888000
-0.020150 0.032769 0.855000
-0.034430 0.031160 0.869000
-0.037165 -0.010859 0.883000
-0.031713 0.011310 0.883000
0.017977 -0.005739 0.878000
0.012116 -0.018086 0.899000
0.006339 0.003615 0.868000
-0.012306 -0.013646 0.899000
-0.045007 -0.006114 0.880000
-0.034660 -0.012691 0.884000
0.031057 -0.011909 0.880000
0.033723 0.001842 0.874000
0.016354 -0.011652 0.888000
-0.000094 -0.008728 0.888000
-0.036238 0.009901 0.887000
-0.013756 -0.016569 0.897000
-0.038364 -0.013570 0.894000
-0.032587 -0.009083 0.887000
0.023557 -0.015238 0.884000
-0.030276 0.016931 0.873000
0.011092 -0.022329 0.906000
0.003989 -0.036709 0.902000
-0.026074 -0.013860 0.889000
-0.045784 -0.001044 0.881000
-0.013434 0.005091 0.876000
-0.035182 0.007719 0.888000
-0.043393 0.003682 0.884000
0.038084 -0.007159 0.875000
-0.036115 0.012414 0.884000
-0.033908 0.018389 0.874000
-0.007212 0.014283 0.865000
-0.040027 0.015653 0.882000
-0.011896 -0.021714 0.896000
-0.021756 -0.015743 0.892000
-0.036279 0.001871 0.888000
-0.043707 0.002951 0.883000
-0.004165 -0.027706 0.899000
0.006251 -0.024593 0.907000
0.002123 -0.012892 0.898000
-0.004916 -0.020722 0.901000
-0.008961 0.017427 0.862000
-0.002943 0.007884 0.866000
-0.032258 -0.006535 0.888000
0.016170 -0.006461 0.878000
0.029073 -0.023215 0.897000
-0.000468 -0.019303 0.904000
-0.002279 -0.004327 0.885000
-0.029067 -0.004357 0.891000
0.012398 0.006823 0.867000
-0.013416 0.030550 0.852000
-0.031210 0.021145 0.869000
0.009962 -0.040183 0.905000
0.016759 -0.028420 0.910000
0.036739 -0.018189 0.886000
0.008864 -0.029820 0.907000
-0.034009 -0.007249 0.886000
-0.034374 -0.008343 0.886000
-0.000797 0.021584 0.858000
-0.041620 0.012428 0.885000
-0.010097 -0.014772 0.900000
0.002501 -0.015531 0.901000
-0.003433 -0.012935 0.901000
-0.019943 -0.014290 0.893000
-0.022465 -0.016092 0.891000
0.022262 -0.005365 0.876000
-0.021429 0.016756 0.864000
-0.043707 0.001497 0.883000
-0.039159 0.007710 0.887000
-0.006386 -0.022896 0.899000
-0.034111 0.021528 0.870000
-0.037698 0.009171 0.887000
-0.045161 0.003314 0.883000
-0.026470 -0.010945 0.890000
-0.000095 -0.038067 0.899000
-0.010456 -0.009946 0.899000
0.036283 -0.001037 0.875000
0.004726 -0.041118 0.901000
0.041486 -0.024458 0.902000
0.014137 -0.030293 0.910000
-0.036232 0.038710 0.878000
0.023088 -0.008287 0.880000
0.006943 -0.016254 0.900000
0.004191 0.005395 0.867000
-0.037010 0.005161 0.888000
0.029664 -0.002466 0.871000
0.035923 -0.008600 0.875000
-0.017436 0.020572 0.860000
-0.038750 0.002232 0.886000
-0.043806 0.010243 0.885000
0.039425 -0.021910 0.889000
0.042081 -0.022693 0.891000
-0.009694 -0.024691 0.897000
-0.013725 -0.022426 0.895000
-0.006016 -0.010686 0.899000
-0.039709 0.032455 0.875000
0.011287 -0.012806 0.892000
0.012197 -0.021932 0.905000
-0.015882 -0.027858 0.892000
-0.025901 0.027973 0.859000
0.030447 -0.021297 0.894000
0.001382 -0.012139 0.897000
-0.043558 -0.006476 0.880000
0.025206 -0.025256 0.904000
-0.019821 0.026114 0.856000
0.016667 -0.023794 0.905000
-0.006864 0.012161 0.866000
-0.046712 0.021725 0.878000
0.002390 0.015281 0.861000
-0.038181 0.020883 0.873000
0.010719 -0.036872 0.906000
0.007718 -0.020047 0.904000
-0.027042 0.012619 0.873000
0.007385 0.009299 0.865000
0.010220 -0.014322 0.895000
-0.042834 0.032279 0.880000
-0.043608 -0.004670 0.881000
-0.041966 0.019896 0.877000
0.008453 0.009299 0.865000
0.006595 -0.018538 0.903000
-0.011566 -0.014386 0.899000
-0.014478 -0.017288 0.896000
0.039026 0.009098 0.880000
-0.024749 -0.003267 0.894000
0.041939 -0.021520 0.888000
-0.006793 0.020500 0.857000
0.014657 -0.004274 0.874000
-0.007212 0.014639 0.865000
-0.045058 -0.001770 0.881000
0.005492 -0.030126 0.905000
0.025067 -0.022896 0.899000
0.007768 0.004330 0.868000
0.036643 -0.001757 0.875000
0.023141 -0.010121 0.882000
-0.008736 0.004005 0.875000
-0.005388 0.019112 0.858000
-0.006286 -0.004327 0.885000
-0.029301 -0.014924 0.887000
-0.028936 -0.019305 0.887000
-0.000834 -0.037655 0.898000
-0.047073 0.023171 0.878000
0.004229 0.001124 0.875000
-0.018535 -0.008806 0.896000
-0.037892 -0.008679 0.883000
0.024398 -0.005359 0.875000
-0.033758 -0.000688 0.889000
-0.026015 0.006250 0.887000
-0.017645 0.028480 0.853000
-0.041368 0.024807 0.872000
0.033042 0.010487 0.875000
-0.038585 0.032778 0.874000
0.001683 0.013170 0.862000
0.039569 -0.008249 0.876000
-0.043589 0.015760 0.888000
-0.018064 -0.024526 0.891000
0.011363 -0.016588 0.898000
-0.024920 0.005520 0.887000
0.001016 -0.035146 0.900000
-0.017638 0.001871 0.888000
-0.000092 0.008587 0.865000
-0.044020 0.000770 0.882000
-0.019186 -0.020148 0.892000
-0.040163 0.002229 0.885000
0.008444 -0.044134 0.902000
-0.009200 -0.002870 0.885000
-0.036067 0.019108 0.874000
0.026827 -0.004623 0.872000
-0.014316 0.017467 0.864000
0.011224 -0.010543 0.887000
-0.004179 -0.021117 0.902000
-0.042397 0.009160 0.886000
-0.016709 -0.010293 0.897000
-0.028333 -0.003990 0.891000
-0.008254 -0.015160 0.901000
0.025927 -0.008268 0.878000
-0.007481 0.022212 0.855000
-0.022198 -0.005850 0.895000
-0.019619 -0.011007 0.895000
-0.021255 0.033904 0.857000
-0.018085 -0.027124 0.892000
-0.008567 0.019818 0.858000
-0.026045 0.005526 0.888000
-0.014565 0.003299 0.879000
-0.020288 -0.016844 0.892000
-0.022825 0.020289 0.863000
-0.006741 -0.035029 0.897000
-0.032209 0.027876 0.867000
-0.007848 -0.028383 0.897000
-0.005975 -0.006572 0.893000
0.015274 -0.012031 0.889000
-0.000095 -0.035516 0.900000
-0.040291 0.022654 0.872000
0.039791 -0.021544 0.889000
-0.042182 0.022706 0.874000
0.034109 -0.015601 0.884000
0.004521 0.013170 0.862000
-0.009662 -0.005475 0.894000
0.013826 0.006109 0.867000
-0.046615 0.029118 0.883000
0.003820 0.011066 0.864000
-0.002217 0.015281 0.861000
-0.045266 0.027507 0.878000
0.021036 0.002908 0.870000
-0.032331 0.003341 0.890000
0.003561 -0.010555 0.888000
0.030005 -0.013373 0.881000
-0.019005 0.015030 0.867000
-0.023932 -0.013891 0.891000
-0.042110 0.017429 0.880000
-0.012683 0.006518 0.874000
0.019422 -0.006100 0.878000
-0.021553 0.013992 0.869000
0.043181 -0.022326 0.891000
0.004547 0.005395 0.867000
-0.047851 -0.003574 0.879000
0.006106 -0.010167 0.886000
-0.037698 0.001869 0.887000
0.026827 -0.021345 0.896000
-0.035548 0.008085 0.888000
-0.010513 0.006511 0.873000
-0.004906 -0.026966 0.899000
-0.004161 -0.031741 0.898000
0.013531 -0.001391 0.871000
0.019896 -0.009769 0.883000
-0.014203 0.003299 0.879000
0.014512 -0.030667 0.910000
-0.017645 0.027777 0.853000
-0.012596 0.014690 0.868000
0.017162 -0.016477 0.892000
-0.033280 0.026806 0.867000
0.030091 -0.006424 0.873000
0.008874 -0.025742 0.908000
-0.001160 0.010723 0.865000
-0.049660 0.000767 0.879000
0.024843 -0.007545 0.878000
-0.039841 0.024750 0.870000
-0.043029 0.002227 0.884000
-0.036644 0.003699 0.888000
-0.024693 -0.008033 0.892000
-0.002658 -0.008381 0.890000
0.015588 -0.009802 0.886000
0.011850 -0.036539 0.907000
-0.008666 0.011832 0.868000
-0.044031 0.024172 0.875000
0.025478 -0.006079 0.875000
0.023010 -0.006093 0.877000
-0.008208 -0.030564 0.896000
0.010357 -0.033179 0.907000
-0.002682 -0.035068 0.898000
0.028639 -0.021689 0.895000
-0.028508 0.024551 0.863000
-0.040707 -0.009384 0.881000
-0.009727 -0.014402 0.900000
0.002884 -0.023794 0.905000
-0.039978 0.021961 0.873000
-0.051921 -0.002896 0.893000
0.001757 -0.039591 0.900000
-0.042062 0.018132 0.879000
-0.022601 0.008030 0.882000
0.013531 0.000043 0.871000
0.032210 -0.005340 0.872000
-0.041163 0.036386 0.883000
-0.005664 -0.017033 0.902000
0.041152 -0.010448 0.879000
0.006002 0.001118 0.871000
0.030022 -0.002825 0.871000
-0.029767 0.004806 0.890000
0.017915 -0.003918 0.875000
-0.046765 -0.002851 0.879000
0.014183 0.010748 0.867000
-0.046042 -0.005745 0.879000
-0.029557 0.014775 0.873000
0.006161 -0.012098 0.894000
-0.026347 0.024523 0.862000
0.010707 -0.042046 0.905000
0.018550 -0.025312 0.906000
-0.008577 -0.029827 0.896000
-0.016592 0.031288 0.853000
-0.010380 0.017782 0.862000
0.007371 -0.027206 0.907000
-0.023972 0.010897 0.879000
-0.023932 -0.014258 0.891000
0.002512 -0.023422 0.905000
-0.023617 0.017151 0.866000
-0.006009 -0.009935 0.898000
-0.017935 0.015387 0.867000
0.009577 0.000401 0.870000
0.004374 -0.020814 0.905000
-0.001503 0.021231 0.858000
-0.023589 -0.024566 0.906000
-0.033167 0.012037 0.883000
-0.031534 0.014859 0.878000
-0.034124 0.001873 0.889000
-0.016983 -0.024554 0.892000
-0.000096 -0.016680 0.903000
-0.008175 0.027107 0.854000
0.028113 -0.018271 0.890000
0.010553 -0.012438 0.892000
0.004006 -0.021583 0.906000
-0.014015 -0.001055 0.890000
-0.048212 0.023921 0.879000
-0.009581 0.024647 0.854000
-0.031495 0.022524 0.867000
0.006905 -0.013217 0.895000
0.016060 -0.015008 0.892000
-0.018535 -0.007700 0.896000
-0.004725 0.009666 0.866000
-0.024326 -0.010603 0.892000
-0.038408 0.030479 0.870000
0.030608 -0.017499 0.888000
-0.004179 -0.017404 0.902000
-0.024386 0.015762 0.868000
-0.019641 -0.005487 0.896000
0.013762 -0.028045 0.910000
-0.027264 0.001513 0.892000
0.009984 -0.023100 0.907000
0.012611 -0.034711 0.908000
-0.023539 0.002974 0.890000
-0.031175 0.030409 0.868000
-0.021005 0.011941 0.876000
0.007885 -0.007209 0.881000
-0.009884 0.002944 0.881000
-0.021781 -0.012820 0.893000
0.013795 -0.010555 0.888000
-0.017395 0.023703 0.858000
0.030195 -0.008970 0.876000
-0.014429 -0.027889 0.893000
-0.017174 -0.028541 0.902000
-0.040163 0.000408 0.885000
-0.010130 0.008647 0.871000
-0.025061 -0.009501 0.892000
0.016418 -0.000675 0.872000
-0.039437 0.027225 0.869000
0.036580 -0.021592 0.891000
-0.031462 0.016268 0.876000
0.041561 -0.010460 0.880000
0.015412 -0.005725 0.876000
-0.043000 0.020594 0.876000
0.002770 0.003262 0.869000
-0.023590 0.017488 0.865000
0.011995 -0.011678 0.890000
0.014976 -0.014658 0.893000
0.021394 0.004698 0.870000
0.003629 -0.028264 0.905000
-0.037963 0.026837 0.868000
-0.027172 0.004801 0.889000
-0.034072 0.031160 0.869000
0.034922 0.010150 0.877000
-0.023905 -0.018271 0.890000
-0.015939 0.010847 0.875000
-0.023905 -0.016440 0.890000
-0.006364 -0.032408 0.896000
-0.034386 0.016647 0.877000
-0.019943 -0.015025 0.893000
-0.007857 -0.025088 0.898000
0.012799 0.001833 0.870000
0.009237 -0.031686 0.907000
-0.019531 -0.023793 0.891000
0.035283 0.012677 0.877000
0.003984 -0.038893 0.901000
-0.004156 -0.034659 0.897000
-0.008946 -0.030195 0.896000
-0.035388 -0.011235 0.884000
-0.023147 -0.021544 0.889000
-0.026988 0.009493 0.883000
0.002506 -0.016680 0.903000
-0.038938 -0.010847 0.882000
-0.037316 0.017389 0.878000
-0.002694 -0.023344 0.902000
-0.007102 -0.033146 0.896000
-0.048629 0.004028 0.880000
-0.033758 0.005532 0.889000
-0.041338 0.018132 0.879000
0.001015 -0.039177 0.899000
-0.029964 0.025291 0.864000
-0.026255 0.028680 0.859000
-0.005658 -0.012935 0.901000
-0.019943 -0.014658 0.893000
0.030660 -0.011172 0.879000
-0.012032 0.002576 0.879000
-0.049964 -0.000318 0.878000
0.003807 0.018115 0.861000
-0.019876 -0.024132 0.890000
-0.012292 -0.015848 0.898000
-0.026233 0.014366 0.870000
0.014724 -0.006823 0.878000
-0.007462 -0.007323 0.895000
0.022821 -0.021762 0.898000
-0.032952 -0.016750 0.887000
0.035882 -0.002475 0.874000
0.033685 -0.006424 0.873000
0.020443 -0.019025 0.891000
0.037748 -0.017057 0.884000
0.039298 0.002934 0.878000
-0.031857 -0.009813 0.887000
0.002512 -0.024912 0.905000
0.024946 0.000043 0.869000
-0.004319 0.022238 0.856000
-0.028936 -0.016750 0.887000
0.021566 -0.005732 0.877000
0.004162 0.015635 0.861000
-0.005463 0.006130 0.870000
0.001393 -0.018931 0.904000
0.029272 0.000759 0.870000
0.011341 0.005044 0.868000
0.035522 -0.007511 0.874000
0.010969 -0.015076 0.896000
-0.039844 0.012078 0.886000
-0.034451 -0.003976 0.888000
0.000616 0.019488 0.859000
0.024975 0.003982 0.870000
-0.020724 -0.004745 0.895000
0.024617 0.005056 0.870000
0.017792 0.006839 0.869000
-0.004725 0.011092 0.866000
0.014256 -0.015042 0.894000
-0.018514 -0.012112 0.895000
-0.039841 0.026183 0.870000
-0.005369 0.024323 0.855000
0.013097 0.008954 0.866000
0.017655 -0.006838 0.880000
-0.042520 -0.005758 0.881000
-0.033758 0.001142 0.889000
-0.033280 -0.010531 0.886000
-0.007875 -0.012920 0.900000
-0.006463 0.017387 0.860000
0.034186 -0.017095 0.886000
-0.030534 0.002611 0.891000
0.035389 -0.026567 0.898000
0.022618 -0.019370 0.890000
0.016151 -0.005732 0.877000
-0.022781 0.003337 0.889000
-0.035462 0.029338 0.868000
0.019317 -0.026460 0.907000
-0.003069 -0.017795 0.903000
0.001325 0.017033 0.860000
-0.017769 0.022316 0.859000
-0.046818 -0.002492 0.880000
0.032966 0.001121 0.873000
0.020108 -0.028389 0.909000
-0.009521 0.000044 0.881000
-0.010814 -0.019544 0.898000
0.022110 0.000401 0.870000
0.003113 0.009655 0.865000
0.005761 -0.011299 0.889000
-0.007577 0.013587 0.866000
-0.000467 -0.022998 0.903000
-0.031456 -0.013449 0.886000
-0.007362 -0.002137 0.883000
-0.005264 -0.033921 0.897000
-0.013771 -0.013261 0.898000
-0.012013 0.028095 0.852000
0.010380 -0.027641 0.909000
-0.005438 0.011449 0.866000
0.037767 -0.009691 0.876000
0.013173 -0.001032 0.871000
-0.030362 -0.017460 0.886000
-0.023780 0.032922 0.859000
0.027653 -0.017845 0.887000
-0.019208 -0.018333 0.893000
-0.009694 -0.007339 0.897000
0.022855 -0.014891 0.885000
-0.036593 0.037987 0.878000
-0.001211 -0.020768 0.903000
0.038127 -0.001399 0.876000
-0.014184 0.023295 0.856000
0.009878 0.014283 0.865000
-0.039709 -0.007588 0.883000
-0.019876 0.001509 0.890000
0.011739 -0.000315 0.871000
-0.013133 0.002217 0.880000
0.028917 -0.012285 0.881000
0.006536 -0.012480 0.895000
0.020319 0.001833 0.870000
0.008472 -0.036458 0.905000
0.020678 0.003266 0.870000
0.046632 -0.011451 0.901000
0.033646 -0.003905 0.872000
-0.014819 0.029849 0.852000
-0.028574 0.023184 0.865000
-0.004142 -0.008051 0.894000
0.042334 0.001494 0.881000
-0.041667 0.009160 0.886000
-0.029643 0.023184 0.865000
-0.022491 -0.012438 0.892000
-0.031999 0.019760 0.871000
0.008512 0.000043 0.871000
-0.047073 0.024616 0.878000
-0.018347 0.031639 0.853000
-0.019575 -0.000691 0.893000
-0.009933 0.023592 0.854000
-0.034430 0.022576 0.869000
0.003609 -0.041443 0.900000
0.018529 0.006846 0.870000
0.036769 0.011246 0.878000
0.018611 -0.028015 0.909000
-0.045937 0.021701 0.877000
-0.030099 0.005898 0.889000
0.000972 0.014926 0.861000
-0.046712 0.022087 0.878000
-0.014141 -0.012152 0.898000
-0.019619 -0.004376 0.895000
-0.028056 0.016175 0.871000
-0.038619 -0.009769 0.883000
-0.011232 0.007229 0.873000
-0.040436 -0.005771 0.883000
-0.002313 -0.034698 0.898000
-0.019898 -0.025626 0.891000
-0.016592 0.031639 0.853000
-0.021558 0.030306 0.855000
-0.032923 0.027163 0.867000
0.004563 0.001833 0.870000
0.000979 0.006109 0.867000
0.030381 0.002552 0.871000
-0.016728 0.021280 0.860000
-0.000091 0.020171 0.858000
-0.022166 0.016776 0.865000
-0.025824 -0.001794 0.893000
0.008247 -0.007571 0.881000
-0.000467 -0.017423 0.903000
0.022602 -0.026000 0.904000
0.038532 -0.011146 0.877000
-0.004525 -0.033921 0.897000
0.009547 -0.018497 0.901000
-0.030431 -0.010555 0.888000
-0.027895 0.022141 0.866000
-0.021935 0.032455 0.856000
0.009912 0.003615 0.868000
-0.019597 -0.013938 0.894000
0.033872 -0.025061 0.897000
0.007522 -0.006846 0.881000
-0.001575 -0.012536 0.899000
0.029272 0.001833 0.870000
-0.021578 0.013650 0.870000
0.003629 -0.019324 0.905000
-0.011159 -0.006225 0.896000
0.014965 -0.000674 0.871000
-0.007866 -0.021046 0.899000
-0.008986 -0.014772 0.900000
-0.044803 0.022758 0.876000
0.044813 -0.019305 0.887000
0.004379 -0.023448 0.906000
-0.042253 -0.002500 0.883000
-0.002315 -0.032887 0.899000
-0.014429 -0.027154 0.893000
-0.034974 -0.004362 0.892000
-0.017873 0.016045 0.864000
-0.008194 0.021533 0.856000
0.025973 -0.019414 0.892000
0.019984 -0.001032 0.871000
0.034522 0.009417 0.876000
0.015985 0.005759 0.868000
-0.013028 0.010104 0.873000
-0.039304 0.020547 0.874000
0.034403 -0.002831 0.873000
0.000970 0.018781 0.859000
-0.019553 -0.020882 0.892000
-0.042493 0.024836 0.873000
-0.008577 -0.029089 0.896000
-0.020310 -0.000323 0.893000
-0.001551 -0.005784 0.885000
0.014496 -0.034375 0.909000
0.032681 0.009407 0.875000
-0.022074 -0.019737 0.890000
0.042696 0.003670 0.881000
-0.016717 0.007993 0.878000
-0.003971 0.019442 0.857000
0.026931 -0.025855 0.912000
0.008444 0.012489 0.864000
-0.017389 -0.018354 0.894000
0.013203 -0.002831 0.873000
-0.036479 -0.010871 0.884000
-0.026410 -0.016768 0.888000
0.040383 -0.001763 0.878000
-0.020288 0.000411 0.892000
0.015271 0.004687 0.868000
-0.002217 0.014926 0.861000
-0.026980 0.014383 0.871000
-0.013694 -0.028992 0.893000
-0.045940 0.009503 0.884000
-0.027793 0.012633 0.874000
-0.036635 0.039116 0.879000
0.031998 -0.009331 0.876000
0.014336 -0.018456 0.899000
-0.034047 -0.005432 0.887000
-0.044020 0.031989 0.882000
0.008099 -0.020814 0.905000
0.010724 -0.004644 0.876000
0.032210 -0.004264 0.872000
0.007184 -0.008688 0.884000
-0.040027 -0.011210 0.882000
-0.027379 0.029810 0.861000
0.013732 -0.036579 0.908000
-0.006771 -0.013676 0.901000
-0.038900 0.031662 0.873000
0.025778 -0.022501 0.898000
0.011798 -0.020768 0.903000
0.005231 0.016363 0.862000
0.009547 -0.003664 0.901000
0.010683 -0.020397 0.903000
-0.037039 0.039160 0.880000
0.020009 -0.014210 0.888000
-0.008568 -0.032004 0.895000
-0.045937 0.024949 0.877000
0.019734 -0.028389 0.909000
0.010334 -0.040183 0.905000
0.030229 -0.009703 0.877000
-0.017801 0.009078 0.878000
0.022262 -0.005725 0.876000
-0.019137 0.012978 0.873000
0.023036 -0.007184 0.878000
0.008472 -0.036831 0.905000
-0.042397 0.036875 0.886000
-0.036260 0.022602 0.870000
0.013747 -0.033627 0.909000
0.011671 0.007884 0.866000
0.018974 -0.002475 0.874000
-0.010235 0.001492 0.880000
0.029343 -0.021297 0.894000
-0.001190 -0.008728 0.888000
-0.025548 0.028680 0.859000
-0.014880 -0.008456 0.898000
-0.021910 0.031362 0.855000
-0.001878 0.006473 0.868000
0.024231 0.002189 0.869000
-0.013799 0.025350 0.854000
0.009600 -0.036126 0.906000
0.010590 0.009299 0.865000
-0.027569 -0.009480 0.890000
-0.003059 -0.027367 0.900000
-0.029666 -0.015289 0.887000
-0.014757 0.014349 0.869000
0.033759 -0.022769 0.894000
-0.026639 0.026589 0.860000
-0.018166 -0.005856 0.896000
-0.046509 0.000406 0.881000
0.006324 0.006815 0.866000
-0.036025 0.020165 0.873000
-0.044442 0.022037 0.876000
-0.004334 0.017720 0.859000
0.032070 -0.018230 0.888000
0.020749 -0.002472 0.873000
0.029811 -0.023584 0.897000
0.011104 -0.023100 0.907000
-0.010095 0.012904 0.868000
0.030381 -0.001391 0.871000
-0.047489 -0.002127 0.879000
-0.006421 -0.036046 0.904000
-0.016337 0.009067 0.877000
0.017833 0.000402 0.871000
-0.024133 0.032569 0.859000
0.034044 -0.004628 0.873000
-0.001153 0.015971 0.860000
0.034083 -0.008230 0.874000
0.028198 0.000759 0.870000
0.006835 -0.010167 0.886000
0.034763 -0.004269 0.873000
0.004731 -0.037080 0.902000
-0.014819 0.030901 0.852000
-0.008290 0.013587 0.866000
-0.008568 -0.006586 0.895000
0.002127 -0.037368 0.900000
-0.036479 0.012414 0.884000
0.020623 -0.010132 0.883000
0.024083 -0.019370 0.890000
-0.012338 0.005445 0.875000
0.021153 -0.018638 0.890000
-0.025456 -0.002529 0.893000
0.038456 -0.023452 0.892000
-0.042853 0.025913 0.873000
0.036703 -0.024241 0.894000
-0.027088 0.031655 0.863000
0.028198 0.000401 0.870000
-0.011405 0.020195 0.859000
0.017214 -0.004644 0.876000
-0.020608 -0.023400 0.890000
-0.036603 0.000774 0.887000
-0.022992 0.030341 0.856000
0.030845 -0.007151 0.874000
-0.015165 -0.025316 0.893000
0.019716 -0.003558 0.875000
0.009984 -0.032059 0.907000
-0.012310 0.007948 0.873000
0.027544 -0.004982 0.872000
0.000616 0.017366 0.859000
0.035202 0.003284 0.875000
-0.030276 0.017649 0.873000
0.028090 -0.025543 0.901000
-0.032149 -0.016712 0.885000
0.010742 -0.025368 0.908000
-0.013794 0.005451 0.876000
-0.024217 -0.021154 0.888000
-0.050687 0.000405 0.878000
-0.021341 -0.021568 0.890000
0.022212 -0.004274 0.874000
-0.010790 -0.006225 0.896000
-0.030846 0.013791 0.879000
0.012097 -0.001032 0.871000
0.017792 0.005050 0.869000
-0.043806 0.007329 0.885000
-0.045318 0.027900 0.879000
-0.023932 -0.023059 0.891000
-0.032661 0.006630 0.889000
-0.035103 -0.006520 0.886000
0.035202 0.001844 0.875000
0.026049 -0.002464 0.870000
-0.004369 0.010023 0.866000
-0.043671 0.027413 0.875000
-0.016616 -0.027858 0.892000
-0.047905 0.000768 0.880000
0.041561 -0.004665 0.880000
-0.004535 -0.028817 0.899000
0.032928 0.000043 0.872000
-0.040245 0.028722 0.871000
-0.026836 -0.009114 0.890000
-0.048212 -0.000318 0.879000
0.038198 -0.018919 0.886000
0.032966 0.001480 0.873000
0.037172 0.011620 0.879000
-0.020857 0.005143 0.885000
-0.041823 0.021986 0.874000
-0.009933 0.024295 0.854000
-0.039169 0.022628 0.871000
-0.014880 -0.010304 0.898000
-0.035752 -0.011963 0.884000
0.032569 -0.001393 0.872000
-0.037010 0.008085 0.888000
-0.015330 0.019179 0.861000
-0.011895 0.013277 0.869000
0.011067 -0.043488 0.904000
-0.006896 0.006846 0.870000
0.004731 -0.038936 0.902000
0.039976 -0.008620 0.877000
-0.029301 -0.016384 0.887000
-0.030534 0.002978 0.891000
-0.040962 0.024420 0.871000
-0.003795 -0.011426 0.899000
0.039388 0.007649 0.880000
0.036375 -0.025005 0.895000
-0.011631 0.004370 0.876000
0.035122 -0.003550 0.873000
-0.018493 -0.013938 0.894000
-0.028806 0.009856 0.883000
-0.025314 -0.019692 0.888000
-0.029666 -0.014924 0.887000
0.036769 0.010162 0.878000
-0.008656 0.013246 0.867000
0.002884 -0.022304 0.905000
0.030315 -0.026656 0.901000
-0.013403 0.009396 0.874000
-0.032692 0.013445 0.880000
-0.023986 -0.000323 0.893000
0.007362 -0.021583 0.906000
-0.018799 0.012274 0.874000
0.015360 -0.016146 0.894000
-0.024812 0.027940 0.858000
-0.011146 -0.005481 0.895000
0.003629 -0.025284 0.905000
0.008453 -0.041581 0.903000
0.035882 -0.006792 0.874000
-0.025089 -0.002529 0.893000
0.031455 -0.013010 0.881000
0.038707 -0.014823 0.881000
-0.027111 -0.018210 0.887000
-0.041209 0.037155 0.884000
-0.049047 0.004757 0.881000
0.002042 0.010711 0.864000
-0.042617 -0.001410 0.883000
-0.026529 -0.006197 0.892000
-0.006080 0.028580 0.856000
-0.012715 0.028446 0.852000
-0.039483 0.028331 0.870000
-0.029999 0.029592 0.865000
-0.005023 0.025057 0.856000
0.034522 0.007615 0.876000
0.003257 -0.026029 0.905000
0.005741 -0.009802 0.886000
-0.002923 0.016325 0.860000
-0.006763 -0.020329 0.900000
-0.008676 0.008627 0.869000
-0.004671 0.026114 0.856000
0.017997 -0.006469 0.879000
0.022110 0.001475 0.870000
-0.019898 -0.021959 0.891000
0.010996 0.003620 0.869000
0.011079 -0.041673 0.905000
-0.029034 -0.007282 0.890000
-0.029951 0.015152 0.874000
0.001337 0.004687 0.868000
-0.003300 0.008597 0.866000
0.029698 -0.005340 0.872000
0.005819 -0.014370 0.898000
0.039660 -0.011159 0.878000
-0.030484 0.013429 0.879000
0.002401 0.009655 0.865000
-0.007142 -0.013306 0.901000
0.002040 0.011764 0.863000
0.029442 -0.023215 0.897000
0.033004 0.005079 0.874000
-0.015602 -0.007339 0.897000
0.018923 -0.025312 0.906000
0.033723 0.004000 0.874000
-0.013945 0.018158 0.863000
-0.032331 0.003707 0.890000
-0.035988 -0.002176 0.899000
-0.009304 -0.033109 0.895000
0.026370 -0.019803 0.893000
-0.024077 0.030729 0.857000
-0.036933 0.023649 0.869000
0.035838 -0.027367 0.900000
-0.007857 -0.023610 0.898000
0.029902 -0.009714 0.878000
-0.037358 0.016685 0.879000
0.014477 -0.009427 0.885000
-0.042853 0.026273 0.873000
-0.012380 0.002934 0.878000
-0.009921 0.028831 0.853000
-0.021610 0.004784 0.886000
-0.017078 -0.007709 0.897000
0.009621 -0.025368 0.908000
-0.036510 0.036819 0.876000
0.014624 -0.015042 0.894000
-0.041368 0.024089 0.872000
-0.000095 -0.037697 0.899000
-0.026918 0.032590 0.869000
0.002859 0.001890 0.897000
-0.004731 0.008607 0.867000
-0.048267 0.003303 0.880000
0.020678 0.005414 0.870000
-0.033664 0.038666 0.877000
-0.008956 -0.026168 0.897000
0.018965 -0.027236 0.908000
-0.028186 0.023868 0.864000
-0.028142 0.008421 0.885000
0.014739 -0.019981 0.901000
0.009940 -0.019653 0.903000
-0.003795 -0.030297 0.899000
-0.004175 -0.023318 0.901000
0.036449 -0.013342 0.879000
0.009984 -0.022727 0.907000
0.012827 -0.016938 0.897000
0.033646 -0.004264 0.872000
-0.026591 0.015798 0.870000
0.030416 -0.004264 0.872000
-0.016943 0.027075 0.853000
0.006558 -0.015109 0.898000
-0.033758 0.000776 0.889000
-0.030425 0.022524 0.867000
-0.005287 -0.020722 0.901000
-0.044899 0.010971 0.885000
-0.016560 0.001142 0.889000
0.040837 0.004390 0.880000
-0.045679 0.012807 0.886000
-0.026316 0.024849 0.861000
-0.033357 0.030802 0.869000
0.011864 -0.033590 0.908000
-0.003296 0.011435 0.865000
-0.034503 0.014531 0.880000
0.006820 -0.009052 0.884000
0.025682 -0.014477 0.882000
-0.020975 0.002242 0.890000
-0.040799 0.014581 0.883000
-0.001575 -0.032887 0.899000
-0.021781 -0.010982 0.893000
-0.002685 -0.032147 0.899000
-0.003631 0.016679 0.860000
-0.001579 -0.028510 0.901000
-0.022115 0.020289 0.863000
0.033684 -0.021250 0.892000
-0.013372 0.011887 0.872000
-0.027476 -0.017845 0.887000
0.016299 -0.009427 0.885000
-0.012974 -0.025345 0.894000
-0.038106 0.004795 0.888000
0.033783 -0.016712 0.885000
0.000970 0.019488 0.859000
0.033916 0.012344 0.879000
-0.025679 -0.021154 0.888000
0.002459 -0.007249 0.886000
0.009889 0.007884 0.866000
-0.028635 -0.010201 0.889000
-0.000096 -0.028668 0.906000
-0.008806 -0.000682 0.882000
-0.022678 0.005872 0.885000
0.002884 -0.021932 0.905000
0.026139 -0.004987 0.873000
-0.044202 -0.009512 0.893000
0.008835 -0.039023 0.904000
-0.012493 -0.001415 0.886000
-0.028806 0.016194 0.872000
-0.034907 0.034138 0.872000
0.020600 -0.009395 0.882000
0.016777 -0.032576 0.911000
-0.043261 0.025224 0.874000
0.016348 -0.025742 0.908000
0.002125 -0.013646 0.899000
-0.019229 -0.002532 0.894000
-0.012974 -0.030496 0.894000
-0.038299 -0.007597 0.884000
-0.025033 -0.011691 0.891000
-0.010636 0.024295 0.854000
-0.000096 -0.020047 0.904000
0.002395 0.012119 0.863000
0.006595 -0.038236 0.903000
-0.041385 0.017066 0.880000
-0.036891 0.028266 0.868000
0.003453 0.017407 0.861000
0.030739 -0.000315 0.871000
0.032875 0.011399 0.890000
-0.002560 0.024733 0.857000
0.022923 -0.024458 0.902000
-0.011690 0.024295 0.854000
0.014512 -0.031416 0.910000
-0.037995 0.035778 0.877000
-0.025575 0.012963 0.872000
0.022826 0.003266 0.870000
-0.016961 0.013322 0.872000
0.004726 -0.039635 0.901000
-0.007496 -0.022156 0.899000
0.001391 -0.026715 0.903000
0.039795 -0.015186 0.881000
-0.007229 0.012532 0.867000
-0.017370 -0.019803 0.893000
-0.043442 0.013157 0.885000
0.003913 -0.008334 0.885000
-0.007848 -0.034290 0.897000
-0.035182 0.000044 0.888000
-0.015953 -0.014338 0.896000
-0.025089 -0.002896 0.893000
0.035122 -0.002472 0.873000
0.002884 -0.026029 0.905000
-0.021707 -0.020469 0.890000
-0.004916 -0.014047 0.901000
-0.003975 0.018052 0.858000
0.035928 -0.016329 0.884000
-0.000445 0.015617 0.860000
-0.014125 -0.006232 0.897000
-0.038385 0.011348 0.886000
-0.032952 -0.007988 0.887000
-0.029099 0.000778 0.892000
-0.003618 0.021559 0.857000
-0.048322 0.004757 0.881000
-0.003425 -0.031037 0.899000
-0.003433 -0.014047 0.901000
0.020076 -0.019392 0.891000
-0.023345 0.030694 0.856000
-0.034296 -0.014146 0.884000
0.027134 -0.014840 0.882000
-0.015602 -0.011770 0.897000
-0.030167 -0.001423 0.891000
0.020466 -0.020148 0.892000
0.017115 -0.026892 0.909000
0.035685 -0.018940 0.887000
0.012799 -0.015059 0.895000
-0.021461 -0.005850 0.895000
-0.015917 -0.021297 0.894000
0.002509 -0.026744 0.904000
-0.045730 0.032170 0.887000
-0.022832 -0.015358 0.891000
0.002401 0.007519 0.865000
-0.026746 0.006615 0.887000
-0.040115 0.019513 0.876000
-0.012770 0.001854 0.880000
-0.012745 0.024647 0.854000
-0.024693 -0.009134 0.892000
0.017200 -0.019089 0.894000
0.029664 -0.004259 0.871000
0.013430 -0.010555 0.888000
-0.046818 0.000043 0.880000
0.015110 -0.020722 0.901000
-0.014267 0.019533 0.861000
-0.041385 0.017429 0.880000
0.038620 0.006917 0.879000
0.019245 0.006130 0.870000
-0.010119 0.008995 0.870000
-0.031816 0.026419 0.866000
0.032034 -0.017115 0.887000
0.037088 0.005097 0.877000
0.015000 -0.002831 0.873000
0.012814 -0.000315 0.871000
0.004006 -0.022702 0.906000
-0.015254 0.007984 0.877000
0.013762 -0.029169 0.910000
-0.030065 -0.011652 0.888000
-0.009921 0.026373 0.853000
0.007777 0.002189 0.869000
0.006974 -0.034930 0.904000
-0.000799 0.015971 0.860000
-0.048014 0.006941 0.882000
0.010387 -0.005739 0.878000
0.040567 -0.015929 0.882000
0.014886 -0.028420 0.910000
-0.003265 0.021911 0.857000
-0.015579 0.010127 0.875000
-0.024610 0.004069 0.889000
-0.018146 -0.011743 0.895000
0.011354 0.003262 0.869000
0.004374 -0.029009 0.905000
0.042766 -0.022301 0.890000
-0.019575 -0.016863 0.893000
-0.024976 -0.017153 0.889000
-0.011090 0.018137 0.862000
-0.000465 -0.036587 0.899000
-0.020878 0.033160 0.856000
-0.007743 -0.003599 0.885000
-0.014565 0.003661 0.879000
0.016777 -0.032201 0.911000
0.002872 -0.038522 0.901000
0.034203 -0.024295 0.896000
-0.011206 0.010439 0.871000
-0.027264 -0.000323 0.892000
0.014496 -0.035497 0.909000
-0.021413 -0.012085 0.893000
0.004537 0.009655 0.865000
0.008090 -0.019675 0.904000
0.031925 0.007597 0.874000
0.033860 -0.018210 0.887000
-0.012019 0.003296 0.878000
-0.029633 -0.018189 0.886000
-0.044082 0.021676 0.876000
-0.016635 -0.022744 0.893000
0.003989 -0.035595 0.902000
0.033685 0.000043 0.873000
-0.043707 0.001134 0.883000
-0.019422 0.004055 0.886000
-0.028333 -0.005457 0.891000
0.021752 0.000759 0.870000
-0.017294 0.029182 0.853000
-0.011553 -0.007717 0.898000
-0.015602 -0.007709 0.897000
-0.044803 0.023479 0.876000
0.028554 -0.014098 0.881000
0.019444 -0.006469 0.879000
0.008600 -0.006476 0.880000
0.015736 -0.003914 0.874000
-0.047181 0.026846 0.880000
-0.020242 -0.024499 0.890000
-0.002313 -0.011044 0.898000
-0.028830 0.027361 0.862000
0.035202 -0.009680 0.875000
0.001751 -0.012139 0.897000
-0.000797 0.022643 0.858000
-0.044170 0.013885 0.885000
0.032253 -0.014857 0.883000
-0.027172 -0.011665 0.889000
-0.030167 0.003711 0.891000
0.007045 0.005752 0.867000
-0.001505 0.017366 0.859000
0.026741 -0.012648 0.881000
0.010245 0.008241 0.866000
-0.018064 -0.024893 0.891000
-0.006801 0.019112 0.858000
0.019577 -0.010884 0.885000
-0.026142 -0.022652 0.904000
-0.029767 -0.005817 0.890000
0.024285 -0.014874 0.884000
-0.030534 0.001878 0.891000
0.008472 -0.035341 0.905000
0.008125 0.003615 0.868000
-0.032514 -0.015983 0.885000
0.046951 -0.011439 0.900000
-0.034190 0.020500 0.872000
0.041467 -0.007907 0.878000
0.006595 -0.038608 0.903000
-0.001211 -0.021512 0.903000
-0.007134 -0.012550 0.900000
-0.037248 0.025051 0.868000
0.034837 -0.016329 0.884000
0.018508 0.005766 0.869000
-0.046199 0.029448 0.882000
0.000264 0.010355 0.864000
-0.029998 0.008431 0.886000
-0.045576 0.022784 0.877000
-0.020814 0.014690 0.868000
0.022852 -0.001391 0.871000
-0.015971 -0.007339 0.897000
-0.046146 0.000044 0.881000
-0.010623 0.031288 0.853000
0.011060 -0.003554 0.874000
0.002757 0.008943 0.865000
0.038893 0.000404 0.877000
0.040337 -0.006093 0.877000
0.041293 -0.014840 0.882000
0.011833 -0.006461 0.878000
0.023269 -0.023689 0.901000
-0.024244 0.004069 0.889000
0.025463 -0.018210 0.887000
0.007701 -0.018147 0.902000
-0.004152 -0.008806 0.896000
-0.008586 0.018448 0.860000
-0.044854 0.021701 0.877000
-0.010477 0.011143 0.870000
-0.026203 0.015422 0.869000
0.038214 -0.011520 0.878000
-0.009684 -0.027245 0.896000
0.032034 -0.010424 0.877000
-0.032624 -0.004342 0.888000
-0.001516 0.008231 0.865000
-0.008666 0.011118 0.868000
0.035679 -0.025033 0.896000
-0.012281 0.011873 0.871000
0.033204 -0.018983 0.889000
-0.043442 0.008057 0.885000
0.019223 0.003977 0.869000
0.012143 -0.019610 0.901000
-0.032915 -0.009437 0.886000
0.002868 -0.040332 0.900000
-0.017797 -0.008806 0.896000
0.000617 0.016679 0.860000
-0.033510 0.019446 0.873000
0.016475 -0.003918 0.875000
-0.018821 0.011568 0.875000
-0.043621 0.023425 0.874000
-0.020670 0.018137 0.862000
0.009929 -0.019260 0.902000
0.003971 -0.014000 0.898000
-0.001212 -0.018931 0.904000
-0.016340 -0.008078 0.897000
0.016464 -0.017986 0.894000
-0.006748 -0.026936 0.898000
0.018955 -0.017173 0.890000
-0.041479 -0.010484 0.882000
-0.006478 0.016008 0.862000
0.005851 -0.036378 0.903000
-0.031421 0.009878 0.885000
-0.025061 0.001145 0.892000
0.005006 -0.008698 0.885000
0.039209 -0.007528 0.876000
0.019300 -0.015324 0.889000
-0.022390 0.003699 0.888000
-0.018431 -0.026360 0.891000
-0.035266 0.034856 0.872000
0.004374 -0.027891 0.905000
-0.043442 0.011335 0.885000
-0.010947 0.001852 0.879000
0.030298 -0.011172 0.879000
0.016041 -0.000315 0.871000
0.016719 0.003262 0.869000
0.038214 0.005825 0.878000
-0.014134 0.026724 0.853000
-0.001945 -0.012166 0.899000
0.006237 -0.030499 0.905000
-0.032729 0.013097 0.881000
-0.036954 0.037987 0.878000
0.016006 -0.012031 0.889000
0.018865 0.004693 0.869000
-0.008172 -0.005096 0.892000
-0.014090 0.012246 0.872000
-0.041727 0.025525 0.872000
-0.015953 -0.005119 0.896000
0.012985 -0.034711 0.908000
0.033042 0.009767 0.875000
-0.022858 -0.011337 0.892000
0.014674 -0.004999 0.875000
-0.042032 0.009525 0.886000
-0.003422 -0.035068 0.898000
-0.017666 0.026755 0.854000
0.001365 -0.008343 0.886000
-0.018347 0.029182 0.853000
0.009973 -0.036499 0.906000
-0.015684 0.018824 0.861000
-0.044170 0.008057 0.885000
-0.018535 -0.004750 0.896000
0.039976 -0.019262 0.885000
-0.041479 0.034893 0.882000
-0.014863 -0.007709 0.897000
-0.008976 -0.019566 0.899000
-0.005741 0.018759 0.858000
-0.015232 -0.012877 0.897000
-0.014125 -0.015092 0.897000
-0.025004 -0.013876 0.890000
-0.036843 -0.009416 0.884000
-0.028284 0.021096 0.867000
0.004340 -0.014000 0.898000
-0.018102 0.023703 0.858000
0.017874 -0.001753 0.873000
0.038084 -0.006079 0.875000
0.014137 -0.032165 0.910000
-0.027983 0.011996 0.880000
0.005097 -0.042602 0.901000
-0.018535 -0.008069 0.896000
0.027481 -0.001389 0.870000
-0.032109 0.017670 0.874000
0.002487 -0.012125 0.896000
-0.028301 0.004440 0.890000
0.023220 -0.014891 0.885000
-0.019597 -0.012098 0.894000
0.000263 0.020902 0.859000
0.008830 0.005395 0.867000
-0.014819 0.029498 0.852000
-0.020502 0.032417 0.855000
0.008108 -0.022329 0.906000
-0.021776 0.010523 0.878000
0.033004 -0.007511 0.874000
0.039209 -0.005004 0.876000
0.015271 0.005759 0.868000
0.038937 0.001127 0.878000
-0.006029 -0.020351 0.901000
0.002035 0.014572 0.861000
0.018150 0.006123 0.869000
-0.007496 -0.020676 0.899000
0.014137 -0.031416 0.910000
0.022230 -0.025628 0.904000
-0.041842 -0.006491 0.882000
-0.026866 -0.007657 0.891000
0.022110 0.000759 0.870000
0.045076 -0.013798 0.885000
-0.039844 0.004055 0.886000
0.033042 -0.009320 0.875000
-0.027233 0.002611 0.891000
-0.023225 0.001513 0.892000
0.024900 -0.009374 0.880000
-0.024666 -0.011324 0.891000
-0.008868 0.026373 0.853000
-0.006350 -0.006947 0.894000
-0.011196 -0.010316 0.899000
0.009621 -0.029852 0.908000
-0.008204 0.020853 0.857000
-0.018473 -0.001059 0.893000
-0.009637 0.019488 0.859000
0.018275 -0.003558 0.875000
0.001385 -0.040287 0.899000
-0.030137 0.020787 0.869000
-0.020502 0.033121 0.855000
0.014976 -0.015025 0.893000
-0.041385 0.033727 0.880000
0.016777 -0.029951 0.911000
0.005625 0.003258 0.868000
-0.024687 0.018934 0.866000
-0.010814 -0.018066 0.898000
0.028230 -0.003542 0.871000
-0.029848 0.018684 0.871000
-0.019206 0.020926 0.860000
0.001387 -0.038850 0.900000
-0.033637 0.025379 0.867000
0.020670 -0.011248 0.885000
-0.046872 0.002582 0.881000
-0.031821 -0.011990 0.886000
-0.028635 -0.009469 0.889000
0.016240 -0.021488 0.902000
-0.009581 0.024295 0.854000
0.013142 0.003262 0.869000
-0.025679 -0.018961 0.888000
-0.024610 -0.018617 0.889000
0.020553 -0.007925 0.880000
-0.009346 -0.018456 0.899000
0.012251 -0.031008 0.909000
0.014352 -0.019588 0.900000
0.002872 -0.036668 0.901000
-0.039664 -0.010121 0.882000
0.014590 0.001833 0.870000
-0.000444 0.016659 0.859000
-0.017499 0.006570 0.881000
-0.035462 0.025765 0.868000
0.012089 -0.016200 0.897000
-0.015593 0.024000 0.856000
-0.033644 -0.016001 0.886000
-0.037741 0.006257 0.888000
0.041480 -0.020013 0.886000
0.043157 -0.011586 0.883000
0.021394 0.001475 0.870000
-0.008966 -0.022501 0.898000
0.010346 -0.036872 0.906000
-0.008577 -0.029458 0.896000
-0.008527 0.028161 0.854000
-0.017389 -0.016146 0.894000
0.003553 -0.008708 0.886000
0.033402 0.009767 0.875000
-0.041937 0.035700 0.884000
-0.032528 0.026062 0.866000
-0.045088 -0.009175 0.896000
-0.004161 -0.032480 0.898000
-0.008254 -0.015531 0.901000
0.040744 -0.008991 0.878000
0.008472 -0.037203 0.905000
-0.026776 -0.016403 0.888000
0.035161 -0.015584 0.883000
0.022800 0.001474 0.869000
-0.000805 0.007171 0.866000
0.015429 -0.018805 0.898000
-0.017976 0.015065 0.869000
0.037361 -0.027026 0.901000
-0.031816 0.025349 0.866000
-0.009895 -0.000682 0.882000
0.019621 -0.012004 0.887000
0.038981 0.007279 0.879000
-0.024715 0.017171 0.867000
0.004360 -0.035595 0.902000
0.014121 -0.033627 0.909000
0.009196 -0.043068 0.903000
-0.016340 -0.006970 0.897000
0.009533 0.007528 0.866000
-0.034033 0.028623 0.868000
-0.013388 0.010104 0.873000
0.037215 -0.014082 0.880000
-0.007979 0.006496 0.871000
-0.034033 0.029338 0.868000
0.023975 -0.017095 0.886000
-0.027600 0.002978 0.891000
-0.024244 -0.018617 0.889000
-0.036534 0.026837 0.868000
-0.016926 0.000776 0.889000
-0.038320 0.026122 0.868000
0.024381 -0.024431 0.901000
-0.029733 0.005898 0.889000
0.031134 0.002914 0.872000
0.013097 0.008597 0.866000
-0.019943 -0.000691 0.893000
-0.042542 0.027742 0.874000
-0.043442 0.011700 0.885000
0.033364 0.004720 0.874000
0.008125 0.003973 0.868000
-0.014814 -0.003267 0.894000
0.035002 -0.012619 0.879000
-0.048685 0.005120 0.881000
-0.001207 -0.032553 0.900000
0.008088 0.009644 0.864000
-0.043196 0.031554 0.880000
-0.025159 0.014366 0.870000
-0.011882 0.013976 0.868000
0.016700 0.005759 0.868000
-0.022415 -0.023373 0.889000
-0.037486 0.039975 0.882000
0.004904 0.004682 0.867000
0.012947 -0.008287 0.880000
-0.007121 0.024998 0.854000
0.019311 -0.002113 0.873000
-0.022851 0.018890 0.864000
-0.047127 -0.003574 0.879000
0.026437 -0.003542 0.871000
-0.019619 -0.009533 0.895000
-0.008568 -0.033477 0.895000
-0.019914 0.022696 0.860000
0.018529 0.000759 0.870000
0.020716 -0.014559 0.887000
-0.041870 0.029574 0.875000
-0.040938 0.010619 0.886000
-0.042883 0.017086 0.881000
-0.017021 -0.019457 0.894000
-0.029432 0.012720 0.880000
-0.011525 0.013976 0.868000
-0.028732 -0.000323 0.892000
-0.001517 0.007884 0.866000
-0.007824 0.026404 0.854000
0.018839 -0.022601 0.902000
0.010234 0.014639 0.865000
-0.039115 0.001502 0.886000
0.021060 -0.001391 0.871000
-0.028121 0.028425 0.862000
-0.010284 0.024998 0.854000
-0.040199 0.027615 0.870000
0.021253 -0.006830 0.879000
0.038893 -0.010785 0.877000
0.018860 -0.023370 0.903000
0.023569 -0.002466 0.871000
-0.017757 -0.017250 0.894000
-0.012509 0.018846 0.862000
0.023542 0.005056 0.870000
-0.015908 0.026052 0.854000
-0.013342 0.012934 0.870000
0.004731 -0.038565 0.902000
-0.010972 0.000769 0.881000
0.011079 -0.043908 0.905000
-0.036277 -0.001432 0.897000
0.014556 0.005044 0.868000
0.002045 0.008943 0.865000
0.008472 -0.020814 0.905000
-0.001854 0.021559 0.857000
0.006982 -0.020069 0.905000
-0.004878 -0.007683 0.894000
0.009356 -0.009405 0.883000
0.031456 -0.001749 0.871000
-0.010107 0.011488 0.869000
0.006696 0.002901 0.868000
0.030739 0.002911 0.871000
0.026377 0.000401 0.869000
0.005097 -0.042972 0.901000
0.031529 0.006870 0.873000
-0.049298 0.000405 0.879000
-0.033026 0.005898 0.889000
-0.011896 -0.021345 0.896000
0.035202 0.001484 0.875000
-0.032550 -0.013084 0.886000
0.029272 -0.000673 0.870000
-0.016304 -0.004376 0.895000
0.003246 -0.036338 0.902000
0.035758 -0.026567 0.898000
-0.034086 -0.003246 0.888000
0.033554 -0.012257 0.879000
-0.001505 0.018073 0.859000
0.034225 -0.018210 0.887000
0.035389 -0.026197 0.898000
0.004876 0.019201 0.862000
-0.002305 -0.009533 0.895000
-0.003303 0.007180 0.867000
-0.026993 0.029421 0.860000
-0.022415 -0.022642 0.889000
0.024871 -0.008278 0.879000
0.020152 -0.028826 0.911000
0.010305 -0.000315 0.871000
0.002387 0.018448 0.860000
0.022110 -0.000315 0.870000
-0.001878 0.006116 0.868000
-0.010284 0.023592 0.854000
-0.019605 0.018137 0.862000
0.001020 -0.026343 0.903000
-0.026836 -0.011678 0.890000
0.029664 0.005062 0.871000
0.037810 0.002931 0.877000
-0.021069 -0.001796 0.894000
-0.008806 0.000407 0.882000
-0.004319 0.022590 0.856000
-0.044283 -0.007563 0.880000
0.011772 -0.018868 0.901000
-0.029367 -0.008738 0.889000
-0.040753 -0.006128 0.882000
0.010700 -0.003194 0.874000
-0.007866 -0.009946 0.899000
-0.013710 -0.024241 0.894000
-0.020724 -0.006586 0.895000
0.007710 -0.041581 0.903000
-0.048519 -0.002848 0.878000
-0.031929 -0.003615 0.889000
0.023320 -0.025228 0.903000
-0.006029 -0.017385 0.901000
-0.047084 0.010243 0.885000
-0.028121 0.029135 0.862000
-0.032469 0.018029 0.874000
0.041467 -0.005739 0.878000
-0.017923 0.004774 0.884000
0.008491 -0.029446 0.907000
0.016362 0.010058 0.869000
-0.030355 0.024964 0.865000
0.033800 0.011220 0.876000
0.010281 0.002189 0.869000
0.013241 -0.018847 0.900000
-0.002223 0.013895 0.863000
0.001679 0.016679 0.860000
0.033325 -0.006784 0.873000
-0.033026 -0.001054 0.889000
0.038664 -0.014444 0.880000
-0.029034 -0.007649 0.890000
-0.029067 0.002611 0.891000
-0.014446 -0.023137 0.894000
-0.018777 0.001143 0.890000
-0.038761 0.017750 0.878000
0.012444 -0.015813 0.896000
0.014592 -0.013907 0.892000
0.005605 0.009299 0.865000
-0.046298 0.024588 0.877000
-0.034229 0.033818 0.873000
0.038664 0.011634 0.880000
-0.024471 0.013307 0.871000
0.036046 0.010523 0.878000
-0.031857 -0.017480 0.887000
0.017391 -0.009791 0.885000
0.008453 -0.040838 0.903000
0.005492 -0.019697 0.905000
-0.003966 0.024704 0.856000
-0.000448 0.008943 0.865000
0.042334 0.005483 0.881000
0.012597 -0.037286 0.907000
-0.025057 0.011259 0.879000
0.003246 -0.042278 0.902000
-0.015165 -0.026419 0.893000
-0.033637 0.027163 0.867000
-0.004017 0.007536 0.867000
0.010369 -0.024247 0.908000
0.007289 -0.014354 0.897000
0.000276 -0.026343 0.903000
-0.030465 0.005898 0.889000
0.018338 -0.006100 0.878000
0.010334 -0.038693 0.905000
0.030486 -0.007151 0.874000
0.015464 -0.007192 0.879000
0.024815 -0.007176 0.877000
0.022466 -0.011235 0.884000
-0.007479 -0.029122 0.897000
-0.013046 -0.011426 0.899000
-0.012451 -0.000320 0.883000
-0.044797 0.004405 0.883000
-0.010453 0.013618 0.868000
-0.014139 0.008686 0.875000
0.014706 -0.018826 0.899000
0.003825 0.007875 0.865000
-0.034817 0.008085 0.888000
-0.013342 -0.004003 0.894000
-0.020010 -0.006963 0.896000
-0.043821 0.029314 0.878000
-0.013783 0.031288 0.853000
-0.027841 -0.018575 0.887000
-0.020701 -0.011730 0.894000
-0.025033 -0.009857 0.891000
-0.038497 0.021936 0.872000
-0.017983 0.002599 0.887000
-0.012042 0.024295 0.854000
-0.034490 0.005166 0.889000
-0.039479 0.004055 0.886000
-0.020478 0.029919 0.854000
0.008097 0.008231 0.865000
-0.000797 0.020171 0.858000
-0.025072 0.017528 0.867000
-0.027111 -0.020035 0.887000
-0.034047 -0.004702 0.887000
-0.011322 0.001492 0.880000
0.005261 0.004682 0.867000
-0.007848 -0.027645 0.897000
-0.003049 -0.036505 0.897000
0.036241 -0.007151 0.874000
0.021108 -0.002831 0.873000
0.000616 0.023023 0.859000
0.005057 -0.011730 0.894000
-0.002940 0.009655 0.865000
-0.029433 -0.000323 0.891000
0.047798 -0.013320 0.902000
-0.022541 -0.007315 0.894000
0.006295 0.014234 0.862000
-0.032566 0.023238 0.867000
-0.033796 0.004440 0.890000
-0.045888 0.006585 0.883000
-0.047597 0.002582 0.881000
-0.014548 0.004380 0.878000
-0.026639 0.028005 0.860000
-0.035819 0.028266 0.868000
-0.019229 -0.002164 0.894000
-0.031857 0.008440 0.887000
-0.027998 0.000411 0.892000
-0.019583 0.018824 0.861000
0.042400 -0.022301 0.890000
-0.020622 0.023050 0.860000
0.033631 -0.013735 0.881000
-0.042665 0.003682 0.884000
-0.004845 -0.006535 0.888000
-0.003800 -0.026996 0.900000
0.005728 -0.007597 0.884000
0.010340 -0.002835 0.874000
-0.018125 -0.014674 0.894000
-0.035428 -0.009427 0.885000
0.016569 -0.007200 0.880000
0.006251 -0.023847 0.907000
0.027481 0.002550 0.870000
-0.009403 0.008637 0.870000
-0.028121 0.026297 0.862000
0.014480 -0.037700 0.908000
0.011746 -0.017346 0.899000
-0.032295 -0.002151 0.889000
0.038084 -0.008240 0.875000
-0.014780 -0.028225 0.892000
0.007710 -0.039723 0.903000
-0.037248 0.026480 0.868000
0.029541 -0.010075 0.878000
0.012611 -0.036206 0.908000
0.007759 0.006466 0.867000
0.021752 0.002908 0.870000
0.018887 0.007921 0.870000
0.009984 -0.033926 0.907000
-0.018017 0.026755 0.854000
0.040247 -0.023059 0.891000
-0.028936 -0.016384 0.887000
-0.008208 -0.031671 0.896000
-0.006433 0.021533 0.856000
-0.031852 0.022881 0.867000
-0.005281 -0.012550 0.900000
0.010293 0.000043 0.870000
0.002509 -0.026372 0.904000
-0.033894 0.012037 0.883000
-0.047609 0.028552 0.888000
-0.032295 -0.003249 0.889000
-0.010086 -0.009576 0.899000
0.026407 -0.001389 0.870000
-0.034430 0.030802 0.869000
-0.010974 0.030937 0.853000
-0.010723 0.018824 0.861000
-0.030320 0.026713 0.864000
-0.004179 -0.020374 0.902000
0.035484 -0.014840 0.882000
-0.029733 -0.006908 0.889000
0.019621 -0.012369 0.887000
-0.011690 0.024647 0.854000
-0.031677 0.011660 0.882000
-0.001516 0.011079 0.865000
-0.025679 -0.018596 0.888000
-0.004138 -0.007674 0.893000
0.005735 -0.009427 0.885000
0.016722 -0.026115 0.908000
-0.013386 -0.007339 0.897000
0.026032 -0.020193 0.894000
0.014870 -0.026144 0.909000
0.009227 -0.033889 0.906000
0.040751 -0.020013 0.886000
-0.035103 0.010619 0.886000
-0.048992 0.002217 0.880000
-0.020478 0.028864 0.854000
-0.033392 -0.001054 0.889000
-0.021197 0.006593 0.884000
-0.012238 -0.028288 0.894000
-0.017021 -0.017250 0.894000
0.008144 0.000401 0.870000
0.009731 -0.009780 0.884000
0.039836 -0.022301 0.890000
0.005864 -0.030871 0.905000
0.005119 -0.028636 0.905000
-0.019208 -0.017598 0.893000
0.026618 -0.018617 0.889000
0.013373 -0.027266 0.909000
-0.019898 -0.022693 0.891000
-0.037291 0.023291 0.869000
0.040883 0.010196 0.881000
-0.030711 0.025320 0.865000
-0.044434 0.004768 0.883000
-0.025004 -0.014242 0.890000
0.003557 -0.009813 0.887000
