0.008631 -0.030692 0.922000
-0.006002 -0.002540 0.897000
-0.034335 0.016435 0.885000
-0.043029 0.022602 0.884000
-0.017681 -0.012675 0.909000
0.038715 -0.015109 0.898000
0.015463 -0.008846 0.900000
-0.018429 -0.002948 0.909000
-0.041308 0.013290 0.894000
-0.022793 -0.020047 0.904000
0.018939 -0.028888 0.925000
-0.026367 0.005965 0.899000
-0.005328 -0.006682 0.908000
-0.024054 0.011660 0.882000
-0.013621 0.022828 0.865000
0.001790 -0.015429 0.917000
-0.043389 0.000784 0.899000
-0.019199 -0.006322 0.910000
-0.012253 0.018641 0.869000
0.033495 0.011361 0.887000
0.008962 -0.038829 0.917000
0.007484 -0.027247 0.921000
-0.001528 0.014399 0.872000
0.016704 -0.013021 0.907000
0.010494 -0.033618 0.919000
-0.016583 0.018684 0.871000
-0.009846 -0.023202 0.911000
-0.009824 -0.030259 0.909000
0.022156 -0.014047 0.901000
-0.018804 -0.003322 0.909000
0.033092 0.008431 0.886000
0.033386 -0.022526 0.914000
-0.002733 -0.012006 0.915000
0.021105 -0.003611 0.888000
0.011110 0.008355 0.878000
0.015824 -0.038998 0.921000
0.009207 -0.010373 0.904000
-0.041260 0.005978 0.901000
-0.033175 0.004504 0.903000
0.030079 -0.012098 0.894000
-0.021829 0.006306 0.895000
-0.000097 -0.014297 0.917000
0.036208 -0.015143 0.900000
0.028982 -0.001047 0.883000
0.004258 0.002944 0.881000
-0.040482 0.019327 0.884000
0.039425 0.001507 0.889000
0.028464 -0.020247 0.913000
0.007565 -0.001415 0.886000
0.018877 -0.022723 0.922000
-0.034878 -0.014016 0.899000
-0.041862 -0.003652 0.898000
0.035280 0.001502 0.886000
-0.017662 -0.026489 0.908000
-0.008666 0.019335 0.868000
-0.003479 -0.030017 0.913000
-0.005099 0.022576 0.869000
-0.023329 0.006682 0.896000
-0.025855 -0.005555 0.907000
-0.039203 0.034034 0.888000
0.027134 0.001133 0.882000
-0.037552 -0.001068 0.901000
-0.028747 -0.010745 0.904000
0.007838 -0.034337 0.918000
-0.038794 0.016837 0.887000
0.022907 -0.003607 0.887000
-0.023890 0.015907 0.876000
0.020963 0.002585 0.882000
-0.040148 0.007461 0.901000
0.007533 -0.028188 0.927000
-0.042232 -0.005500 0.898000
0.005929 -0.038744 0.915000
-0.033341 0.021725 0.878000
-0.011142 0.022854 0.866000
0.014033 0.008374 0.880000
-0.020674 -0.007438 0.909000
-0.019199 -0.008569 0.910000
-0.037593 0.002643 0.902000
0.034955 0.004060 0.887000
-0.005176 0.005126 0.882000
-0.016220 -0.005954 0.911000
-0.025370 -0.019282 0.903000
-0.024362 -0.005928 0.907000
-0.006741 -0.001432 0.897000
-0.040148 0.001528 0.901000
-0.009824 -0.005567 0.909000
0.001413 -0.022600 0.917000
-0.012115 0.006600 0.885000
0.032045 -0.018641 0.908000
-0.007961 0.018641 0.869000
-0.030762 0.011726 0.887000
0.028586 0.004400 0.882000
0.002066 0.012274 0.874000
-0.037039 0.023224 0.880000
-0.017642 -0.020487 0.907000
-0.024015 -0.005561 0.908000
-0.019924 0.013744 0.876000
-0.006478 -0.026230 0.912000
-0.007245 -0.017636 0.914000
0.031962 0.008057 0.885000
0.014496 -0.013424 0.909000
-0.026856 -0.017052 0.903000
-0.014689 0.022472 0.865000
-0.011498 0.027131 0.866000
-0.002248 0.013338 0.873000
-0.043933 -0.011007 0.895000
-0.026444 0.018091 0.877000
0.034585 -0.018600 0.906000
0.023957 -0.014016 0.899000
0.016221 -0.021585 0.922000
-0.034700 0.001161 0.904000
0.005696 0.005832 0.879000
-0.041903 0.015446 0.891000
0.024090 -0.017071 0.904000
-0.045138 0.031795 0.897000
-0.031108 0.008536 0.897000
0.016700 -0.002877 0.887000
0.039691 -0.013585 0.895000
-0.021077 0.012706 0.879000
0.012208 0.011259 0.879000
-0.049715 0.018421 0.893000
-0.041260 0.007461 0.901000
0.004595 0.009778 0.876000
0.033018 -0.001776 0.884000
-0.021025 -0.002945 0.908000
-0.017893 0.024252 0.865000
0.011524 0.002222 0.882000
-0.014316 0.024935 0.864000
0.041579 -0.014338 0.896000
0.006712 -0.017354 0.919000
-0.039619 0.023250 0.881000
0.003605 -0.007726 0.899000
-0.000479 -0.036883 0.925000
-0.032767 -0.007380 0.902000
0.026429 -0.011007 0.895000
0.003505 0.013713 0.874000
-0.010665 -0.030903 0.917000
-0.004525 -0.003278 0.897000
-0.020886 0.020118 0.871000
0.014719 -0.028446 0.923000
-0.016933 -0.015668 0.909000
-0.009906 0.006585 0.883000
-0.047350 0.020923 0.890000
0.008622 -0.022319 0.921000
0.018505 -0.001415 0.886000
0.009748 -0.030626 0.920000
0.032143 -0.008015 0.890000
-0.000093 0.007984 0.877000
0.006030 0.014088 0.875000
0.031669 -0.006162 0.887000
-0.012069 -0.026518 0.909000
0.005942 -0.033923 0.917000
-0.038881 0.015412 0.889000
0.015862 0.004757 0.881000
0.010266 -0.009576 0.899000
0.034629 -0.007266 0.888000
-0.025968 0.006328 0.898000
-0.043785 0.015464 0.892000
-0.002739 -0.015806 0.917000
-0.025855 -0.001075 0.907000
-0.007691 0.010897 0.879000
0.046196 -0.008541 0.907000
-0.002259 0.010150 0.877000
-0.003677 0.016175 0.871000
0.000267 0.017988 0.872000
-0.019552 -0.008560 0.909000
0.015445 -0.036724 0.921000
-0.021773 -0.008551 0.908000
-0.021317 0.009923 0.889000
0.034551 -0.004332 0.886000
-0.000466 -0.007743 0.901000
0.046808 -0.005250 0.919000
-0.036028 0.008194 0.900000
-0.039619 0.025063 0.881000
-0.041209 0.019691 0.884000
0.032654 -0.000684 0.884000
-0.004430 0.009439 0.878000
0.020241 -0.019161 0.915000
-0.011009 0.006593 0.884000
-0.030345 0.027774 0.875000
-0.042875 -0.009913 0.896000
-0.046147 0.022338 0.888000
-0.047037 0.023881 0.891000
0.040157 -0.002883 0.889000
-0.049771 0.018074 0.894000
-0.042492 0.028917 0.888000
-0.037923 0.007461 0.901000
-0.006123 -0.016148 0.915000
0.011833 0.009078 0.878000
-0.022730 0.018009 0.873000
0.008622 -0.024215 0.921000
0.000267 0.014056 0.873000
-0.018971 0.012749 0.882000
-0.019552 -0.010057 0.909000
-0.031013 0.002280 0.905000
-0.002620 0.008345 0.877000
0.009759 -0.024973 0.921000
0.039558 0.013995 0.892000
-0.023511 0.002646 0.903000
0.014719 -0.024647 0.923000
0.016299 -0.001413 0.885000
-0.021801 0.012706 0.879000
-0.016806 0.027424 0.864000
-0.010785 0.024636 0.866000
0.038327 0.004069 0.889000
-0.031247 0.006349 0.901000
0.030904 -0.005061 0.886000
0.019874 0.005489 0.882000
0.033055 0.001865 0.885000
0.017490 -0.004718 0.890000
0.006758 0.013744 0.876000
0.002537 -0.035692 0.914000
-0.020300 -0.008934 0.909000
-0.042032 0.027758 0.886000
-0.041890 0.021486 0.883000
0.013520 -0.041940 0.919000
-0.042326 0.005971 0.900000
0.037553 0.003699 0.888000
-0.015828 0.007362 0.889000
-0.042696 0.007823 0.900000
0.008593 -0.041138 0.918000
0.002434 0.009067 0.877000
-0.015402 -0.024593 0.907000
0.011746 -0.009206 0.899000
0.026857 -0.014354 0.897000
0.015841 -0.034108 0.922000
0.025348 -0.001410 0.883000
-0.018799 0.015871 0.874000
-0.043019 0.010775 0.899000
-0.041354 0.036512 0.895000
-0.009076 -0.030634 0.909000
0.009727 -0.036227 0.918000
-0.009502 -0.012369 0.914000
-0.032767 -0.007752 0.902000
-0.005457 0.020787 0.869000
0.020600 0.000770 0.882000
0.008766 -0.008078 0.897000
0.017077 -0.013767 0.907000
0.001757 -0.006253 0.900000
0.020260 -0.000320 0.883000
0.037271 0.012498 0.890000
-0.038862 -0.012508 0.897000
-0.043662 -0.003648 0.897000
-0.007961 0.017926 0.869000
0.031234 0.007329 0.885000
0.032290 -0.002867 0.884000
-0.019719 0.022167 0.867000
-0.038982 0.018942 0.883000
0.002437 0.006909 0.878000
0.010861 -0.040005 0.918000
-0.020446 0.012037 0.883000
-0.044220 0.021923 0.886000
0.010072 0.002222 0.882000
-0.028111 0.011323 0.884000
0.028339 -0.017913 0.909000
-0.034645 0.012173 0.893000
-0.026975 -0.001822 0.907000
0.009742 -0.001778 0.885000
-0.045519 0.017260 0.890000
0.005528 -0.011578 0.911000
-0.036361 0.014330 0.890000
0.006774 0.007271 0.878000
0.037360 -0.021678 0.910000
-0.040429 -0.002546 0.899000
-0.006967 0.009811 0.879000
-0.024057 0.022218 0.869000
0.027716 -0.006176 0.889000
0.026163 -0.003968 0.886000
0.009621 -0.011540 0.908000
-0.029764 -0.018868 0.901000
-0.029524 0.024448 0.872000
0.008238 0.004390 0.880000
0.001790 -0.023732 0.917000
-0.021528 0.030767 0.868000
0.024117 -0.017462 0.905000
-0.010363 0.001878 0.891000
0.037919 0.001871 0.888000
0.020843 -0.025462 0.925000
-0.002960 0.016175 0.871000
-0.006853 -0.026606 0.912000
-0.038166 0.010393 0.898000
0.010105 -0.036982 0.918000
-0.041492 0.010763 0.898000
-0.034878 -0.013646 0.899000
-0.029235 0.011335 0.885000
-0.022098 -0.015617 0.906000
-0.020928 0.010277 0.888000
-0.008355 -0.008213 0.912000
-0.030345 0.021291 0.875000
-0.039777 0.007090 0.901000
0.031218 -0.012480 0.895000
0.047577 -0.008213 0.912000
-0.013595 -0.014578 0.911000
0.018157 -0.012992 0.905000
-0.022448 0.014465 0.876000
-0.027971 -0.013707 0.903000
-0.015437 0.020740 0.867000
0.027934 -0.017520 0.908000
0.010149 -0.021964 0.922000
0.038737 0.009202 0.890000
0.039469 -0.009114 0.890000
-0.047037 0.006697 0.898000
-0.017269 -0.020860 0.907000
0.038998 -0.013969 0.896000
0.019019 -0.005837 0.893000
0.017836 -0.003981 0.889000
0.010094 -0.016561 0.917000
-0.030505 -0.017014 0.901000
0.036172 0.015063 0.890000
0.009288 -0.013843 0.912000
-0.017873 0.026358 0.864000
0.018418 -0.019980 0.918000
0.016980 -0.038282 0.922000
-0.000453 0.009778 0.876000
-0.050195 0.021778 0.895000
0.002170 -0.016579 0.918000
-0.035248 -0.012906 0.899000
-0.050251 0.000044 0.896000
0.031516 -0.009512 0.893000
0.041301 -0.006550 0.890000
0.020693 -0.002144 0.886000
-0.040103 0.008194 0.900000
-0.045102 0.025657 0.889000
0.015658 -0.005451 0.890000
-0.004606 -0.027011 0.913000
-0.000451 0.016552 0.872000
0.035886 -0.010603 0.892000
0.017777 -0.033421 0.924000
0.037320 -0.015513 0.900000
-0.049035 -0.008051 0.894000
-0.010785 0.021429 0.866000
0.020581 -0.008447 0.897000
-0.022371 0.018368 0.873000
-0.028479 0.021602 0.873000
-0.013580 -0.017184 0.910000
0.030471 -0.002503 0.884000
-0.037427 -0.011783 0.898000
-0.008577 -0.001431 0.896000
-0.037826 0.037407 0.890000
0.033783 -0.000685 0.885000
0.045772 -0.006399 0.921000
0.002926 -0.024892 0.918000
0.003896 0.002582 0.881000
0.016587 0.004032 0.881000
-0.020300 -0.009682 0.909000
0.018777 -0.008836 0.899000
0.040523 -0.004347 0.889000
0.010908 -0.023482 0.922000
0.000269 0.005825 0.878000
0.015115 -0.026195 0.924000
-0.046565 0.019802 0.889000
-0.012549 0.002974 0.890000
0.008593 -0.033960 0.918000
0.032984 -0.016308 0.903000
0.037876 -0.002147 0.887000
0.004253 0.003665 0.880000
0.040247 0.007745 0.891000
0.036826 -0.013985 0.897000
0.002437 0.007271 0.878000
0.033495 0.010266 0.887000
0.006058 0.005832 0.879000
0.013199 -0.023128 0.923000
-0.030168 -0.014805 0.902000
-0.041446 -0.009555 0.897000
-0.031688 -0.006645 0.903000
-0.037754 0.010382 0.897000
0.002817 0.001499 0.884000
-0.016194 0.008094 0.889000
0.004442 -0.020758 0.919000
0.007074 -0.034677 0.917000
-0.031351 -0.003304 0.904000
-0.026866 0.016324 0.879000
0.022577 -0.015937 0.903000
-0.002351 -0.028890 0.913000
-0.033287 0.009632 0.896000
0.005942 -0.034300 0.917000
-0.015402 -0.025713 0.907000
-0.008776 0.011259 0.879000
0.008883 -0.011927 0.909000
-0.005727 -0.028107 0.912000
0.017021 -0.011490 0.904000
-0.049348 0.022097 0.893000
0.011472 0.011969 0.878000
-0.033918 -0.003672 0.903000
0.004234 0.009778 0.876000
0.005310 0.012288 0.875000
-0.007621 -0.016883 0.914000
-0.049900 0.002646 0.903000
-0.016653 0.003356 0.894000
-0.010525 0.015152 0.874000
-0.043710 0.011132 0.898000
-0.045038 -0.008797 0.895000
-0.045189 0.032939 0.898000
0.006030 0.014809 0.875000
0.025635 -0.007674 0.893000
0.042910 -0.007307 0.893000
-0.012845 -0.018328 0.911000
-0.007296 0.013368 0.875000
-0.042326 0.003378 0.900000
-0.015739 0.026713 0.864000
0.005204 -0.021917 0.920000
-0.017701 -0.011566 0.910000
-0.029557 0.022680 0.873000
-0.006244 0.007279 0.879000
-0.043389 0.003004 0.899000
0.041486 -0.012466 0.894000
-0.043613 0.013320 0.896000
-0.028174 0.010254 0.886000
-0.016914 -0.017894 0.908000
-0.039338 -0.002197 0.908000
-0.027661 -0.007405 0.905000
0.006037 0.010139 0.876000
0.034916 0.000044 0.886000
0.033018 -0.001048 0.884000
-0.039256 0.021800 0.881000
0.027318 -0.015513 0.900000
0.010528 -0.023103 0.922000
0.017373 -0.011105 0.903000
-0.020583 -0.021932 0.905000
0.003673 -0.014281 0.916000
0.018463 -0.000320 0.884000
0.014090 -0.012274 0.907000
0.002071 0.009417 0.876000
-0.013280 0.022141 0.866000
-0.028047 0.014201 0.882000
-0.008319 0.018284 0.869000
-0.046984 0.019458 0.890000
0.010083 -0.016166 0.916000
0.034148 -0.002142 0.885000
-0.036520 0.003761 0.903000
-0.028064 0.001163 0.906000
-0.041169 -0.004026 0.899000
0.012412 -0.031038 0.921000
-0.023610 0.012706 0.879000
0.035645 -0.005791 0.886000
-0.045069 0.011938 0.903000
0.030436 -0.001410 0.883000
-0.024362 -0.008541 0.907000
0.028619 0.005858 0.883000
0.020420 -0.004352 0.890000
0.043617 -0.016995 0.900000
0.033428 -0.011743 0.895000
-0.040753 0.025455 0.882000
0.019953 -0.011093 0.902000
0.040552 -0.020091 0.906000
0.039791 0.000044 0.889000
-0.030311 0.022706 0.874000
-0.049827 0.022515 0.895000
0.007484 -0.020424 0.921000
0.019321 -0.003985 0.890000
-0.010607 -0.007838 0.912000
0.043067 -0.019303 0.904000
0.006812 0.000770 0.883000
-0.017269 -0.002195 0.907000
-0.008656 0.022881 0.867000
0.016980 -0.036764 0.922000
-0.009491 -0.016113 0.913000
-0.031758 -0.000700 0.905000
0.033276 -0.020577 0.911000
0.008216 -0.034715 0.918000
-0.001544 0.004395 0.881000
-0.029232 0.021986 0.874000
-0.009565 0.004779 0.885000
0.011173 -0.000320 0.883000
-0.021025 -0.010419 0.908000
-0.024040 0.007043 0.895000
-0.029863 0.003393 0.904000
0.007863 -0.024215 0.921000
-0.026591 0.023676 0.870000
0.001016 -0.007364 0.900000
-0.028064 -0.002938 0.906000
-0.035131 0.010370 0.896000
0.011629 -0.035509 0.919000
0.011846 0.011620 0.879000
-0.011841 0.025320 0.865000
-0.029393 -0.017385 0.901000
-0.031653 -0.011093 0.902000
-0.040390 0.026181 0.882000
0.024367 -0.003607 0.887000
0.029183 -0.019849 0.912000
-0.018409 -0.002197 0.908000
-0.003867 -0.018428 0.916000
0.015445 -0.038998 0.921000
0.039191 0.013995 0.892000
-0.007246 0.018284 0.869000
0.010517 -0.029522 0.921000
-0.028715 -0.013335 0.903000
-0.044301 -0.009165 0.895000
-0.023890 0.015186 0.876000
0.011313 -0.007315 0.894000
-0.028312 -0.016290 0.902000
0.008575 -0.015789 0.916000
0.014706 -0.008466 0.899000
-0.011746 -0.009725 0.913000
-0.027715 0.012400 0.883000
-0.040069 0.015079 0.891000
-0.008355 -0.021726 0.912000
0.041440 0.011438 0.893000
0.017470 -0.003981 0.889000
0.017695 0.007667 0.882000
-0.018411 0.008103 0.890000
-0.004384 0.020787 0.869000
-0.010835 0.017589 0.870000
0.029151 -0.019452 0.911000
-0.001228 -0.022198 0.916000
-0.004753 0.015099 0.871000
-0.032952 0.014647 0.887000
-0.036718 0.019987 0.881000
0.021676 -0.018723 0.912000
-0.032581 0.020979 0.877000
-0.028838 0.012778 0.884000
-0.016085 0.011673 0.883000
0.005193 -0.016201 0.918000
0.020462 -0.026985 0.925000
0.002785 0.011914 0.874000
-0.036676 0.022862 0.880000
0.009303 0.007632 0.878000
-0.038619 0.029481 0.883000
-0.000851 -0.023706 0.916000
-0.019509 -0.001075 0.907000
-0.021652 0.017290 0.873000
0.030073 -0.001047 0.883000
0.022415 0.003674 0.882000
-0.018228 0.026002 0.864000
-0.029151 0.002652 0.905000
-0.015828 -0.004450 0.910000
0.015859 -0.022748 0.923000
-0.015811 0.008085 0.888000
-0.013551 -0.026489 0.908000
0.006313 -0.035771 0.916000
0.012770 -0.007307 0.893000
-0.011708 -0.020929 0.910000
-0.011476 0.001145 0.892000
-0.006853 -0.024729 0.912000
0.010387 0.009078 0.878000
0.046262 -0.016272 0.901000
-0.022704 0.019783 0.872000
-0.020278 -0.002197 0.908000
-0.011733 -0.008588 0.912000
-0.003490 -0.013150 0.916000
0.035685 0.001869 0.887000
-0.023165 -0.019675 0.904000
0.030141 -0.004692 0.885000
0.004610 0.005108 0.879000
0.008612 -0.026460 0.920000
-0.017996 -0.023448 0.906000
-0.010619 -0.015362 0.913000
-0.013280 0.021429 0.866000
-0.022574 0.030374 0.867000
0.031962 -0.004327 0.885000
-0.015063 0.008440 0.887000
-0.023856 0.003386 0.902000
0.003887 0.005832 0.879000
0.008776 -0.008826 0.898000
0.042270 -0.012849 0.895000
0.011615 -0.004713 0.889000
0.032034 -0.006162 0.887000
0.002916 -0.037615 0.915000
0.008571 0.013038 0.877000
0.008571 0.013399 0.877000
-0.012829 0.009503 0.884000
-0.043341 -0.003282 0.898000
0.031304 0.012456 0.887000
-0.023876 -0.023732 0.917000
0.018386 -0.008456 0.898000
-0.010584 -0.025049 0.910000
0.030436 -0.000683 0.883000
-0.006838 -0.031042 0.910000
0.036739 -0.003968 0.886000
-0.006173 0.017926 0.869000
-0.049771 -0.002532 0.894000
-0.025770 -0.017071 0.904000
-0.023165 -0.021163 0.904000
-0.024444 0.010946 0.883000
-0.031279 0.017811 0.881000
-0.039256 0.023250 0.881000
-0.046355 0.016198 0.892000
-0.043806 0.022627 0.885000
-0.039836 0.037575 0.894000
-0.042506 -0.009913 0.896000
0.031532 -0.016326 0.904000
0.005916 -0.013107 0.913000
-0.020278 -0.002571 0.908000
0.016221 -0.034866 0.922000
0.003677 -0.014674 0.917000
-0.047563 -0.006947 0.894000
-0.037593 0.000045 0.902000
-0.012845 -0.016078 0.911000
0.025164 -0.021067 0.916000
-0.014316 0.008796 0.886000
-0.018075 -0.010068 0.910000
-0.045979 0.008185 0.899000
0.006820 0.000044 0.884000
-0.035590 0.021775 0.880000
0.020443 -0.005090 0.891000
0.010482 -0.002144 0.886000
-0.047723 0.003367 0.897000
0.041027 0.009589 0.892000
-0.016825 0.029236 0.865000
-0.026142 -0.014094 0.904000
0.020369 -0.014838 0.904000
-0.001172 0.011914 0.874000
0.040568 0.002974 0.890000
0.026961 -0.019871 0.913000
0.033190 -0.023406 0.919000
0.012361 -0.005451 0.890000
-0.018450 -0.005199 0.910000
-0.020539 0.010996 0.887000
0.018714 -0.007331 0.896000
-0.029151 -0.005915 0.905000
0.033419 0.002593 0.885000
-0.020742 0.024252 0.865000
-0.045239 0.004855 0.899000
-0.013952 0.008796 0.886000
-0.004976 -0.033362 0.912000
0.028366 -0.014740 0.898000
-0.007595 0.022193 0.868000
0.027187 -0.017520 0.908000
-0.014219 0.013082 0.880000
-0.024358 0.025022 0.867000
-0.035033 0.002646 0.903000
0.038413 0.012879 0.891000
0.029179 -0.006542 0.889000
-0.023909 -0.020419 0.904000
0.019296 -0.015990 0.906000
0.010026 0.007993 0.878000
-0.042253 0.021849 0.883000
0.032692 -0.012112 0.895000
-0.007621 -0.017259 0.914000
-0.021048 -0.006689 0.909000
-0.043982 -0.008069 0.896000
-0.006016 -0.004766 0.899000
0.013373 -0.013424 0.909000
-0.013235 -0.010090 0.912000
0.007036 -0.013093 0.912000
0.006758 0.014465 0.876000
-0.019882 -0.015634 0.907000
0.005923 -0.013498 0.914000
0.031962 0.005872 0.885000
-0.007329 0.009811 0.879000
0.001345 0.016571 0.873000
-0.027630 -0.011117 0.904000
0.013475 -0.006190 0.891000
0.036196 -0.020532 0.909000
0.048810 -0.005598 0.914000
0.002170 -0.022625 0.918000
-0.001600 -0.010852 0.913000
-0.040799 0.010405 0.899000
0.022172 -0.020713 0.917000
-0.000093 0.008345 0.877000
-0.010958 -0.024300 0.910000
0.026378 0.002582 0.881000
-0.021725 -0.015244 0.906000
-0.013610 -0.010840 0.912000
0.012059 -0.025027 0.923000
-0.045000 0.023774 0.887000
-0.032729 0.018174 0.881000
-0.047776 0.005588 0.898000
0.029313 0.001133 0.882000
0.030073 0.004768 0.883000
0.030800 0.000770 0.883000
-0.029425 -0.014805 0.902000
-0.047824 0.023908 0.892000
-0.006853 -0.024354 0.912000
-0.012228 -0.030280 0.921000
0.037919 0.002237 0.888000
0.002929 -0.019245 0.919000
-0.021725 -0.017108 0.906000
-0.006229 0.011594 0.877000
0.005006 0.000044 0.885000
-0.010995 -0.014234 0.913000
-0.007621 -0.010488 0.914000
0.034994 0.012105 0.888000
-0.049403 -0.007683 0.894000
-0.017873 0.026713 0.864000
-0.019696 0.023211 0.866000
-0.037057 -0.014370 0.898000
0.015189 0.000044 0.884000
-0.044869 0.004855 0.899000
0.005670 0.013368 0.875000
-0.010187 -0.004813 0.908000
-0.043442 0.021899 0.885000
-0.007221 -0.027326 0.911000
0.024928 0.002219 0.881000
-0.041260 0.005607 0.901000
-0.008300 0.022881 0.867000
0.035766 0.013582 0.889000
0.028057 -0.019849 0.912000
-0.029797 0.005242 0.902000
0.040834 -0.019303 0.904000
-0.025741 -0.018910 0.903000
-0.044548 0.007453 0.900000
-0.001945 -0.005876 0.899000
-0.025398 -0.016326 0.904000
0.020973 -0.009196 0.898000
-0.043244 -0.010650 0.896000
0.006697 -0.015429 0.917000
0.000626 0.013338 0.873000
-0.016579 0.007004 0.890000
0.013579 -0.028446 0.923000
0.017450 -0.003611 0.888000
0.044457 -0.018147 0.902000
-0.035952 0.024673 0.880000
0.032765 -0.006162 0.887000
-0.015845 -0.006704 0.911000
0.014758 0.008012 0.880000
-0.046615 0.000783 0.897000
-0.020583 -0.022304 0.905000
-0.026602 -0.004062 0.907000
-0.036320 0.014680 0.889000
0.035349 -0.013246 0.897000
-0.045239 0.006335 0.899000
-0.041123 0.011132 0.898000
0.039469 0.004073 0.890000
0.010517 -0.026868 0.921000
-0.049474 -0.008865 0.902000
-0.017893 0.022828 0.865000
0.008571 0.011233 0.877000
0.015099 -0.029206 0.923000
0.043054 -0.013600 0.896000
0.029245 -0.007657 0.891000
-0.021390 0.013399 0.877000
0.006189 -0.007717 0.898000
0.000281 -0.018846 0.918000
-0.033918 -0.002557 0.903000
-0.025370 -0.019653 0.903000
-0.044129 0.003375 0.899000
-0.025798 -0.011875 0.905000
-0.048299 -0.004371 0.894000
-0.012498 -0.010477 0.913000
0.025711 -0.002137 0.883000
-0.010633 0.006585 0.883000
-0.012211 0.021072 0.866000
0.014671 -0.041228 0.920000
-0.021537 0.011673 0.883000
0.001763 -0.009247 0.903000
0.028271 -0.012480 0.895000
-0.016526 0.020406 0.868000
0.035241 -0.001778 0.885000
-0.024654 0.001905 0.904000
-0.039450 0.003015 0.902000
0.024928 0.004032 0.881000
-0.046563 0.029178 0.896000
0.028223 0.003311 0.882000
-0.042601 -0.003282 0.898000
-0.029119 -0.010373 0.904000
-0.011803 0.003337 0.889000
-0.044301 0.013674 0.895000
0.006719 -0.020781 0.920000
-0.026233 0.023318 0.870000
0.013564 -0.021964 0.922000
-0.011937 0.016911 0.872000
0.000276 -0.008123 0.902000
-0.022198 0.006675 0.895000
0.038370 0.008103 0.890000
-0.017679 0.017988 0.872000
0.022196 -0.021491 0.918000
0.003304 -0.022625 0.918000
-0.000851 -0.024083 0.916000
-0.021048 -0.005193 0.909000
-0.027319 -0.005176 0.906000
0.006333 -0.025297 0.919000
-0.025458 0.024336 0.868000
-0.015402 -0.025340 0.907000
0.018304 -0.006211 0.894000
0.044898 -0.011019 0.896000
-0.009460 -0.027671 0.910000
-0.034738 0.015724 0.886000
0.038474 -0.016643 0.901000
-0.032952 0.015012 0.887000
-0.033547 -0.002929 0.903000
-0.006215 0.013008 0.875000
-0.046618 0.018359 0.890000
0.037817 -0.022852 0.912000
0.026408 0.000407 0.882000
-0.047457 0.016565 0.892000
-0.021797 -0.005193 0.909000
0.039647 -0.012834 0.894000
-0.013418 0.015529 0.875000
-0.035405 -0.002557 0.903000
0.048650 -0.008954 0.911000
-0.028871 0.011335 0.885000
0.030815 -0.010994 0.894000
-0.015845 -0.009329 0.911000
-0.011244 0.015152 0.874000
0.001788 -0.029361 0.916000
0.018589 -0.003985 0.890000
-0.025026 -0.017815 0.904000
0.015120 0.009460 0.880000
-0.021375 -0.014514 0.907000
0.013309 0.004752 0.880000
-0.030268 -0.004053 0.905000
-0.015436 -0.003696 0.909000
-0.032476 0.010347 0.894000
0.017035 -0.026985 0.925000
-0.045937 0.016913 0.891000
-0.041937 0.020055 0.884000
-0.021305 -0.023396 0.904000
0.009001 -0.021182 0.921000
-0.026113 -0.017423 0.903000
0.013671 0.011271 0.880000
-0.004031 0.020453 0.870000
0.014703 -0.033728 0.922000
-0.049293 0.020971 0.892000
0.018570 -0.016007 0.907000
-0.035170 0.009643 0.897000
-0.008673 -0.004430 0.906000
0.018538 -0.031900 0.924000
-0.045491 0.013811 0.904000
0.037072 -0.017423 0.903000
-0.005281 -0.005141 0.900000
0.013944 -0.029933 0.922000
-0.008386 0.013383 0.876000
-0.046667 0.005588 0.898000
-0.026946 0.001163 0.906000
-0.022894 -0.006682 0.908000
-0.021305 0.001161 0.904000
-0.042397 0.027029 0.886000
-0.046199 0.023095 0.889000
-0.001176 0.007984 0.877000
0.037859 -0.023253 0.913000
0.017776 -0.001415 0.886000
0.006463 -0.000321 0.885000
-0.013220 -0.016828 0.911000
-0.029917 0.023758 0.873000
-0.042561 -0.013483 0.913000
-0.023641 -0.004066 0.908000
-0.043437 0.005230 0.900000
0.031358 -0.014386 0.899000
-0.042091 0.013305 0.895000
-0.000467 -0.008123 0.902000
0.043472 -0.015092 0.897000
0.008593 -0.033204 0.918000
-0.002727 -0.031520 0.913000
-0.047670 -0.009544 0.896000
-0.016185 -0.017913 0.909000
-0.016167 -0.002945 0.908000
-0.043759 0.009665 0.899000
0.024230 0.005126 0.882000
0.034916 0.001502 0.886000
0.005670 0.016249 0.875000
0.020810 -0.017874 0.907000
-0.009856 -0.020600 0.912000
0.029346 0.005132 0.883000
-0.003479 -0.028890 0.913000
-0.004596 -0.008204 0.911000
0.034916 0.003326 0.886000
-0.023589 0.000418 0.906000
-0.037222 0.000787 0.902000
-0.018409 -0.014904 0.908000
0.006398 0.015547 0.876000
0.037606 -0.014370 0.898000
-0.030911 -0.012578 0.902000
0.004064 -0.018867 0.919000
0.005310 0.011928 0.875000
-0.020583 0.000417 0.905000
0.034138 -0.022902 0.914000
-0.008577 -0.001062 0.896000
-0.021293 0.016931 0.873000
0.011472 0.011246 0.878000
0.028586 0.003674 0.882000
-0.006545 0.015816 0.871000
-0.027971 -0.015565 0.903000
0.022500 -0.019538 0.915000
-0.017642 -0.020114 0.907000
-0.040753 0.022187 0.882000
0.031562 -0.002503 0.884000
-0.012056 -0.028731 0.908000
-0.045305 0.015481 0.893000
-0.014672 0.024580 0.864000
0.038606 -0.003242 0.887000
-0.018228 0.027780 0.864000
-0.029862 0.016742 0.882000
0.009258 -0.011553 0.909000
-0.001531 0.012274 0.874000
0.015517 0.003311 0.882000
-0.006173 0.017568 0.869000
0.041667 -0.003619 0.890000
-0.045457 -0.003275 0.896000
0.012361 -0.005084 0.890000
0.036497 -0.014370 0.898000
-0.000097 -0.033399 0.913000
-0.009846 -0.023952 0.911000
-0.004753 0.015816 0.871000
-0.037880 0.008194 0.900000
0.015082 -0.022344 0.922000
-0.046670 0.024614 0.891000
-0.008453 0.005858 0.883000
-0.001229 -0.014674 0.917000
0.041347 -0.001056 0.891000
0.000656 -0.012383 0.915000
-0.023589 -0.014498 0.906000
-0.034328 0.000045 0.904000
-0.018756 0.019065 0.872000
-0.035327 0.007461 0.901000
0.034955 0.007345 0.887000
-0.034290 -0.001814 0.903000
0.008547 -0.013859 0.913000
-0.046401 0.009305 0.900000
-0.011746 -0.012355 0.913000
0.043743 -0.008797 0.895000
-0.040799 -0.003656 0.899000
0.036374 -0.002874 0.886000
-0.020724 0.005938 0.895000
-0.049403 -0.004371 0.894000
-0.039619 0.024701 0.881000
-0.034062 0.009643 0.897000
0.014758 0.010185 0.880000
-0.023242 -0.011528 0.907000
0.008198 -0.015789 0.916000
0.000268 0.008345 0.877000
-0.038149 0.036634 0.889000
-0.016877 -0.026058 0.906000
0.019320 -0.027746 0.925000
0.002066 0.011914 0.874000
-0.025741 -0.020025 0.903000
-0.010398 0.000412 0.894000
0.017397 -0.029618 0.924000
-0.048980 0.017686 0.893000
-0.030311 0.021986 0.874000
0.030073 0.004405 0.883000
-0.025564 0.010959 0.884000
-0.020300 -0.005941 0.909000
-0.009471 -0.007079 0.911000
0.042042 -0.016218 0.898000
-0.038602 0.037449 0.891000
-0.031030 0.025224 0.874000
0.008234 -0.018887 0.920000
-0.014689 0.023184 0.865000
-0.010084 0.021810 0.867000
-0.007595 0.020049 0.868000
-0.016577 -0.005199 0.910000
-0.017720 0.016231 0.874000
-0.044420 0.016894 0.890000
0.020810 -0.005090 0.891000
-0.029693 0.019896 0.877000
0.015428 -0.039713 0.920000
-0.041985 0.018985 0.885000
-0.013191 -0.023899 0.909000
-0.031513 0.007806 0.898000
0.047409 -0.005610 0.916000
-0.002243 0.020835 0.871000
0.038413 0.013613 0.891000
-0.047248 -0.003271 0.895000
0.003307 -0.021136 0.919000
-0.039335 0.036349 0.891000
-0.035013 0.012173 0.893000
-0.047670 -0.000325 0.896000
0.017066 -0.002877 0.887000
0.034148 0.001501 0.885000
-0.022844 -0.014498 0.906000
0.030436 0.000770 0.883000
-0.009086 -0.029544 0.910000
0.024956 -0.009902 0.895000
-0.025109 -0.005555 0.907000
-0.036676 0.021413 0.880000
-0.034905 0.019624 0.881000
-0.023909 -0.018559 0.904000
-0.019380 0.002270 0.901000
-0.026561 0.025079 0.869000
-0.009055 0.016533 0.871000
-0.005358 -0.025132 0.913000
-0.040519 0.002270 0.901000
-0.046349 0.008185 0.899000
0.005670 0.012288 0.875000
0.000280 -0.027446 0.915000
0.011464 -0.010769 0.906000
-0.000097 -0.020713 0.917000
-0.007962 -0.029918 0.910000
0.039791 -0.006908 0.889000
-0.040844 0.000415 0.900000
0.001405 -0.010840 0.912000
-0.010243 -0.013859 0.913000
0.023867 -0.000319 0.882000
0.040568 0.002242 0.890000
0.017695 0.002222 0.882000
0.014774 0.004395 0.881000
-0.017817 0.003736 0.897000
-0.029930 0.014597 0.884000
0.039381 -0.003976 0.888000
-0.027558 0.018473 0.878000
-0.030945 -0.009247 0.903000
-0.020583 -0.022677 0.905000
0.031962 0.004779 0.885000
-0.023216 -0.013007 0.906000
-0.014314 -0.020158 0.909000
-0.010209 -0.024300 0.910000
-0.040014 0.010393 0.898000
-0.010188 0.013744 0.876000
0.021067 -0.012207 0.902000
-0.044080 0.034787 0.898000
-0.010209 -0.025049 0.910000
0.040247 -0.009124 0.891000
0.029676 0.001859 0.882000
-0.008337 -0.030293 0.910000
-0.048613 -0.007674 0.893000
0.009738 -0.034375 0.919000
0.022082 -0.009935 0.898000
-0.040799 -0.004396 0.899000
0.018509 -0.011862 0.904000
-0.008382 -0.031966 0.915000
-0.037177 0.013261 0.892000
-0.043806 0.020806 0.885000
0.011537 0.000044 0.883000
-0.034865 0.025397 0.880000
-0.014736 -0.010465 0.912000
-0.036034 0.018920 0.882000
0.001414 -0.017335 0.918000
-0.048925 0.021705 0.892000
-0.003677 0.015816 0.871000
0.014821 -0.011888 0.906000
-0.050195 -0.000324 0.895000
-0.013857 0.012720 0.880000
0.002080 0.003665 0.880000
-0.020766 0.029983 0.866000
0.031234 -0.003963 0.885000
-0.016825 0.023540 0.865000
-0.018584 0.025646 0.864000
-0.001982 -0.021444 0.916000
0.017397 -0.031900 0.924000
0.034881 -0.017071 0.904000
0.011123 0.007279 0.879000
-0.042780 0.014026 0.894000
0.000269 0.007271 0.878000
0.018558 -0.025843 0.925000
-0.017326 -0.012689 0.910000
0.007067 -0.039164 0.916000
0.035586 -0.016680 0.903000
-0.017896 0.001899 0.901000
-0.032731 -0.011081 0.901000
-0.040894 0.013643 0.893000
0.048058 -0.005974 0.914000
-0.011695 -0.026518 0.909000
-0.006471 -0.029201 0.911000
0.029235 -0.015548 0.902000
0.018939 -0.027366 0.925000
0.002545 -0.026374 0.917000
0.006797 0.002219 0.881000
-0.000472 -0.011228 0.913000
0.011251 -0.035131 0.919000
-0.006523 0.021478 0.868000
0.003293 -0.033849 0.915000
-0.008245 -0.004030 0.900000
-0.029230 0.008526 0.896000
0.037595 0.007362 0.889000
0.016600 -0.036764 0.922000
-0.004235 -0.023655 0.914000
0.012792 -0.020424 0.921000
-0.004389 0.017947 0.870000
0.041254 -0.003981 0.889000
-0.029202 0.013506 0.884000
-0.023986 0.008130 0.893000
-0.044031 -0.003278 0.897000
-0.026836 0.017750 0.878000
0.038456 0.014729 0.892000
-0.034214 0.006720 0.901000
0.034225 0.007345 0.887000
0.001356 0.004390 0.880000
-0.023835 0.019108 0.874000
0.023561 -0.010674 0.898000
-0.009481 -0.019849 0.912000
0.029008 -0.013585 0.895000
0.042781 -0.016218 0.898000
-0.044470 0.028281 0.891000
-0.047878 0.024669 0.893000
-0.023589 -0.013379 0.906000
-0.035248 0.008555 0.899000
-0.006379 -0.001434 0.898000
-0.007213 -0.007071 0.910000
-0.030201 -0.010362 0.903000
0.016256 -0.026575 0.924000
0.033725 -0.022126 0.913000
-0.002356 -0.024434 0.915000
0.043199 -0.016976 0.899000
0.032222 -0.021750 0.913000
0.019700 -0.025462 0.925000
-0.031822 0.022758 0.876000
-0.031456 0.013901 0.886000
-0.048137 0.021314 0.891000
-0.026573 -0.007413 0.906000
-0.001607 -0.017693 0.917000
-0.024029 0.023622 0.868000
-0.044669 -0.008797 0.895000
0.010565 -0.006204 0.893000
0.032240 -0.015937 0.903000
-0.022396 0.016231 0.874000
-0.044270 0.025234 0.887000
0.003307 -0.021893 0.919000
0.002170 -0.020735 0.918000
-0.023641 -0.003319 0.908000
-0.031618 -0.013306 0.901000
0.001034 -0.013527 0.916000
-0.028079 0.012400 0.883000
-0.011910 -0.001432 0.897000
-0.024330 0.027131 0.866000
0.007492 -0.040938 0.922000
0.040744 -0.018147 0.902000
-0.010971 -0.007079 0.911000
0.012224 -0.011528 0.907000
-0.037741 0.016125 0.888000
-0.028374 -0.011117 0.904000
0.020462 -0.026604 0.925000
0.035645 -0.000686 0.886000
0.006690 -0.039918 0.916000
0.001790 -0.024110 0.917000
0.025653 0.002944 0.881000
-0.016202 -0.014937 0.910000
-0.006492 -0.011240 0.914000
-0.000451 0.019424 0.872000
0.010026 0.008355 0.878000
0.038815 -0.021280 0.909000
0.005670 0.011928 0.875000
0.011251 -0.038157 0.919000
-0.024708 -0.008905 0.906000
0.003617 -0.009608 0.902000
0.031998 0.011348 0.886000
-0.024708 -0.011888 0.906000
0.009370 -0.027596 0.920000
-0.014736 -0.008964 0.912000
0.011110 0.007632 0.878000
0.010006 -0.004071 0.909000
0.037031 -0.017033 0.902000
-0.037593 0.000416 0.902000
0.006936 -0.006246 0.899000
-0.043540 0.026329 0.887000
0.010423 0.002944 0.881000
-0.023142 0.015529 0.875000
-0.013621 0.026744 0.865000
0.019874 0.005126 0.882000
-0.046723 0.016198 0.892000
-0.042761 0.019006 0.886000
0.008207 -0.037319 0.917000
-0.037123 0.028359 0.882000
0.013914 -0.037820 0.920000
0.010884 -0.033276 0.920000
-0.012388 -0.002563 0.905000
-0.009056 -0.004808 0.907000
-0.040528 0.029184 0.885000
-0.016149 -0.023473 0.907000
0.015640 -0.004713 0.889000
-0.030573 -0.009619 0.903000
-0.021835 0.023924 0.866000
0.017797 -0.028127 0.925000
0.035267 -0.023278 0.914000
0.008500 -0.011167 0.908000
-0.025171 0.011310 0.883000
-0.044220 0.020829 0.886000
-0.031785 0.015342 0.885000
-0.029797 -0.013692 0.902000
-0.009096 -0.024702 0.911000
-0.022495 -0.012274 0.907000
0.032801 0.014298 0.888000
0.019874 0.002222 0.882000
-0.037586 0.012908 0.893000
0.030110 -0.017108 0.906000
0.016256 -0.026195 0.924000
0.025290 0.001494 0.881000
0.037401 -0.022077 0.911000
0.036863 -0.019367 0.907000
-0.034503 0.025397 0.880000
-0.041400 0.012214 0.896000
0.015876 -0.024674 0.924000
-0.004059 0.011581 0.876000
-0.041815 -0.008078 0.897000
-0.004982 -0.025132 0.913000
-0.034451 0.014663 0.888000
0.016618 -0.039843 0.923000
-0.001605 -0.020690 0.916000
0.013550 -0.033691 0.921000
0.028447 -0.006542 0.889000
-0.033834 0.012512 0.891000
-0.028778 -0.007405 0.905000
0.029721 -0.021845 0.917000
-0.004165 -0.005136 0.899000
-0.006975 0.007649 0.880000
0.010127 -0.018887 0.920000
-0.026171 -0.009640 0.905000
-0.004031 0.020095 0.870000
0.011287 -0.024621 0.922000
-0.016450 0.025646 0.864000
0.024956 0.000044 0.882000
-0.004244 -0.014281 0.916000
-0.006116 -0.010864 0.914000
-0.009117 0.012677 0.877000
-0.017976 -0.000328 0.905000
0.015428 -0.020023 0.920000
0.030436 0.000407 0.883000
0.014774 0.004757 0.881000
0.020650 -0.010698 0.900000
0.044579 -0.014723 0.897000
0.008242 -0.022699 0.921000
-0.000474 -0.017316 0.917000
-0.043662 0.034379 0.897000
-0.048042 0.007106 0.903000
0.039381 -0.005804 0.888000
-0.020386 0.027456 0.865000
-0.012380 0.013414 0.878000
-0.037965 0.004128 0.902000
-0.019487 -0.019719 0.906000
-0.039493 -0.014450 0.903000
0.031198 -0.003231 0.884000
-0.038707 0.003015 0.902000
-0.029731 0.005971 0.900000
-0.000097 -0.016184 0.917000
-0.020278 -0.014156 0.908000
0.036905 0.014696 0.890000
0.039514 0.009579 0.891000
-0.035668 0.013613 0.891000
0.018939 -0.033457 0.925000
0.014758 0.005476 0.880000
0.026429 -0.012480 0.895000
-0.016488 0.021785 0.866000
0.035192 -0.010982 0.893000
-0.041769 0.036553 0.896000
0.009370 -0.029868 0.920000
0.003685 -0.020758 0.919000
-0.046565 0.022729 0.889000
0.030834 0.004774 0.884000
0.001397 0.001911 0.907000
0.001414 -0.016579 0.918000
0.035400 0.012118 0.889000
0.008571 0.013760 0.877000
0.009706 -0.016166 0.916000
0.019688 -0.004352 0.890000
-0.045782 0.023069 0.888000
-0.003855 -0.026259 0.913000
-0.019114 -0.020837 0.906000
-0.004556 0.004504 0.903000
-0.001980 -0.023304 0.915000
0.023424 -0.018247 0.907000
0.010834 -0.001778 0.885000
-0.008309 0.018620 0.868000
-0.023368 0.021886 0.870000
-0.014058 0.018663 0.870000
-0.046984 0.001521 0.897000
-0.025934 0.021577 0.872000
-0.008347 0.015835 0.872000
-0.047406 0.005588 0.898000
-0.030911 -0.013320 0.902000
-0.034214 -0.010339 0.901000
-0.039777 0.003011 0.901000
-0.021399 -0.010045 0.908000
0.019365 -0.005096 0.892000
0.007444 -0.015035 0.916000
0.013914 -0.037063 0.920000
0.043743 -0.009165 0.895000
-0.021951 0.003378 0.900000
-0.029151 0.001907 0.905000
0.035280 0.000044 0.886000
-0.043759 0.002264 0.899000
-0.001172 0.012274 0.874000
0.024246 -0.010282 0.896000
-0.001976 -0.010477 0.913000
-0.005369 -0.017655 0.915000
0.016225 0.004032 0.881000
-0.030607 -0.004420 0.904000
0.014671 -0.039713 0.920000
-0.018804 -0.004071 0.909000
0.010494 -0.036266 0.919000
0.027653 -0.005067 0.887000
0.002872 -0.008856 0.901000
-0.029764 -0.017014 0.901000
0.010094 -0.040716 0.917000
-0.045988 0.026110 0.892000
-0.029523 -0.002935 0.905000
0.002782 0.016212 0.873000
-0.014074 0.017967 0.871000
0.013904 -0.007691 0.895000
0.005961 -0.021159 0.920000
-0.034176 -0.012920 0.900000
0.029810 -0.004697 0.886000
0.042781 0.005219 0.898000
0.009380 -0.026868 0.921000
-0.018493 0.005931 0.894000
-0.006499 -0.013136 0.915000
-0.040799 -0.001806 0.899000
-0.003052 -0.003282 0.898000
0.018857 -0.021940 0.921000
-0.014689 0.027812 0.865000
-0.037375 0.036227 0.888000
-0.046880 -0.005113 0.895000
0.049186 -0.005598 0.914000
-0.024654 -0.017815 0.904000
-0.035792 0.016799 0.885000
0.005346 0.002582 0.881000
0.015462 -0.034487 0.922000
-0.050139 -0.006579 0.894000
0.001792 -0.016201 0.918000
-0.029198 0.027710 0.873000
0.017017 -0.030759 0.924000
-0.011333 -0.022053 0.910000
0.038284 -0.001418 0.888000
-0.024763 -0.004066 0.908000
-0.014672 0.025291 0.864000
0.010528 -0.023482 0.922000
-0.020674 -0.005193 0.909000
0.037595 0.007728 0.889000
-0.027630 -0.011490 0.904000
0.010494 -0.035509 0.919000
0.003649 -0.010817 0.910000
0.024732 -0.003972 0.887000
-0.013013 0.017270 0.872000
0.003296 -0.032755 0.916000
-0.018605 0.028524 0.865000
-0.026535 0.013807 0.880000
-0.015885 0.018347 0.872000
0.015652 -0.014953 0.911000
-0.012429 -0.027610 0.908000
0.042128 -0.007299 0.892000
0.035822 -0.020532 0.909000
-0.010596 -0.019827 0.911000
-0.023288 0.023951 0.867000
0.003300 -0.025619 0.917000
-0.043099 0.031653 0.893000
-0.042696 0.005971 0.900000
0.013294 0.006555 0.879000
-0.000097 -0.027446 0.915000
-0.032954 0.009274 0.897000
-0.003315 0.018663 0.870000
0.043743 -0.010638 0.895000
-0.021423 -0.004445 0.909000
0.039425 -0.007274 0.889000
0.025151 -0.016290 0.902000
-0.033918 -0.001442 0.903000
-0.004064 0.009789 0.877000
-0.005533 0.005845 0.881000
-0.027307 0.027973 0.870000
-0.046827 -0.008051 0.894000
-0.032731 -0.017756 0.901000
0.041301 -0.006183 0.890000
0.020740 -0.003246 0.888000
0.010517 -0.028385 0.921000
-0.043662 -0.004017 0.897000
-0.002977 0.011220 0.876000
0.012819 -0.023128 0.923000
-0.003113 -0.016543 0.916000
-0.028437 -0.003684 0.906000
-0.008721 -0.023202 0.911000
-0.014282 -0.027206 0.907000
0.046529 -0.014016 0.899000
-0.028064 0.000791 0.906000
-0.018584 0.027069 0.864000
0.021533 -0.017481 0.906000
-0.002626 0.006555 0.879000
-0.024251 0.016268 0.876000
-0.041585 0.001526 0.900000
0.033898 0.014663 0.888000
-0.007329 0.008726 0.879000
0.000269 0.004032 0.881000
-0.031066 0.026333 0.875000
0.002923 -0.038074 0.917000
0.035360 0.011008 0.888000
0.027996 -0.018307 0.910000
-0.048980 -0.006939 0.893000
0.043743 -0.012480 0.895000
0.011602 -0.003611 0.888000
-0.043244 -0.011757 0.896000
-0.022574 0.023594 0.867000
0.042733 -0.015462 0.897000
0.001708 0.011207 0.875000
-0.016185 -0.018287 0.909000
0.001350 0.009778 0.876000
0.028982 -0.001410 0.883000
0.009727 -0.017335 0.918000
0.010140 -0.003246 0.888000
0.017391 -0.000321 0.885000
0.047953 -0.007838 0.912000
0.035725 0.005892 0.888000
0.048757 -0.006343 0.913000
0.028846 -0.006916 0.890000
0.046878 -0.008598 0.913000
-0.029917 0.023039 0.873000
-0.015828 -0.012689 0.910000
-0.019860 -0.019346 0.906000
0.036010 -0.005061 0.886000
0.042081 -0.005457 0.891000
0.030869 -0.004327 0.885000
-0.027684 0.013475 0.882000
-0.044350 -0.006963 0.896000
-0.005129 0.013353 0.874000
-0.015722 0.011673 0.883000
-0.040938 0.017912 0.886000
0.005310 0.012648 0.875000
-0.040528 0.018256 0.885000
-0.002349 -0.032611 0.912000
0.009324 0.004752 0.880000
0.006216 -0.009979 0.902000
-0.030739 0.008166 0.897000
-0.036028 -0.010698 0.900000
0.007838 -0.040761 0.918000
-0.008749 -0.013874 0.914000
-0.045558 0.004480 0.898000
-0.020300 -0.007812 0.909000
-0.012060 0.011647 0.881000
-0.017997 0.020095 0.870000
-0.045239 0.009665 0.899000
0.024056 -0.005079 0.889000
0.007403 -0.012328 0.911000
-0.022894 -0.004066 0.908000
-0.008025 0.013383 0.876000
-0.019707 0.003375 0.899000
-0.029232 0.028461 0.874000
-0.018024 0.008825 0.889000
0.005091 -0.008846 0.900000
0.010801 -0.014610 0.913000
-0.027691 -0.005922 0.906000
0.036213 -0.010224 0.891000
-0.038493 -0.013985 0.897000
-0.031492 0.012821 0.887000
-0.001885 0.019760 0.871000
0.021417 -0.020335 0.917000
-0.034366 -0.004798 0.905000
-0.002313 -0.005130 0.898000
-0.033768 0.007815 0.899000
-0.044129 0.003745 0.899000
0.030345 -0.008391 0.891000
0.011642 -0.034412 0.920000
0.038413 -0.010224 0.891000
0.011135 0.005114 0.880000
-0.026573 0.000791 0.906000
-0.006590 0.012316 0.877000
-0.010232 -0.019098 0.912000
-0.047824 0.017666 0.892000
0.042958 -0.009155 0.894000
0.032010 -0.017874 0.907000
0.012493 -0.043068 0.927000
0.012426 -0.027656 0.922000
0.006044 0.009067 0.877000
0.005819 -0.007717 0.898000
-0.013610 -0.009714 0.912000
-0.019474 0.018706 0.872000
0.010849 -0.041094 0.917000
0.037066 -0.022477 0.912000
-0.026946 -0.007786 0.906000
-0.048925 0.018768 0.892000
0.017508 -0.015686 0.910000
0.020081 -0.027366 0.925000
-0.023095 0.010631 0.887000
-0.008956 -0.002540 0.897000
-0.032060 -0.007760 0.903000
-0.022049 -0.021907 0.904000
0.016851 -0.018031 0.915000
-0.015739 0.024224 0.864000
0.021581 -0.024674 0.924000
0.003525 0.005108 0.879000
-0.035188 0.022112 0.879000
0.040202 0.001875 0.890000
0.047692 -0.011809 0.900000
-0.009403 0.016873 0.870000
-0.026591 0.029763 0.870000
0.031234 0.008057 0.885000
-0.030811 0.019196 0.878000
-0.045406 -0.008428 0.895000
0.033495 0.012456 0.887000
0.041761 -0.008400 0.892000
-0.002315 -0.005876 0.899000
0.034186 -0.005426 0.886000
-0.039424 0.037533 0.893000
0.042742 -0.019697 0.905000
0.040292 -0.010603 0.892000
-0.014963 -0.000699 0.903000
0.011237 -0.003611 0.888000
0.036539 0.015429 0.890000
-0.001600 -0.033023 0.913000
-0.024084 0.021886 0.870000
0.011275 -0.028764 0.921000
0.012792 -0.032554 0.921000
-0.017662 -0.002945 0.908000
0.035599 -0.011362 0.894000
0.024490 -0.022649 0.919000
0.020512 -0.006579 0.894000
0.007650 -0.007331 0.896000
0.018509 -0.012234 0.904000
-0.045088 -0.003644 0.896000
0.033765 -0.017071 0.904000
0.030436 -0.002137 0.883000
-0.037427 0.009654 0.898000
0.022804 -0.001047 0.883000
0.042958 -0.009891 0.894000
-0.031351 -0.003676 0.904000
-0.010084 0.021096 0.867000
0.040842 -0.013969 0.896000
0.014395 0.007649 0.880000
0.020963 0.004763 0.882000
-0.025448 0.013082 0.880000
-0.043292 0.012228 0.897000
-0.021048 -0.008186 0.909000
-0.015062 0.029270 0.866000
-0.020701 0.007035 0.894000
-0.043067 0.006342 0.900000
-0.010198 -0.028763 0.909000
-0.012436 0.010571 0.882000
-0.018783 -0.016025 0.908000
-0.032095 -0.002560 0.904000
-0.041443 0.030779 0.889000
0.014657 -0.007700 0.896000
-0.038336 0.003386 0.902000
0.032728 0.008796 0.886000
-0.015401 0.023540 0.865000
0.005310 0.016249 0.875000
0.037919 -0.000322 0.888000
-0.013725 0.000413 0.895000
0.038004 0.011766 0.890000
0.010908 -0.021964 0.922000
0.016719 -0.003246 0.888000
-0.033702 0.025339 0.878000
-0.012183 0.002608 0.890000
0.001034 -0.025968 0.916000
-0.023724 0.005951 0.897000
-0.000092 0.016911 0.872000
-0.039619 0.024338 0.881000
-0.014830 0.001149 0.895000
0.001034 -0.013904 0.916000
-0.048407 0.002626 0.896000
-0.025130 0.023291 0.869000
-0.017701 -0.006322 0.910000
0.040568 -0.008015 0.890000
-0.006530 0.024006 0.869000
0.017332 0.002585 0.882000
0.003685 -0.020380 0.919000
-0.018714 0.010266 0.887000
-0.035948 -0.015479 0.898000
-0.033910 0.011438 0.893000
-0.018576 0.003740 0.898000
-0.015132 0.019021 0.870000
0.003669 -0.035355 0.915000
0.029709 0.006222 0.883000
-0.032942 0.023506 0.877000
-0.004742 0.019714 0.869000
0.023930 -0.012892 0.898000
-0.045558 0.001153 0.898000
-0.010584 -0.025424 0.910000
-0.046143 -0.005850 0.895000
-0.044869 0.008555 0.899000
0.046847 -0.010304 0.898000
-0.015045 0.028168 0.865000
-0.033881 0.006356 0.902000
-0.009086 0.014432 0.874000
-0.009013 0.025022 0.867000
-0.024572 0.004124 0.901000
-0.044786 0.017260 0.890000
-0.023242 -0.008168 0.907000
0.038149 -0.024567 0.920000
-0.018450 -0.008944 0.910000
-0.013595 -0.014953 0.911000
0.027503 -0.011730 0.894000
0.011981 -0.004347 0.889000
0.024928 0.003307 0.881000
-0.010247 0.009109 0.881000
-0.048613 0.023199 0.893000
-0.000451 0.014399 0.872000
-0.023476 0.018389 0.874000
0.037146 -0.001782 0.887000
0.017607 -0.007331 0.896000
-0.018756 0.009191 0.889000
0.012742 -0.005824 0.891000
-0.000451 0.016194 0.872000
-0.047829 0.028535 0.899000
-0.043019 0.001524 0.899000
0.009356 0.000407 0.883000
0.042958 -0.010627 0.894000
-0.012060 0.011284 0.881000
-0.011923 -0.001804 0.898000
0.029313 -0.000319 0.882000
0.002785 0.018029 0.874000
0.039302 -0.018167 0.903000
-0.011333 -0.024675 0.910000
0.019864 -0.018785 0.915000
-0.017234 0.010254 0.886000
0.042910 0.008130 0.893000
-0.040390 0.015429 0.890000
-0.026485 -0.018910 0.903000
0.022124 -0.019538 0.915000
0.033860 0.009171 0.887000
-0.006109 -0.022501 0.913000
0.036905 0.015063 0.890000
0.009001 -0.020803 0.921000
-0.013103 0.013775 0.878000
-0.003479 -0.010101 0.913000
-0.012429 -0.027236 0.908000
-0.008043 0.011969 0.878000
0.018001 -0.018805 0.916000
-0.034176 -0.014402 0.900000
-0.030979 -0.006653 0.904000
0.029055 -0.017520 0.908000
0.020374 -0.002880 0.888000
0.043743 -0.011007 0.895000
-0.028938 0.029247 0.876000
-0.003113 -0.015412 0.916000
0.030107 -0.003231 0.884000
0.013853 -0.017297 0.916000
0.034512 -0.001413 0.885000
0.013152 -0.007683 0.894000
-0.014757 0.019357 0.869000
-0.033547 -0.005530 0.903000
-0.024281 -0.018559 0.904000
-0.045000 0.020853 0.887000
-0.022217 0.023238 0.867000
-0.024667 0.014498 0.878000
0.009380 -0.021182 0.921000
0.023682 -0.021090 0.917000
-0.020763 0.012372 0.881000
-0.038707 0.002643 0.902000
-0.016095 0.025646 0.864000
0.032648 -0.016326 0.904000
-0.018584 0.027424 0.864000
0.010749 0.010162 0.878000
-0.049035 -0.004371 0.894000
0.032026 -0.013246 0.897000
-0.037057 -0.015109 0.898000
-0.029458 -0.011105 0.903000
-0.027258 -0.012606 0.904000
-0.000097 -0.016957 0.918000
-0.001898 0.009067 0.877000
-0.031426 0.026333 0.875000
-0.045774 -0.009165 0.895000
-0.029557 0.027710 0.873000
-0.017720 0.015871 0.874000
-0.016149 -0.024967 0.907000
-0.009460 -0.006322 0.910000
-0.022692 0.004119 0.900000
-0.019487 -0.021956 0.906000
-0.014078 0.000780 0.894000
0.024532 -0.007307 0.893000
-0.046511 0.028040 0.895000
-0.000862 -0.037003 0.928000
0.010483 -0.039627 0.918000
0.035360 0.009181 0.888000
-0.041526 0.021122 0.883000
0.014687 -0.020803 0.921000
-0.014656 -0.025713 0.907000
-0.036196 0.011095 0.895000
0.023052 -0.023862 0.922000
0.004046 -0.036485 0.915000
-0.012814 0.010583 0.883000
-0.002243 0.018326 0.871000
-0.034585 0.007461 0.901000
0.018609 -0.005090 0.891000
-0.032544 0.024560 0.876000
-0.030727 0.013536 0.886000
-0.029262 0.007797 0.897000
0.006333 -0.017732 0.919000
-0.038169 0.026514 0.881000
-0.046349 0.008555 0.899000
-0.045239 0.010035 0.899000
-0.023216 -0.015244 0.906000
-0.028414 0.025496 0.871000
0.018785 0.003311 0.882000
-0.016613 -0.027356 0.912000
0.003865 0.016590 0.874000
-0.012211 0.022141 0.866000
0.040659 0.011058 0.892000
-0.028839 0.022680 0.873000
-0.038619 0.019305 0.883000
-0.010119 0.017231 0.870000
-0.017326 -0.009319 0.910000
0.034668 0.014680 0.889000
-0.008711 -0.006697 0.910000
-0.007604 -0.024354 0.912000
-0.043564 -0.010638 0.895000
0.031148 -0.009880 0.893000
0.035685 0.004790 0.887000
0.038318 -0.023680 0.915000
0.014461 0.000407 0.884000
-0.028715 0.004133 0.903000
-0.048830 0.002998 0.897000
-0.016877 -0.025312 0.906000
-0.040390 0.033744 0.890000
-0.002351 -0.029641 0.913000
0.004244 0.007632 0.878000
0.005696 0.006555 0.879000
0.006697 -0.034300 0.917000
0.041440 0.011070 0.893000
-0.041955 0.008564 0.900000
-0.005815 0.019357 0.869000
-0.006880 0.020406 0.868000
-0.016522 -0.002195 0.907000
0.022502 -0.011809 0.900000
-0.027319 -0.004803 0.906000
-0.034290 0.005248 0.903000
0.018057 -0.009216 0.900000
-0.030276 0.025913 0.873000
0.009176 -0.004776 0.901000
0.034590 -0.006528 0.887000
-0.013580 -0.005573 0.910000
-0.038166 -0.013261 0.898000
0.009665 0.006909 0.878000
-0.007997 -0.013874 0.914000
0.030720 -0.015177 0.902000
-0.046303 0.017280 0.891000
0.034512 -0.001778 0.885000
-0.026856 -0.015565 0.903000
0.037511 -0.002877 0.887000
0.036091 0.006623 0.888000
0.005559 -0.035771 0.916000
0.014892 -0.004707 0.888000
0.019148 0.004400 0.882000
0.034551 -0.004697 0.886000
-0.036068 0.007832 0.901000
-0.026543 -0.012247 0.905000
-0.008373 -0.011240 0.914000
-0.044769 0.032902 0.897000
0.042958 -0.010994 0.894000
0.027134 0.004763 0.882000
-0.028778 -0.005543 0.905000
0.041343 -0.020487 0.907000
-0.024251 0.015547 0.876000
