-0.026191 0.022832 0.893000
-0.034201 0.001511 0.891000
-0.014825 0.046035 0.873000
-0.004424 0.017369 0.877000
-0.033355 0.025993 0.888000
-0.005217 -0.000322 0.889000
-0.008386 0.048356 0.876000
0.003437 0.032493 0.857000
0.006727 -0.000316 0.872000
-0.001559 -0.009114 0.890000
-0.024093 0.007428 0.897000
0.025147 -0.016542 0.876000
-0.024408 0.019936 0.895000
-0.028492 -0.006594 0.896000
-0.004851 -0.002883 0.889000
0.023317 -0.016163 0.875000
-0.007918 -0.011130 0.905000
-0.016672 0.014042 0.895000
0.027037 -0.041953 0.903000
0.023678 -0.014362 0.875000
0.018213 0.002555 0.872000
0.004490 0.030694 0.856000
0.025434 -0.034599 0.886000
-0.023017 0.036791 0.884000
-0.015776 -0.018247 0.907000
-0.001593 -0.026144 0.909000
-0.010596 -0.022827 0.911000
-0.024120 -0.000695 0.898000
-0.022692 -0.008846 0.900000
-0.023381 0.002632 0.898000
-0.020166 -0.010733 0.903000
0.004558 0.009342 0.869000
0.010174 0.021988 0.860000
0.018996 -0.006079 0.875000
-0.019541 0.042899 0.875000
0.033745 -0.021423 0.884000
0.012055 0.005044 0.868000
0.008815 -0.033368 0.902000
-0.018555 0.012966 0.897000
0.007488 -0.007898 0.877000
0.020939 -0.025701 0.881000
0.006658 0.017447 0.863000
0.008871 0.001118 0.871000
0.024786 -0.019066 0.876000
-0.004045 0.020883 0.873000
-0.023121 0.032206 0.888000
0.011644 0.012133 0.864000
0.005273 0.010058 0.869000
-0.020492 -0.004406 0.901000
-0.021258 -0.010722 0.902000
0.011249 -0.027764 0.889000
-0.004230 -0.027386 0.913000
0.009081 0.027202 0.857000
-0.000092 0.021121 0.868000
0.015068 -0.012229 0.877000
-0.032624 0.028917 0.888000
-0.028092 0.004465 0.895000
-0.011184 0.001523 0.898000
0.012427 0.003977 0.869000
-0.015266 0.006335 0.899000
-0.009392 0.034021 0.869000
-0.008217 -0.002909 0.897000
0.020214 -0.024976 0.881000
-0.017312 0.020557 0.890000
-0.032952 0.029250 0.887000
-0.009772 0.025137 0.871000
0.002379 0.033199 0.857000
0.004553 0.013976 0.868000
-0.010585 0.022474 0.879000
-0.006435 -0.014498 0.906000
-0.013003 0.007051 0.896000
-0.012122 -0.039035 0.913000
0.001339 0.017211 0.869000
-0.017420 0.036861 0.877000
0.007070 0.005056 0.870000
-0.015385 -0.012634 0.906000
0.021177 -0.038462 0.891000
-0.027905 -0.021750 0.913000
0.005273 0.006839 0.869000
0.027073 -0.026397 0.880000
-0.019423 -0.012220 0.903000
-0.013595 -0.035575 0.911000
-0.029067 0.021314 0.891000
0.021277 -0.025672 0.880000
-0.029099 0.013628 0.892000
0.023786 -0.025281 0.879000
-0.014466 0.037052 0.873000
0.027104 -0.028602 0.881000
0.024093 -0.021253 0.877000
0.024450 -0.039151 0.890000
-0.002926 0.036543 0.861000
-0.024555 0.035456 0.887000
-0.035913 0.009546 0.888000
0.011590 0.027651 0.860000
0.003585 -0.016146 0.894000
0.036292 -0.012327 0.884000
-0.032331 0.011033 0.890000
-0.011656 -0.008159 0.906000
-0.015165 0.013643 0.893000
0.004870 0.021659 0.861000
0.013369 -0.018148 0.884000
-0.025570 0.002629 0.897000
-0.019794 -0.012220 0.903000
-0.016262 0.044598 0.873000
-0.010501 0.025166 0.872000
-0.013148 -0.008905 0.906000
-0.003296 0.023896 0.865000
-0.001865 0.039424 0.862000
-0.015880 -0.022877 0.913000
-0.017681 -0.040735 0.909000
0.029936 -0.012257 0.879000
0.027227 -0.032739 0.885000
-0.007603 0.030444 0.869000
-0.004966 -0.022053 0.910000
-0.004424 0.011233 0.877000
-0.019653 0.036625 0.880000
-0.008740 -0.025132 0.913000
-0.006244 0.013429 0.879000
0.028351 -0.032776 0.886000
0.035241 -0.021447 0.885000
-0.039070 0.015706 0.885000
0.011445 -0.008610 0.876000
-0.030268 -0.000692 0.894000
-0.016983 0.018033 0.892000
0.000276 -0.020768 0.903000
0.007624 -0.024581 0.893000
-0.022322 -0.006994 0.900000
-0.025506 0.044331 0.882000
0.021812 -0.033908 0.887000
0.019356 -0.011481 0.875000
0.016418 -0.003546 0.872000
-0.015846 0.019092 0.890000
-0.026074 0.034072 0.889000
0.005560 0.036062 0.858000
-0.002611 0.012633 0.874000
-0.042971 0.021481 0.898000
0.017555 -0.011841 0.875000
0.021615 -0.023472 0.879000
-0.020307 0.045163 0.877000
-0.011937 0.045623 0.872000
-0.025513 0.013305 0.895000
0.030436 -0.026123 0.883000
0.009176 0.010736 0.866000
0.012292 -0.018169 0.885000
-0.024463 0.002998 0.897000
0.038927 -0.013813 0.886000
-0.029295 -0.014740 0.898000
0.002127 -0.020329 0.900000
0.002026 0.035668 0.857000
0.006619 0.024762 0.858000
0.036739 -0.019648 0.886000
-0.032258 0.026359 0.888000
-0.010983 -0.027732 0.912000
-0.029499 0.009233 0.893000
0.020796 -0.017243 0.875000
-0.021659 0.030014 0.888000
-0.014499 0.033896 0.875000
-0.014330 -0.029169 0.910000
0.009731 -0.015238 0.884000
0.035201 -0.017057 0.884000
-0.004364 0.027456 0.865000
0.000649 -0.023024 0.904000
-0.001166 0.020453 0.870000
-0.017212 -0.007397 0.904000
0.015736 -0.007511 0.874000
0.010602 0.009666 0.866000
-0.011412 0.010996 0.887000
0.023717 -0.038785 0.890000
-0.028668 0.030447 0.890000
0.006085 -0.013040 0.883000
-0.004235 -0.029674 0.914000
0.008210 -0.007898 0.877000
0.003593 -0.017657 0.896000
-0.006089 -0.020929 0.910000
-0.005082 0.029270 0.866000
0.010369 -0.041811 0.908000
-0.008006 -0.033095 0.915000
-0.008726 0.023065 0.874000
-0.022272 0.010763 0.898000
0.004516 0.022014 0.861000
-0.009450 -0.015294 0.909000
0.013097 0.008954 0.866000
-0.001531 0.009036 0.874000
0.008395 0.023377 0.859000
0.012341 0.017447 0.863000
-0.032331 0.013231 0.890000
-0.022912 0.046404 0.880000
0.001405 -0.034113 0.912000
-0.010995 -0.034526 0.913000
0.011262 -0.023033 0.890000
-0.017175 0.050560 0.883000
0.006804 -0.012299 0.882000
0.011779 -0.005712 0.874000
-0.011321 -0.015668 0.909000
-0.001530 0.010463 0.873000
-0.023645 0.021018 0.894000
0.001737 -0.013876 0.890000
-0.008746 0.049438 0.876000
-0.021046 0.022832 0.893000
0.025927 -0.022000 0.878000
0.003088 0.029000 0.858000
0.007062 0.006839 0.869000
-0.010971 -0.020952 0.911000
-0.001533 0.007966 0.875000
0.004200 0.011131 0.869000
-0.026589 0.016234 0.894000
-0.004709 0.034141 0.863000
-0.006688 -0.002154 0.890000
-0.019444 -0.014094 0.904000
-0.000096 -0.027641 0.909000
-0.040436 0.022939 0.883000
-0.020840 0.006342 0.900000
0.023664 -0.036870 0.888000
0.006617 -0.034261 0.906000
0.007974 -0.018659 0.891000
-0.024610 0.032243 0.889000
-0.026957 0.015498 0.894000
-0.025599 -0.009565 0.898000
-0.025386 -0.029393 0.917000
-0.013794 0.030329 0.876000
-0.040799 0.021486 0.883000
-0.016024 0.006712 0.900000
-0.000849 -0.032683 0.914000
-0.023173 0.028982 0.890000
-0.013983 0.017953 0.888000
0.024758 -0.012922 0.875000
0.003794 0.026881 0.858000
0.003597 -0.018784 0.897000
-0.033392 0.013216 0.889000
0.017214 -0.013297 0.876000
0.013082 0.012859 0.865000
-0.024544 -0.014772 0.900000
0.012711 0.015334 0.864000
-0.023798 0.035051 0.886000
-0.026367 -0.017346 0.899000
-0.017000 0.045728 0.874000
0.009293 -0.009342 0.877000
-0.006515 0.040723 0.867000
-0.006778 -0.009237 0.902000
-0.017740 0.038938 0.875000
-0.000460 -0.009114 0.890000
0.010106 -0.015983 0.885000
0.006058 -0.007554 0.879000
-0.023277 0.020650 0.894000
-0.025201 0.001890 0.897000
-0.026589 0.013290 0.894000
-0.009554 0.010231 0.884000
0.007343 0.021280 0.860000
-0.015165 0.014011 0.893000
0.009208 0.005408 0.869000
-0.023037 -0.002916 0.899000
0.001374 -0.014274 0.892000
-0.023381 0.007067 0.898000
0.007428 0.003982 0.870000
0.012384 0.010023 0.866000
0.001333 0.022828 0.865000
0.024285 -0.032702 0.884000
-0.025257 0.037969 0.886000
-0.010221 -0.020952 0.911000
-0.014345 -0.028451 0.911000
0.034148 -0.022540 0.885000
0.007232 -0.016440 0.890000
0.000618 0.027361 0.862000
0.003084 0.029319 0.857000
0.024398 -0.015443 0.875000
0.004995 -0.010496 0.883000
-0.007237 0.028623 0.868000
0.007471 -0.004639 0.875000
0.003084 0.031082 0.857000
-0.017428 0.013689 0.896000
-0.008337 -0.019057 0.910000
0.000267 0.014758 0.872000
0.005068 -0.024295 0.896000
-0.015012 0.024057 0.884000
0.010529 -0.021568 0.890000
0.026229 -0.015460 0.876000
-0.018452 0.020236 0.892000
0.006905 -0.027583 0.895000
0.012976 -0.015929 0.882000
0.010387 -0.010798 0.878000
-0.023354 0.037840 0.883000
0.011833 -0.011882 0.878000
0.015240 -0.028432 0.887000
0.005906 0.034257 0.857000
-0.006575 0.021651 0.875000
0.011289 0.013200 0.864000
-0.022960 0.016639 0.896000
-0.000445 0.030837 0.860000
0.013453 0.010736 0.866000
-0.028715 -0.017795 0.903000
-0.001580 -0.017404 0.902000
-0.009575 0.054014 0.886000
0.019599 -0.030223 0.886000
-0.012521 0.016125 0.888000
-0.004424 0.014121 0.877000
-0.000803 0.026358 0.864000
0.014256 -0.031968 0.894000
-0.009169 0.013838 0.882000
-0.017662 -0.032842 0.908000
-0.025485 0.021385 0.894000
-0.021829 0.019936 0.895000
0.036656 -0.014146 0.884000
-0.024780 0.041064 0.882000
-0.011950 0.027351 0.873000
0.001004 -0.012397 0.889000
0.015306 0.001475 0.870000
-0.013058 0.047581 0.875000
-0.018971 0.049414 0.882000
0.015500 -0.017361 0.881000
-0.026426 -0.022576 0.901000
0.007876 -0.011184 0.880000
-0.029099 0.016565 0.892000
-0.028155 -0.013616 0.897000
-0.016660 0.037137 0.875000
0.022745 -0.042686 0.895000
0.018635 -0.012201 0.875000
-0.002703 -0.019324 0.905000
-0.007988 -0.026635 0.913000
0.038198 -0.014907 0.886000
0.006696 0.009689 0.868000
-0.005369 -0.030459 0.915000
0.021566 -0.020170 0.877000
-0.025114 0.042831 0.881000
0.011249 0.021305 0.861000
0.034837 -0.018148 0.884000
0.013764 -0.020742 0.886000
0.016758 0.001477 0.871000
-0.010513 0.046035 0.873000
0.006514 -0.017578 0.892000
-0.013556 0.022602 0.884000
0.024065 -0.018705 0.876000
-0.008290 0.037468 0.866000
-0.006506 -0.034263 0.916000
-0.024435 0.015164 0.896000
-0.032001 0.009579 0.891000
-0.040390 0.030537 0.882000
-0.020881 0.050732 0.886000
-0.019400 0.050674 0.885000
0.005437 -0.021345 0.896000
-0.019685 0.012241 0.898000
0.003851 0.004703 0.871000
-0.006605 0.012706 0.879000
-0.013610 -0.039368 0.912000
0.017431 -0.029162 0.887000
-0.026987 0.006675 0.895000
-0.015334 0.000416 0.903000
0.024398 -0.014722 0.875000
-0.017420 0.036139 0.877000
-0.034413 0.027424 0.887000
-0.034856 0.005532 0.889000
0.006897 -0.024609 0.894000
0.009957 0.000043 0.872000
0.015658 -0.031092 0.890000
0.000619 0.025617 0.863000
-0.017440 0.035457 0.878000
-0.009738 -0.004406 0.901000
0.006758 -0.004644 0.876000
0.006609 -0.033106 0.905000
0.009929 -0.034110 0.902000
0.007599 -0.016806 0.890000
-0.017231 -0.014110 0.905000
-0.008635 -0.007009 0.902000
0.004331 -0.019132 0.896000
0.015324 -0.001032 0.871000
-0.029067 0.023881 0.891000
0.013858 0.003977 0.869000
-0.015167 0.040240 0.872000
-0.022642 0.010393 0.898000
-0.028797 0.001884 0.894000
-0.006042 -0.011477 0.903000
-0.017288 -0.031347 0.908000
-0.002581 0.027424 0.864000
-0.034856 0.011387 0.889000
0.000263 0.037165 0.859000
-0.040436 0.030935 0.883000
0.011779 -0.005353 0.874000
-0.029867 0.007027 0.893000
-0.007691 0.019941 0.879000
-0.023165 -0.031953 0.904000
-0.037613 0.022991 0.885000
-0.011321 -0.016417 0.909000
0.001687 0.023513 0.864000
-0.008663 -0.010385 0.905000
-0.023830 -0.020722 0.901000
0.000979 0.020383 0.867000
-0.004621 -0.032001 0.916000
-0.008443 0.010208 0.882000
-0.020077 0.009665 0.899000
-0.014298 -0.016772 0.908000
0.002054 0.017211 0.869000
0.018359 -0.019131 0.879000
-0.023959 0.026477 0.892000
-0.026589 0.013658 0.894000
-0.011232 0.025554 0.873000
-0.016858 -0.012992 0.905000
0.001700 0.014383 0.871000
0.006339 0.010046 0.868000
0.003489 0.010427 0.870000
-0.008676 0.028656 0.869000
-0.006856 0.034576 0.865000
-0.027755 -0.002906 0.896000
-0.023698 0.016270 0.896000
-0.006492 -0.027793 0.914000
0.025857 -0.036139 0.888000
0.014494 -0.023295 0.886000
0.005566 0.024437 0.859000
-0.007237 0.031481 0.868000
-0.006336 -0.004362 0.892000
0.012111 -0.002110 0.872000
0.005728 -0.013418 0.884000
-0.005375 -0.032378 0.916000
-0.004147 -0.010270 0.895000
-0.010935 0.049551 0.878000
-0.007078 -0.003999 0.893000
0.009367 -0.015238 0.884000
0.002773 0.010785 0.870000
-0.022768 -0.024113 0.903000
-0.033543 -0.002529 0.893000
-0.039644 0.012611 0.898000
-0.003069 -0.016680 0.903000
0.006750 -0.003558 0.875000
-0.015487 -0.029609 0.912000
-0.017174 0.001901 0.902000
-0.018514 0.015884 0.895000
0.005237 0.018513 0.863000
-0.008319 0.032233 0.869000
-0.006442 -0.016007 0.907000
0.023678 -0.015443 0.875000
-0.013371 0.007051 0.896000
-0.038299 0.027695 0.884000
-0.006265 0.053044 0.882000
0.000267 0.009733 0.872000
-0.023671 0.017726 0.895000
-0.005664 -0.011464 0.902000
-0.007396 0.055170 0.887000
-0.001153 0.037208 0.860000
-0.010107 0.035094 0.869000
0.000627 0.006878 0.874000
-0.026250 0.008517 0.895000
0.011262 0.017072 0.862000
-0.002572 0.033353 0.861000
-0.022525 0.042010 0.879000
-0.011964 0.030979 0.874000
0.015378 -0.034951 0.895000
0.003091 0.037872 0.859000
-0.000091 0.033237 0.858000
-0.003086 -0.022752 0.908000
-0.023433 -0.009957 0.900000
0.002744 0.025203 0.861000
-0.010886 -0.005536 0.904000
0.028818 -0.014411 0.878000
-0.006665 0.002599 0.887000
0.012785 0.002547 0.869000
-0.013418 0.026693 0.875000
-0.028123 -0.003275 0.896000
0.001673 0.033551 0.857000
-0.021415 0.041601 0.878000
-0.003660 0.041436 0.867000
0.013780 -0.023686 0.887000
0.023759 -0.023084 0.878000
0.025118 -0.012922 0.875000
-0.041890 0.021849 0.883000
-0.014499 0.034256 0.875000
-0.006450 -0.017520 0.908000
-0.028029 0.012173 0.893000
0.009599 0.000043 0.872000
-0.035873 0.020123 0.887000
-0.023777 -0.002916 0.899000
-0.013177 0.022939 0.883000
0.017535 -0.006792 0.874000
-0.017882 0.030900 0.882000
-0.030808 -0.011426 0.899000
-0.004944 -0.017108 0.906000
0.027892 -0.030484 0.883000
-0.028123 -0.004750 0.896000
-0.009392 0.040459 0.869000
0.010163 -0.024865 0.890000
0.017156 -0.004987 0.873000
-0.012069 -0.016417 0.909000
-0.010947 0.050331 0.879000
0.014477 -0.020719 0.885000
0.021181 -0.008610 0.876000
-0.030133 0.025685 0.890000
-0.012698 0.030655 0.875000
-0.025229 -0.006239 0.898000
0.009643 -0.008610 0.876000
-0.000447 0.040180 0.863000
-0.023407 -0.002546 0.899000
0.020076 -0.015443 0.875000
-0.010164 -0.010396 0.906000
-0.012521 0.054136 0.888000
0.004916 0.009700 0.869000
-0.043077 0.027362 0.885000
-0.015597 0.034295 0.876000
-0.030167 0.016546 0.891000
-0.004128 -0.006557 0.891000
-0.016395 0.006712 0.900000
-0.029433 0.023147 0.891000
-0.001227 -0.033849 0.915000
-0.021653 -0.020025 0.903000
-0.037628 0.007771 0.894000
0.020810 -0.037361 0.891000
-0.020739 0.038074 0.880000
-0.010607 -0.029609 0.912000
-0.002228 0.024608 0.865000
0.016042 -0.031494 0.891000
-0.004709 0.037338 0.863000
-0.011399 0.016818 0.886000
-0.008373 -0.030050 0.914000
-0.018162 0.035819 0.878000
-0.030235 0.005557 0.893000
-0.020863 -0.002181 0.901000
0.002526 -0.033289 0.910000
-0.016907 0.053039 0.888000
-0.016784 0.004124 0.901000
-0.002947 0.022524 0.867000
-0.007221 0.033904 0.866000
-0.002936 0.027780 0.864000
-0.010465 0.037240 0.869000
0.011577 0.026205 0.859000
0.028113 -0.036587 0.890000
-0.018988 0.008194 0.900000
0.019577 -0.029096 0.885000
-0.005217 -0.001054 0.889000
0.019621 -0.031718 0.887000
0.001400 -0.030634 0.909000
0.031022 -0.012257 0.879000
0.006147 -0.016844 0.892000
-0.025399 0.029748 0.891000
0.010695 -0.037534 0.904000
-0.008686 0.030479 0.870000
0.006259 0.027202 0.857000
-0.023063 -0.004771 0.900000
-0.020470 0.049889 0.884000
0.007326 0.025115 0.858000
-0.011437 0.008460 0.889000
0.005592 0.018868 0.863000
-0.019203 0.045472 0.876000
0.013278 -0.012243 0.878000
-0.013357 0.008885 0.895000
-0.016149 -0.018620 0.907000
-0.012998 0.042703 0.871000
0.000266 0.018663 0.870000
-0.023303 0.018831 0.895000
0.012427 0.003262 0.869000
-0.016413 0.004495 0.901000
-0.024693 0.026477 0.892000
0.001014 -0.016957 0.898000
-0.009481 -0.024354 0.912000
0.033381 -0.021423 0.884000
0.013415 -0.021861 0.887000
0.018526 -0.029162 0.887000
0.002097 -0.010908 0.887000
-0.040024 0.015063 0.890000
0.010529 -0.020836 0.890000
0.005806 -0.021714 0.896000
-0.018524 0.036542 0.878000
0.013922 -0.004269 0.873000
-0.021586 0.050310 0.885000
-0.001928 -0.010224 0.891000
-0.019294 0.013704 0.897000
0.006259 0.033551 0.857000
-0.001152 0.035751 0.859000
0.005194 0.033512 0.856000
-0.016736 0.032604 0.879000
-0.019072 -0.016698 0.904000
-0.006478 -0.023227 0.912000
0.028522 -0.022412 0.880000
0.004526 0.020644 0.863000
0.001677 0.037872 0.859000
-0.012817 -0.020532 0.909000
-0.004059 0.014105 0.876000
-0.014074 0.040911 0.871000
-0.010130 0.025854 0.871000
0.018651 -0.036710 0.893000
0.018635 -0.007520 0.875000
0.019408 -0.038959 0.894000
-0.005432 0.027100 0.865000
-0.027386 -0.001800 0.896000
-0.001579 -0.015531 0.901000
-0.013763 0.034936 0.874000
-0.032734 0.007012 0.891000
-0.017440 0.048105 0.878000
0.039701 -0.016384 0.887000
-0.011219 0.043829 0.872000
0.018974 -0.004274 0.874000
-0.015184 0.037411 0.873000
0.012278 -0.016693 0.884000
-0.003694 0.017690 0.875000
-0.006173 0.023291 0.869000
-0.029767 0.024953 0.890000
0.028479 -0.036953 0.890000
-0.027998 0.020971 0.892000
-0.022238 0.037434 0.882000
-0.037207 0.030606 0.884000
-0.010549 -0.010781 0.907000
-0.035792 0.028819 0.885000
0.026980 -0.014395 0.877000
0.002492 -0.018805 0.898000
-0.026589 0.018074 0.894000
-0.014074 0.041628 0.871000
-0.037291 0.017183 0.886000
-0.010433 0.001521 0.897000
0.002390 0.025912 0.861000
0.002028 0.037475 0.858000
0.032253 -0.020672 0.883000
0.004239 -0.001401 0.877000
-0.003395 -0.005457 0.891000
-0.002331 -0.020069 0.905000
-0.004017 0.023238 0.867000
-0.005868 0.018452 0.877000
-0.016030 0.028294 0.880000
-0.011695 -0.015668 0.909000
0.012858 -0.005353 0.874000
-0.014330 -0.031042 0.910000
0.003188 -0.011990 0.886000
-0.017479 0.032641 0.880000
0.005419 -0.017230 0.893000
-0.003296 0.025320 0.865000
-0.022314 0.033919 0.885000
0.000972 0.027329 0.861000
-0.031004 -0.007315 0.894000
0.032217 -0.018833 0.882000
-0.010477 0.040506 0.870000
-0.012436 0.051229 0.882000
-0.040653 0.014183 0.904000
0.024677 -0.033103 0.885000
0.004336 -0.023584 0.897000
0.004752 -0.032024 0.906000
0.004215 0.003632 0.872000
-0.007221 -0.020202 0.911000
0.013795 -0.029195 0.888000
-0.005733 -0.026259 0.913000
0.036333 -0.016712 0.885000
0.008414 0.018470 0.861000
0.035888 -0.011949 0.883000
-0.019051 -0.007389 0.903000
0.006972 0.024056 0.858000
-0.031857 0.035091 0.887000
-0.022223 0.015902 0.896000
-0.012169 0.014314 0.889000
0.008993 -0.014493 0.883000
0.011079 -0.039438 0.905000
-0.030900 0.015813 0.891000
-0.004073 0.008003 0.879000
-0.000092 0.016552 0.872000
-0.010282 0.010595 0.884000
0.003084 0.032493 0.857000
0.006650 0.018491 0.862000
-0.026221 0.015498 0.894000
-0.010130 0.027647 0.871000
-0.020493 0.031369 0.885000
0.016262 -0.021035 0.883000
-0.025117 0.020650 0.894000
0.013263 -0.010785 0.877000
0.000977 0.023184 0.865000
-0.029132 0.009968 0.893000
-0.024943 -0.024060 0.901000
-0.033317 0.031440 0.887000
-0.003452 -0.019719 0.906000
-0.006967 0.012706 0.879000
-0.034047 0.025599 0.887000
0.018304 -0.037487 0.894000
-0.003698 0.010860 0.876000
-0.030499 0.023488 0.890000
0.020820 -0.019426 0.876000
0.007338 -0.031918 0.903000
-0.003100 -0.026606 0.912000
0.029642 -0.023526 0.881000
0.020031 -0.034350 0.889000
-0.019707 0.008925 0.899000
0.012827 -0.032444 0.897000
0.005573 0.023050 0.860000
-0.013904 0.023666 0.883000
0.006449 -0.013403 0.883000
-0.027662 0.016216 0.893000
-0.017098 0.034051 0.879000
-0.038299 0.024421 0.884000
-0.017876 0.007823 0.900000
-0.015385 -0.010769 0.906000
-0.016467 0.051345 0.884000
-0.021653 -0.022255 0.903000
-0.026162 0.038593 0.892000
-0.022272 0.007436 0.898000
-0.040436 0.023666 0.883000
-0.034778 0.023408 0.887000
0.012430 -0.031267 0.895000
-0.037571 0.028423 0.884000
0.029642 -0.023888 0.881000
-0.013058 0.031375 0.875000
0.021984 -0.041535 0.894000
0.026680 -0.023111 0.879000
0.003918 -0.012355 0.886000
0.034473 -0.019240 0.884000
-0.005152 0.015221 0.878000
0.006781 -0.008278 0.879000
0.012356 0.012489 0.864000
0.003601 -0.023240 0.898000
-0.021245 0.031769 0.886000
-0.023751 0.003740 0.898000
-0.016393 0.030105 0.880000
-0.025173 0.008157 0.896000
-0.023637 0.043506 0.880000
-0.016598 0.018380 0.891000
-0.005671 -0.011848 0.903000
-0.016468 -0.002560 0.904000
-0.022667 0.001894 0.899000
-0.009502 -0.037573 0.914000
-0.027631 0.022806 0.892000
0.032868 -0.010822 0.880000
-0.008749 -0.033059 0.914000
0.030730 -0.018449 0.881000
-0.016299 0.037497 0.875000
-0.008726 0.047527 0.874000
-0.030133 0.028250 0.890000
-0.007221 0.038894 0.866000
0.028846 -0.035854 0.890000
0.022623 -0.009331 0.876000
-0.001505 0.034337 0.859000
-0.008153 0.000410 0.890000
0.010614 0.006823 0.867000
-0.002706 -0.020464 0.906000
-0.028700 0.023881 0.891000
0.011249 -0.020812 0.889000
0.009515 -0.030632 0.898000
-0.027355 0.002254 0.895000
-0.023986 0.023199 0.893000
0.029213 -0.017684 0.879000
-0.004404 0.021242 0.873000
0.003641 -0.031721 0.908000
-0.009543 0.015671 0.883000
0.002149 -0.031008 0.909000
-0.008434 0.017448 0.881000
0.004910 0.013976 0.868000
-0.002614 0.016970 0.875000
-0.020516 0.051096 0.886000
-0.010131 -0.005159 0.903000
-0.029934 -0.008797 0.895000
-0.005514 0.011969 0.878000
-0.021258 -0.011093 0.902000
0.010590 0.010367 0.865000
-0.000829 -0.012438 0.892000
-0.000468 -0.021932 0.905000
-0.006868 -0.027416 0.914000
-0.028492 -0.005119 0.896000
-0.020561 -0.025256 0.904000
0.024509 -0.026005 0.879000
-0.007371 0.053528 0.884000
0.027435 -0.026034 0.880000
-0.021390 0.042997 0.877000
0.007265 -0.022401 0.894000
0.020234 -0.042829 0.898000
0.016738 0.003266 0.870000
0.005006 -0.013069 0.885000
0.028851 -0.016598 0.879000
-0.017360 0.039613 0.874000
0.023732 -0.022336 0.877000
-0.030431 0.035130 0.888000
-0.017487 0.009295 0.899000
-0.009232 0.004430 0.888000
-0.005088 0.041080 0.867000
-0.008520 0.000777 0.890000
-0.006959 0.050635 0.878000
-0.003660 0.022881 0.867000
0.006463 -0.014526 0.885000
-0.013163 0.051229 0.882000
-0.031337 0.001514 0.893000
-0.016840 -0.006653 0.904000
-0.005299 -0.012592 0.903000
-0.030465 0.032243 0.889000
0.024340 -0.034599 0.886000
0.015376 -0.006792 0.874000
0.007965 -0.017173 0.890000
-0.018389 -0.032059 0.907000
-0.036197 0.025570 0.886000
-0.032258 0.031476 0.888000
-0.003086 -0.021631 0.908000
-0.014330 -0.030667 0.910000
-0.016185 -0.034001 0.909000
-0.024147 -0.002546 0.899000
0.013686 -0.015548 0.881000
0.009698 -0.013735 0.881000
-0.024381 0.021385 0.894000
-0.016149 -0.021234 0.907000
-0.008053 0.047437 0.879000
-0.009211 0.007337 0.886000
-0.011923 0.042345 0.871000
0.015093 -0.039961 0.900000
0.033268 -0.011560 0.881000
0.028457 -0.016580 0.878000
-0.014397 0.015446 0.891000
0.003497 0.003991 0.872000
-0.032295 0.024925 0.889000
-0.009850 0.022448 0.878000
0.024816 -0.039151 0.890000
-0.004785 0.013760 0.877000
0.003962 -0.018026 0.896000
-0.001194 -0.011691 0.891000
-0.024228 -0.026314 0.902000
0.031375 -0.028130 0.889000
-0.020054 0.011502 0.898000
0.015736 -0.007871 0.874000
-0.025089 0.024669 0.893000
0.009889 0.009310 0.866000
-0.016812 0.028027 0.883000
-0.010142 0.025525 0.872000
-0.020447 0.009295 0.899000
0.001385 -0.017716 0.899000
-0.018080 0.041771 0.874000
-0.032331 0.012498 0.890000
-0.021878 0.013704 0.897000
-0.021975 0.032499 0.886000
-0.014139 0.028494 0.875000
0.023678 -0.016163 0.875000
-0.026221 0.040151 0.894000
-0.019987 0.017357 0.895000
-0.017936 -0.004415 0.903000
0.004921 0.006488 0.870000
-0.015633 0.029676 0.878000
0.011733 -0.032111 0.898000
-0.019072 -0.011117 0.904000
-0.008692 -0.013783 0.908000
-0.007971 -0.021702 0.911000
-0.028925 -0.015848 0.898000
-0.027724 0.001518 0.895000
-0.011370 -0.035653 0.913000
-0.003364 0.007676 0.883000
0.009940 -0.035263 0.903000
-0.032404 0.002614 0.892000
0.017575 -0.015100 0.876000
-0.018819 0.020236 0.892000
-0.012789 -0.011154 0.907000
0.018275 -0.012561 0.875000
-0.001956 -0.018931 0.904000
0.000983 0.016175 0.871000
0.006266 0.035709 0.858000
0.033306 -0.013751 0.882000
0.005207 0.036769 0.858000
-0.006975 0.015256 0.880000
0.026589 -0.014018 0.876000
-0.009044 0.030838 0.870000
-0.004944 -0.017481 0.906000
0.017647 -0.040981 0.898000
-0.021653 -0.019653 0.903000
-0.017662 -0.034711 0.908000
-0.001874 0.041032 0.866000
-0.029001 0.034072 0.889000
-0.010293 0.010243 0.885000
-0.004791 0.009800 0.878000
0.006449 -0.013040 0.883000
0.023678 -0.013642 0.875000
-0.013618 0.053770 0.888000
0.034071 -0.015584 0.883000
0.011746 -0.033997 0.899000
-0.016877 -0.015244 0.906000
-0.030465 0.029316 0.889000
-0.003399 -0.009501 0.892000
0.000264 0.039778 0.862000
0.018763 -0.023163 0.881000
-0.009117 0.049855 0.877000
-0.003296 0.040273 0.865000
-0.032001 0.005912 0.891000
-0.026559 0.020259 0.893000
-0.016723 -0.042272 0.918000
0.001689 0.022472 0.865000
0.015481 -0.041118 0.901000
0.002734 0.028646 0.858000
-0.036279 0.008450 0.888000
-0.009951 0.006250 0.887000
-0.027047 -0.010293 0.897000
-0.002336 -0.021607 0.907000
-0.005146 0.018452 0.877000
-0.036197 0.025205 0.886000
0.001323 0.030094 0.859000
0.017976 -0.039415 0.896000
0.023786 -0.025643 0.879000
-0.022347 -0.011822 0.901000
-0.021245 0.031040 0.886000
-0.019920 0.022806 0.892000
-0.004430 0.008716 0.878000
0.004205 0.007204 0.870000
-0.027786 -0.008447 0.897000
0.007437 0.000760 0.871000
-0.015741 -0.007405 0.905000
0.012129 -0.035146 0.900000
-0.020562 0.028552 0.888000
-0.020447 0.008925 0.899000
-0.021328 -0.032734 0.905000
-0.023303 0.019199 0.895000
-0.019294 0.012966 0.897000
-0.024201 -0.019981 0.901000
-0.012843 0.020442 0.885000
-0.005733 -0.025508 0.913000
-0.019773 -0.007009 0.902000
-0.020771 0.013704 0.897000
-0.021756 0.025376 0.892000
-0.003437 -0.014805 0.902000
-0.008006 -0.031966 0.915000
-0.006793 -0.011490 0.904000
0.018891 -0.030257 0.887000
0.019621 -0.030622 0.887000
-0.007743 0.006600 0.885000
-0.025285 0.035821 0.887000
-0.008373 -0.028169 0.914000
-0.019904 -0.040316 0.908000
0.029936 -0.015151 0.879000
0.014641 -0.033477 0.895000
-0.022465 0.026815 0.891000
-0.008319 0.029371 0.869000
0.021902 -0.019426 0.876000
0.014931 0.002547 0.869000
-0.002581 0.027780 0.864000
0.007070 0.004698 0.870000
0.012899 -0.039308 0.902000
-0.034009 0.032863 0.886000
-0.007312 0.049494 0.877000
-0.032575 -0.008168 0.907000
0.003829 0.017151 0.866000
0.009808 -0.027093 0.891000
0.024454 -0.022336 0.877000
0.011224 -0.018575 0.887000
0.012500 -0.035887 0.900000
-0.037571 0.030242 0.884000
-0.014780 0.013995 0.892000
-0.024326 0.025743 0.892000
0.024398 -0.012922 0.875000
-0.013403 0.033857 0.874000
-0.010874 -0.004787 0.903000
-0.009878 -0.035316 0.914000
0.008738 0.025468 0.858000
-0.025173 0.009264 0.896000
0.017181 -0.034872 0.893000
-0.032001 0.006278 0.891000
0.004215 0.003273 0.872000
0.023611 -0.034599 0.886000
-0.027233 0.045150 0.891000
-0.016431 0.003015 0.902000
-0.016981 0.044598 0.873000
0.019334 -0.001755 0.874000
-0.027847 -0.018456 0.899000
-0.007245 -0.028169 0.914000
0.022517 -0.033505 0.886000
-0.009856 -0.023603 0.912000
-0.018988 0.005601 0.900000
0.024815 -0.021614 0.877000
0.011806 -0.008249 0.876000
-0.000096 -0.025340 0.907000
0.032617 -0.022125 0.883000
-0.008635 -0.006267 0.902000
-0.015689 0.000787 0.902000
-0.001530 0.016931 0.873000
-0.009138 0.050693 0.879000
-0.032440 -0.004734 0.893000
0.012555 -0.041255 0.904000
-0.004938 -0.015972 0.905000
0.002776 0.006854 0.871000
-0.019563 0.044390 0.876000
-0.022617 0.012597 0.897000
0.017675 -0.021350 0.881000
0.008472 -0.036086 0.905000
-0.017212 -0.006281 0.904000
-0.029400 0.026784 0.890000
-0.023645 0.022121 0.894000
-0.010596 -0.023202 0.911000
-0.023328 0.047962 0.882000
-0.009066 -0.014156 0.908000
-0.026957 0.013290 0.894000
-0.013771 0.006328 0.898000
0.012755 0.007893 0.867000
-0.022541 0.021753 0.894000
0.008748 0.023377 0.859000
0.012584 -0.013720 0.880000
-0.011991 0.048356 0.876000
-0.035913 0.011374 0.888000
-0.005270 -0.009196 0.898000
-0.020492 -0.000697 0.901000
0.022830 -0.031610 0.884000
0.007688 0.023023 0.859000
-0.013986 -0.026606 0.912000
0.009084 -0.027858 0.892000
0.001777 -0.031791 0.910000
0.009522 0.011435 0.865000
-0.000096 -0.020397 0.903000
0.016464 -0.034544 0.894000
0.029575 -0.016960 0.879000
0.011604 0.019887 0.861000
-0.018080 0.043570 0.874000
0.018657 -0.016902 0.876000
0.012028 0.009666 0.866000
-0.039026 0.024057 0.884000
-0.005299 -0.013335 0.903000
-0.023407 -0.003656 0.899000
0.010504 0.027940 0.858000
-0.006888 0.041532 0.869000
0.017277 -0.040981 0.898000
0.009044 -0.017134 0.888000
0.011043 -0.035966 0.902000
-0.003083 -0.020860 0.907000
0.017515 -0.004269 0.873000
-0.010742 0.004817 0.892000
-0.033101 0.006278 0.891000
0.002859 -0.017677 0.897000
-0.011370 -0.036405 0.913000
-0.019356 0.031662 0.883000
0.006743 -0.002835 0.874000
0.010920 0.014250 0.863000
0.021010 -0.029427 0.884000
0.010220 -0.030162 0.895000
0.005982 0.012189 0.868000
-0.003083 -0.020487 0.907000
-0.021163 0.010393 0.898000
0.003109 0.021379 0.864000
-0.010305 0.054014 0.886000
0.007670 0.028966 0.857000
-0.023121 0.031476 0.888000
-0.015939 0.037137 0.875000
-0.033834 0.000411 0.891000
-0.012003 -0.004792 0.904000
-0.010897 0.047941 0.875000
0.005547 0.033512 0.856000
0.009980 -0.004993 0.874000
0.032943 -0.015566 0.882000
0.004705 -0.020999 0.897000
-0.012845 -0.030701 0.911000
0.001691 0.021429 0.866000
0.004495 0.028966 0.857000
-0.005438 0.029626 0.866000
-0.024544 -0.011439 0.900000
0.016132 -0.036833 0.896000
-0.012676 0.003375 0.899000
-0.023037 -0.001066 0.899000
0.014741 -0.014428 0.879000
-0.011803 0.010655 0.889000
-0.005589 -0.003619 0.890000
0.006507 -0.016458 0.891000
-0.009761 0.040506 0.870000
-0.001519 0.022524 0.867000
-0.040980 0.015283 0.903000
-0.014913 0.004860 0.900000
-0.024067 0.015533 0.896000
-0.025513 0.014779 0.895000
0.006288 0.020950 0.861000
-0.023069 0.033593 0.886000
0.003131 0.007204 0.870000
-0.028460 0.001149 0.895000
-0.008006 -0.036861 0.915000
-0.000836 -0.015513 0.900000
-0.007813 -0.002896 0.893000
-0.012756 0.023559 0.879000
-0.012507 0.017202 0.887000
-0.013207 0.052496 0.885000
-0.009835 -0.016809 0.910000
0.011249 -0.025569 0.889000
-0.020037 0.035941 0.881000
-0.000452 0.014416 0.873000
-0.019541 0.041819 0.875000
0.002731 0.031788 0.857000
-0.028460 0.001518 0.895000
-0.026589 0.017706 0.894000
0.008210 -0.008981 0.877000
-0.008006 -0.035355 0.915000
-0.018692 0.027758 0.886000
-0.000091 0.025646 0.864000
-0.018100 0.039298 0.875000
0.009217 -0.036831 0.905000
-0.009024 0.034696 0.868000
0.002059 0.008647 0.871000
0.009155 0.013911 0.864000
-0.039709 0.021486 0.883000
-0.008686 0.029763 0.870000
0.005201 0.034609 0.857000
-0.002215 0.034731 0.860000
-0.037571 0.032425 0.884000
-0.017700 0.042442 0.873000
-0.020211 -0.029009 0.905000
0.003601 -0.024349 0.898000
0.016437 -0.004628 0.873000
-0.035428 0.032826 0.885000
0.017635 -0.018046 0.879000
0.010870 0.026559 0.859000
0.029114 -0.032083 0.887000
-0.017155 0.003753 0.901000
-0.005346 -0.022452 0.911000
0.009832 0.019887 0.861000
-0.018988 0.007453 0.900000
-0.009781 -0.008895 0.905000
-0.022223 0.015533 0.896000
0.018526 -0.030257 0.887000
-0.011244 0.047167 0.874000
-0.040436 0.022213 0.883000
-0.008766 0.022087 0.878000
-0.025679 0.034765 0.888000
-0.018286 0.050617 0.884000
-0.029001 0.032609 0.889000
-0.017603 -0.015600 0.905000
-0.013595 -0.037825 0.911000
0.015682 0.000402 0.871000
0.014808 -0.018855 0.883000
0.030800 -0.026123 0.883000
-0.027817 -0.017327 0.898000
-0.036238 0.016472 0.887000
0.009786 0.028613 0.857000
-0.002709 -0.021980 0.907000
-0.018308 -0.005159 0.903000
-0.007396 0.002599 0.887000
0.002120 -0.016569 0.897000
0.003505 0.001482 0.874000
-0.028603 0.036958 0.888000
-0.037656 0.015724 0.886000
-0.000091 0.036104 0.859000
-0.034163 0.006271 0.890000
-0.020678 0.022464 0.893000
-0.022347 -0.009968 0.901000
-0.014122 0.034936 0.874000
-0.020331 0.039071 0.878000
0.005683 -0.004649 0.877000
0.016151 -0.014395 0.877000
-0.033796 0.007370 0.890000
-0.027530 -0.022877 0.913000
0.009511 0.013556 0.864000
-0.031282 -0.010722 0.902000
-0.003456 -0.020487 0.907000
-0.024190 0.034726 0.887000
-0.005715 -0.020180 0.910000
0.015000 -0.004269 0.873000
-0.014432 0.041628 0.871000
0.000643 0.006313 0.896000
0.013407 0.019223 0.863000
0.022277 -0.039562 0.891000
0.015034 -0.008960 0.875000
0.024148 -0.026005 0.879000
-0.001162 0.022524 0.867000
-0.032624 0.024166 0.888000
0.019234 -0.029129 0.886000
0.008502 0.002550 0.870000
-0.023114 -0.020745 0.902000
-0.015758 -0.010396 0.906000
-0.017976 -0.018579 0.905000
-0.022986 0.010382 0.897000
0.008871 0.001835 0.871000
-0.023088 -0.017756 0.901000
0.007013 0.016382 0.863000
-0.000466 -0.018126 0.901000
0.003235 -0.021046 0.899000
-0.008373 -0.027793 0.914000
-0.016185 -0.034749 0.909000
-0.006450 -0.016772 0.908000
-0.008946 -0.000693 0.896000
-0.008529 -0.000323 0.891000
-0.012998 0.039835 0.871000
-0.022883 0.023199 0.893000
-0.024970 -0.026685 0.902000
-0.015402 -0.015261 0.907000
0.023114 -0.042686 0.895000
-0.010835 0.035134 0.870000
-0.008053 0.020303 0.879000
-0.028092 0.002623 0.895000
0.017116 0.001835 0.871000
0.012699 -0.024444 0.888000
-0.021328 -0.032361 0.905000
-0.019290 0.048215 0.880000
-0.015515 0.015464 0.892000
-0.003035 -0.010982 0.893000
-0.000451 0.018326 0.871000
-0.009543 0.011673 0.883000
0.026953 -0.035774 0.888000
0.019896 -0.026850 0.883000
0.015605 -0.028797 0.887000
0.007281 -0.029089 0.896000
0.005267 0.013618 0.868000
-0.023173 0.029349 0.890000
0.016512 -0.015117 0.877000
-0.041432 0.026514 0.881000
0.014540 0.008607 0.867000
0.015498 -0.041906 0.902000
-0.006508 0.033547 0.866000
-0.030336 0.018483 0.896000
-0.010561 0.049133 0.877000
-0.001170 0.010104 0.873000
0.010504 0.029706 0.858000
-0.030705 -0.010282 0.896000
-0.007629 -0.032342 0.915000
-0.018617 0.007082 0.900000
0.004015 -0.032468 0.908000
-0.035468 0.026299 0.886000
-0.025882 0.012937 0.895000
-0.038299 0.025512 0.884000
-0.014639 -0.009278 0.906000
0.012942 -0.042046 0.905000
0.004642 -0.009791 0.885000
0.003790 0.030729 0.857000
-0.008395 0.022423 0.877000
-0.001887 0.019065 0.872000
-0.032952 0.028885 0.887000
0.002049 0.019312 0.867000
-0.010130 0.029439 0.871000
0.006383 -0.001755 0.874000
-0.013357 0.043420 0.871000
0.025682 -0.030450 0.882000
0.002776 0.007571 0.871000
0.006303 0.017802 0.863000
0.001394 -0.024912 0.905000
-0.015917 0.013658 0.894000
-0.021328 -0.035341 0.905000
-0.003867 -0.033132 0.916000
0.018568 -0.032155 0.889000
0.012083 0.000759 0.870000
-0.035428 0.031369 0.885000
-0.014515 0.027445 0.876000
0.006743 -0.002475 0.874000
-0.012310 0.033459 0.873000
0.025013 -0.032702 0.884000
-0.026367 -0.014756 0.899000
-0.026262 0.046199 0.883000
0.000651 -0.026087 0.907000
-0.011333 -0.017558 0.910000
0.013324 -0.014461 0.881000
-0.015167 0.039163 0.872000
0.011602 -0.025175 0.888000
-0.012761 -0.006660 0.905000
0.035241 -0.020354 0.885000
-0.026026 -0.021070 0.900000
-0.020747 0.015902 0.896000
-0.014893 0.031447 0.877000
0.009643 -0.008970 0.876000
-0.010984 0.021098 0.882000
-0.021512 0.035982 0.882000
0.004893 0.017488 0.865000
0.007257 -0.025684 0.893000
0.014879 0.013587 0.866000
0.025478 -0.012561 0.875000
-0.012817 -0.019036 0.909000
-0.015544 0.038130 0.873000
-0.024599 -0.027056 0.902000
0.010688 -0.003191 0.873000
-0.006975 0.015980 0.880000
-0.000092 0.021810 0.867000
-0.030568 0.009222 0.892000
0.014320 -0.035807 0.898000
-0.013073 0.047996 0.876000
0.019716 -0.007159 0.875000
0.011944 0.025882 0.860000
0.005631 0.011131 0.869000
-0.014345 -0.036700 0.911000
-0.006137 0.035248 0.864000
0.012656 -0.018897 0.885000
-0.022297 0.001524 0.899000
0.013142 0.002547 0.869000
0.009555 0.006473 0.868000
-0.040390 0.029811 0.882000
-0.012292 0.003371 0.898000
-0.011551 0.038357 0.870000
0.002830 -0.013479 0.888000
0.014145 -0.027702 0.887000
-0.019720 0.033115 0.883000
0.011986 0.016737 0.863000
0.009388 -0.016001 0.886000
0.002520 -0.030226 0.908000
-0.028155 -0.009924 0.897000
0.006604 0.032807 0.856000
-0.014332 0.053344 0.887000
-0.018439 0.042850 0.874000
0.013733 -0.018876 0.884000
-0.025506 0.045057 0.882000
-0.040163 0.031369 0.885000
-0.029165 0.001884 0.894000
0.000621 0.023896 0.865000
-0.041479 0.025818 0.882000
-0.008740 -0.027011 0.913000
0.013422 0.014978 0.864000
-0.019809 0.028154 0.887000
0.001673 0.033904 0.857000
-0.021561 0.034244 0.884000
0.008210 -0.008259 0.877000
0.018213 -0.000316 0.872000
0.010210 0.014250 0.863000
-0.023460 0.033996 0.887000
-0.031893 0.027455 0.888000
-0.002336 -0.021980 0.907000
-0.017136 0.049358 0.881000
-0.003652 0.040273 0.865000
0.015429 -0.037655 0.898000
-0.018064 0.020580 0.891000
0.003605 -0.022156 0.899000
-0.001967 -0.025396 0.909000
-0.007031 0.001869 0.887000
-0.022858 0.025743 0.892000
0.005455 -0.006986 0.899000
0.012222 -0.013720 0.880000
0.005108 -0.029688 0.903000
-0.031929 0.024193 0.889000
-0.032222 0.032535 0.887000
-0.036320 0.006264 0.889000
-0.014543 0.004490 0.900000
0.015447 -0.014411 0.878000
-0.007708 0.015635 0.881000
0.026678 -0.039195 0.891000
0.004152 0.025498 0.859000
-0.007988 -0.024756 0.913000
-0.012156 0.015394 0.888000
0.003138 0.005427 0.872000
-0.005334 -0.020158 0.909000
-0.006493 0.036315 0.864000
-0.027693 0.008139 0.894000
-0.004124 -0.002520 0.890000
-0.024067 0.017008 0.896000
-0.001524 0.020453 0.870000
-0.001582 -0.018167 0.903000
-0.037613 0.023720 0.885000
-0.003652 0.024964 0.865000
-0.022667 0.002634 0.899000
-0.015376 0.025148 0.884000
0.011671 0.009310 0.866000
0.007317 0.032493 0.857000
-0.028861 -0.011388 0.896000
0.033018 -0.023242 0.884000
0.011590 0.023050 0.860000
-0.004709 0.038048 0.863000
-0.014720 -0.037825 0.911000
0.004995 -0.010859 0.883000
-0.022986 0.014812 0.897000
-0.028492 -0.009175 0.896000
-0.029067 0.022781 0.891000
-0.029367 0.032243 0.889000
0.002149 -0.031382 0.909000
-0.013191 -0.017165 0.909000
-0.023088 -0.012564 0.901000
0.025013 -0.031974 0.884000
-0.028861 -0.012125 0.896000
0.038606 -0.016750 0.887000
-0.013955 -0.031791 0.910000
0.004191 0.015387 0.867000
0.019365 -0.036302 0.892000
-0.021269 0.030710 0.887000
-0.017020 0.037857 0.875000
-0.004490 -0.001421 0.890000
-0.029466 0.018033 0.892000
-0.013495 0.023948 0.880000
0.025176 -0.020892 0.877000
-0.009044 0.031196 0.870000
0.002125 -0.018826 0.899000
0.013324 -0.014823 0.881000
-0.015453 -0.038533 0.910000
0.011537 -0.015584 0.883000
-0.019946 0.045524 0.877000
0.009001 -0.041652 0.921000
-0.016078 0.000416 0.903000
0.031022 -0.012619 0.879000
-0.006158 0.040723 0.867000
0.009855 0.014961 0.863000
-0.030065 0.034765 0.888000
0.018997 -0.035935 0.892000
-0.033101 0.005912 0.891000
-0.022883 0.023567 0.893000
-0.005070 0.038448 0.864000
0.011477 -0.042139 0.907000
-0.020716 0.038392 0.879000
-0.019487 -0.024939 0.906000
-0.005533 0.052621 0.881000
-0.005299 -0.012963 0.903000
-0.013163 0.023277 0.882000
-0.008062 0.019240 0.880000
0.011236 0.022342 0.860000
-0.009096 -0.020202 0.911000
-0.018044 0.022022 0.890000
-0.011564 0.035175 0.871000
0.018952 -0.001035 0.873000
0.016682 -0.025483 0.886000
-0.026015 0.037281 0.887000
0.018635 -0.014002 0.875000
-0.013536 -0.009661 0.907000
0.014113 -0.019990 0.885000
0.005207 0.037122 0.858000
-0.006407 -0.009608 0.902000
0.000279 -0.031485 0.912000
-0.016249 0.016932 0.892000
-0.029834 0.010324 0.892000
-0.032331 0.011399 0.890000
0.018275 -0.009320 0.875000
-0.016374 0.048884 0.879000
0.003927 -0.014210 0.888000
0.002773 0.010069 0.870000
-0.003656 0.023567 0.866000
0.026650 -0.020193 0.878000
0.009091 0.026175 0.858000
-0.035832 0.020829 0.886000
-0.006208 0.021986 0.874000
-0.014267 -0.007040 0.906000
0.039746 -0.017499 0.888000
0.010529 -0.024132 0.890000
-0.013595 -0.025827 0.911000
-0.003694 0.018770 0.875000
0.011811 -0.039395 0.904000
-0.003648 0.029914 0.864000
-0.004551 -0.012949 0.902000
-0.023303 0.019568 0.895000
-0.016131 -0.013007 0.906000
-0.023751 0.005588 0.898000
0.004558 0.007912 0.869000
-0.014155 0.047996 0.876000
0.015288 0.004335 0.869000
-0.029034 0.029349 0.890000
-0.020840 0.002637 0.900000
0.006209 -0.029993 0.901000
-0.025485 0.019546 0.894000
0.003473 0.018577 0.866000
-0.029834 0.011425 0.892000
-0.014791 0.041986 0.871000
0.009808 -0.022693 0.891000
0.027319 -0.035408 0.888000
-0.032587 0.033265 0.887000
0.019061 -0.040476 0.895000
0.007265 -0.027920 0.894000
-0.001587 -0.022329 0.906000
-0.023724 0.011858 0.897000
-0.002217 0.038315 0.861000
-0.014515 0.032492 0.876000
-0.000447 0.025646 0.864000
-0.017526 0.004495 0.901000
-0.004933 -0.015210 0.904000
0.003573 -0.014991 0.891000
-0.000460 -0.009835 0.889000
-0.019030 -0.003297 0.902000
0.009430 -0.019004 0.890000
-0.008098 0.007320 0.884000
-0.038982 0.030571 0.883000
-0.010619 -0.031896 0.913000
-0.005551 0.054256 0.884000
0.025233 -0.025281 0.879000
-0.017662 -0.035084 0.908000
0.006536 -0.027583 0.895000
-0.020794 0.012611 0.898000
0.012656 -0.018533 0.885000
-0.017781 0.036861 0.877000
-0.031598 0.014330 0.890000
-0.021210 0.001156 0.900000
0.028619 -0.030484 0.883000
-0.008749 -0.033435 0.914000
0.002026 0.034257 0.857000
-0.001575 -0.014016 0.899000
-0.030831 0.027120 0.889000
-0.005064 0.034497 0.863000
-0.011399 0.016089 0.886000
-0.006763 -0.007364 0.900000
0.004137 0.031751 0.856000
0.012333 -0.023713 0.888000
-0.011566 0.000784 0.899000
-0.022322 -0.004030 0.900000
0.008580 -0.010436 0.878000
0.035645 -0.021471 0.886000
0.005793 -0.018354 0.894000
-0.012109 -0.031861 0.912000
0.037020 -0.012327 0.884000
-0.005602 -0.005830 0.892000
-0.007612 -0.024756 0.913000
-0.030970 -0.001426 0.893000
-0.014698 0.019758 0.887000
-0.019444 -0.018187 0.904000
-0.001512 0.028103 0.863000
-0.002318 -0.013661 0.900000
0.015412 -0.010413 0.876000
-0.027662 0.014011 0.893000
-0.038706 0.015342 0.885000
0.015050 -0.044257 0.920000
0.014982 -0.003187 0.872000
0.008717 -0.026022 0.892000
-0.020054 0.012241 0.898000
-0.008318 -0.015278 0.908000
-0.019014 0.030242 0.884000
-0.022550 0.047128 0.880000
0.006398 -0.004283 0.876000
-0.008666 0.033625 0.868000
-0.023407 -0.004396 0.899000
-0.012416 -0.011154 0.907000
-0.021053 0.040878 0.878000
-0.002670 -0.011730 0.894000
-0.018907 0.048160 0.879000
-0.020539 0.028885 0.887000
0.002501 0.003382 0.901000
-0.026708 -0.009196 0.898000
-0.022396 -0.024856 0.903000
-0.016012 0.028624 0.879000
0.003605 -0.021786 0.899000
-0.020121 0.003011 0.901000
-0.018142 0.047329 0.877000
-0.008826 0.009140 0.884000
0.012513 -0.006439 0.875000
-0.021564 -0.039121 0.915000
0.009165 0.012503 0.865000
-0.033758 0.014680 0.889000
-0.015046 -0.020883 0.908000
0.002523 -0.032130 0.909000
0.008561 -0.007528 0.876000
0.005735 -0.014162 0.885000
0.012236 -0.014461 0.881000
-0.026927 0.019524 0.893000
-0.013148 -0.008532 0.906000
-0.007031 0.004060 0.887000
0.004859 0.037519 0.859000
-0.034047 0.028154 0.887000
0.011739 0.000043 0.871000
0.016835 -0.008600 0.875000
-0.004059 0.010860 0.876000
-0.040753 0.015568 0.898000
0.016892 -0.016218 0.878000
-0.003838 -0.022777 0.909000
0.005243 0.018179 0.864000
0.013314 -0.042418 0.905000
0.002481 -0.015410 0.894000
0.000618 0.039378 0.861000
0.010882 0.023404 0.860000
0.005364 -0.012691 0.884000
-0.012210 0.009957 0.892000
-0.012592 0.009968 0.893000
0.035524 -0.011223 0.883000
-0.026678 -0.002540 0.897000
0.000623 0.020406 0.868000
0.039015 -0.019327 0.888000
-0.005432 0.026388 0.865000
-0.027755 -0.001062 0.896000
0.010163 -0.027063 0.890000
-0.007237 -0.024380 0.913000
-0.017059 0.013689 0.896000
-0.006864 0.039250 0.866000
-0.019051 -0.008875 0.903000
-0.009252 0.002608 0.890000
0.024120 -0.023807 0.878000
-0.000096 -0.026115 0.908000
-0.007337 0.017429 0.880000
0.017156 -0.003909 0.873000
-0.024832 0.003736 0.897000
-0.013778 0.027774 0.875000
-0.027047 -0.009185 0.897000
-0.030127 -0.015720 0.912000
-0.003770 -0.009512 0.893000
0.001339 0.018284 0.869000
0.014494 -0.022930 0.886000
0.001757 -0.019588 0.900000
0.005352 -0.010121 0.882000
0.000616 0.035709 0.858000
-0.008529 0.000044 0.891000
-0.008663 -0.010012 0.905000
0.009081 0.030377 0.857000
-0.027198 -0.021488 0.902000
-0.000446 0.028425 0.862000
-0.027786 -0.011031 0.897000
0.031128 -0.022826 0.882000
-0.026896 0.026110 0.892000
-0.038255 0.029481 0.883000
-0.020083 0.049470 0.883000
-0.025940 -0.003278 0.897000
0.003825 0.018912 0.865000
0.009809 0.024437 0.859000
-0.034895 0.004806 0.890000
-0.030831 0.030413 0.889000
0.004950 -0.001757 0.875000
0.017535 -0.008230 0.874000
-0.007647 0.022706 0.874000
-0.024887 -0.009206 0.899000
-0.017231 -0.008895 0.905000
0.031163 -0.024306 0.883000
-0.008263 -0.007380 0.902000
-0.029165 0.000412 0.894000
-0.032734 0.005912 0.891000
-0.025997 -0.015866 0.899000
-0.022297 0.006705 0.899000
-0.032404 0.003715 0.892000
-0.026367 -0.014016 0.899000
-0.034374 0.031405 0.886000
-0.007691 0.019218 0.879000
0.010277 -0.032182 0.900000
0.019716 -0.004278 0.875000
0.011772 -0.036297 0.901000
-0.032734 0.008112 0.891000
-0.014125 0.007797 0.897000
-0.005489 0.021627 0.874000
0.003235 -0.021416 0.899000
-0.021328 -0.029381 0.905000
-0.023905 0.029715 0.890000
-0.012016 -0.006287 0.905000
-0.033064 0.013597 0.890000
0.003816 0.021354 0.863000
-0.024190 0.049329 0.887000
-0.009056 -0.012274 0.907000
-0.011346 -0.023577 0.911000
-0.004802 0.051475 0.880000
-0.026806 0.034804 0.889000
-0.012859 -0.035239 0.912000
-0.016131 -0.012634 0.906000
-0.011193 0.040506 0.870000
-0.021976 -0.009226 0.901000
-0.011950 0.026991 0.873000
-0.005438 0.025706 0.866000
-0.015046 -0.019388 0.908000
0.001325 0.028713 0.860000
0.013050 -0.026241 0.887000
0.000980 0.018977 0.868000
0.029442 -0.034659 0.897000
0.015154 -0.018470 0.882000
-0.027017 -0.001800 0.896000
-0.005801 0.031088 0.867000
-0.020538 -0.014822 0.903000
-0.015741 -0.006287 0.905000
-0.007787 -0.000322 0.890000
0.032217 -0.017744 0.882000
0.011275 -0.029294 0.891000
-0.004775 0.019851 0.875000
-0.014365 0.017607 0.889000
0.004547 0.015744 0.867000
-0.001596 -0.027701 0.911000
-0.019246 0.047021 0.878000
0.004495 0.034609 0.857000
-0.007329 0.018856 0.879000
-0.004244 -0.032755 0.916000
0.002395 0.022775 0.863000
0.009935 0.002550 0.870000
0.031229 -0.036499 0.906000
-0.006036 -0.010722 0.902000
-0.004045 0.020524 0.873000
-0.007229 0.027520 0.867000
0.000262 0.033237 0.858000
-0.027998 0.025376 0.892000
-0.025542 0.004470 0.896000
-0.015149 0.042703 0.871000
0.003453 0.024494 0.861000
-0.023370 -0.033738 0.912000
0.020716 -0.033178 0.887000
0.032506 -0.011909 0.880000
-0.017623 -0.021583 0.906000
-0.011750 0.017892 0.885000
0.007241 -0.017559 0.891000
-0.026309 -0.005494 0.897000
-0.017781 0.037222 0.877000
-0.031527 0.030379 0.888000
-0.020288 0.022439 0.892000
-0.018679 -0.005902 0.903000
0.012858 -0.004993 0.874000
-0.032808 -0.003999 0.893000
-0.010130 0.033024 0.871000
0.019422 -0.019832 0.878000
-0.009738 0.038983 0.868000
-0.024583 0.034034 0.888000
0.010590 0.011791 0.865000
0.003984 -0.028510 0.901000
-0.030636 -0.002899 0.894000
-0.004851 -0.000688 0.889000
-0.035468 0.027758 0.886000
0.032980 -0.018855 0.883000
-0.024435 0.012951 0.896000
0.007317 0.033904 0.857000
-0.013418 0.028494 0.875000
-0.000465 -0.015866 0.899000
-0.001973 -0.028858 0.912000
-0.006272 0.053467 0.883000
-0.011989 -0.002929 0.903000
0.033669 -0.015203 0.882000
-0.002694 -0.015177 0.902000
-0.010694 0.006988 0.888000
0.017313 -0.020987 0.881000
-0.017902 0.050196 0.883000
-0.023433 -0.010327 0.900000
-0.023275 0.045680 0.880000
0.012569 -0.041673 0.905000
0.018635 -0.013282 0.875000
-0.008462 0.008048 0.884000
0.007624 -0.019803 0.893000
0.038971 -0.016750 0.887000
-0.022642 0.005219 0.898000
-0.015046 -0.019015 0.908000
-0.023381 0.003371 0.898000
-0.020840 0.002267 0.900000
0.032290 -0.023970 0.884000
0.003095 0.026236 0.860000
0.011617 0.019201 0.862000
0.000983 0.014383 0.871000
0.022152 -0.033505 0.886000
-0.013119 -0.003304 0.904000
-0.007587 -0.019431 0.910000
-0.001941 0.007428 0.897000
0.015000 -0.005347 0.873000
-0.017273 0.053039 0.888000
0.012885 -0.038152 0.901000
0.020820 -0.006807 0.876000
-0.019992 -0.040869 0.912000
-0.020747 0.017377 0.896000
-0.043467 0.028345 0.893000
0.003445 0.026559 0.859000
0.028424 -0.013312 0.877000
0.014858 -0.024389 0.886000
-0.018988 0.006342 0.900000
0.006427 -0.009736 0.880000
-0.029733 0.034438 0.889000
0.024230 -0.029724 0.882000
-0.011708 -0.019806 0.910000
-0.009491 -0.028890 0.913000
-0.009974 0.004801 0.889000
-0.031929 0.024925 0.889000
0.013609 -0.009691 0.876000
-0.029867 0.009233 0.893000
0.034837 -0.017784 0.884000
0.026618 -0.037277 0.889000
0.007029 0.013571 0.865000
-0.012998 0.038043 0.871000
0.026378 -0.028965 0.881000
0.011658 0.010723 0.865000
-0.007205 -0.017913 0.909000
0.012111 -0.001393 0.872000
-0.025171 0.040747 0.883000
-0.029367 0.033706 0.889000
