-0.009387 0.016769 0.903000
-0.032876 0.021276 0.905000
0.017784 -0.039066 0.905000
0.006587 -0.044134 0.902000
-0.014282 0.044468 0.907000
-0.026856 0.036095 0.903000
-0.008936 -0.026846 0.895000
-0.014413 -0.033732 0.892000
-0.018638 0.027857 0.901000
-0.020817 -0.015496 0.899000
-0.000096 0.019104 0.908000
0.009611 -0.048858 0.907000
-0.000095 -0.034621 0.896000
-0.021878 0.007428 0.897000
0.019445 -0.003713 0.913000
0.016276 -0.040883 0.904000
-0.010375 -0.036669 0.892000
0.005455 -0.033627 0.899000
0.039691 -0.023531 0.895000
0.026177 0.028535 0.899000
0.032010 -0.019740 0.907000
0.009995 0.004903 0.908000
-0.020794 0.001892 0.898000
0.036744 -0.015796 0.895000
0.019445 -0.001082 0.913000
0.008825 -0.008875 0.903000
0.030143 -0.017874 0.907000
0.027657 0.022615 0.899000
-0.001589 0.026549 0.907000
0.007718 -0.018931 0.904000
0.016667 -0.037203 0.905000
0.000644 -0.038351 0.897000
0.001023 0.015706 0.906000
0.017039 -0.034224 0.905000
-0.007094 -0.030898 0.895000
0.016685 -0.030905 0.906000
0.026577 0.022270 0.900000
0.019338 0.037043 0.908000
0.025663 0.006391 0.907000
-0.010064 0.000413 0.897000
-0.027077 0.022960 0.898000
-0.019380 0.027486 0.901000
-0.000096 0.039458 0.912000
-0.008711 0.046488 0.910000
0.011811 -0.024884 0.904000
0.017209 0.020735 0.914000
-0.022396 0.041670 0.903000
-0.010421 -0.017657 0.896000
0.035718 -0.017308 0.897000
0.006982 0.004514 0.905000
-0.029128 0.038123 0.916000
-0.011296 0.038495 0.907000
0.028183 0.002277 0.904000
-0.009106 0.048467 0.912000
0.018529 -0.039811 0.905000
-0.009315 -0.020238 0.896000
-0.009315 -0.003644 0.896000
0.010414 0.013558 0.912000
-0.032095 0.021253 0.904000
-0.009315 -0.022820 0.896000
-0.013446 0.028228 0.901000
-0.012265 -0.015813 0.896000
0.009030 -0.051675 0.924000
0.024381 0.031195 0.901000
0.030958 -0.034749 0.909000
0.014968 0.032056 0.915000
-0.016304 -0.039371 0.895000
-0.023433 0.028197 0.900000
-0.021163 0.003740 0.898000
0.012722 0.032845 0.916000
0.012899 -0.032254 0.902000
-0.001584 0.014927 0.904000
0.006609 0.004887 0.905000
0.007044 0.025598 0.913000
0.032468 -0.005876 0.899000
0.004374 0.008984 0.905000
0.016010 -0.007820 0.910000
-0.003079 0.026893 0.906000
0.020550 -0.007838 0.912000
0.028682 -0.012662 0.908000
-0.010802 0.002998 0.897000
-0.011592 0.027857 0.901000
-0.017876 0.019306 0.900000
-0.010075 0.008545 0.898000
-0.002315 -0.018086 0.899000
0.030382 -0.008132 0.903000
-0.016078 0.032007 0.903000
-0.020032 -0.008078 0.897000
0.013099 0.027944 0.916000
0.007354 0.001535 0.905000
0.033171 -0.004391 0.898000
-0.018925 0.000044 0.897000
0.024944 0.006024 0.908000
-0.015917 -0.020561 0.894000
0.004715 -0.039547 0.899000
-0.022707 -0.011449 0.931000
-0.008587 -0.019523 0.897000
0.025095 0.035976 0.900000
-0.021629 0.034942 0.902000
0.022402 -0.018703 0.911000
0.029977 -0.002183 0.902000
0.003966 -0.032444 0.897000
0.017566 0.028980 0.913000
-0.004156 -0.045366 0.897000
-0.000844 0.032220 0.909000
-0.013740 -0.005856 0.896000
0.011837 -0.005176 0.906000
0.011837 -0.018600 0.906000
-0.013909 0.042228 0.907000
-0.000096 0.010079 0.903000
0.034137 -0.028605 0.904000
0.007727 0.000045 0.905000
-0.018328 0.037624 0.904000
0.026065 -0.042185 0.908000
-0.008355 0.048467 0.912000
0.022777 -0.017953 0.911000
0.020019 -0.043536 0.905000
-0.015182 -0.039695 0.894000
0.031057 -0.005147 0.901000
0.021676 0.008303 0.912000
0.021254 0.020270 0.910000
-0.006089 0.038997 0.910000
-0.014462 -0.011375 0.895000
0.015244 -0.014546 0.909000
-0.020794 -0.012152 0.898000
-0.013894 0.038453 0.906000
0.005474 -0.010350 0.902000
-0.006428 0.017924 0.905000
0.009611 0.004524 0.907000
-0.013786 0.010405 0.899000
-0.015198 -0.016901 0.895000
0.017228 0.018122 0.915000
-0.000465 -0.011796 0.899000
0.031834 -0.010350 0.902000
0.006690 0.040385 0.916000
-0.012279 0.004844 0.897000
0.008472 -0.001818 0.905000
0.017961 0.021488 0.914000
0.016474 0.027160 0.915000
0.009738 -0.051017 0.919000
-0.016395 0.014861 0.900000
-0.005708 0.034839 0.909000
0.020041 -0.039482 0.906000
0.013702 -0.021583 0.906000
0.024725 0.031901 0.900000
0.019445 0.019210 0.913000
-0.010421 -0.014707 0.896000
0.017585 0.024497 0.914000
0.004398 0.018397 0.910000
-0.016653 -0.020561 0.894000
-0.027817 0.013350 0.898000
0.002900 0.022143 0.910000
0.017209 0.021112 0.914000
0.004336 -0.030968 0.897000
0.028370 -0.031791 0.910000
-0.014093 -0.010270 0.895000
0.036785 -0.019501 0.896000
0.030483 -0.017481 0.906000
0.000642 -0.032372 0.895000
0.004345 -0.042877 0.899000
-0.008282 0.029810 0.904000
-0.019031 -0.035927 0.920000
0.002900 0.021394 0.910000
-0.007504 0.011157 0.900000
-0.002712 0.023963 0.908000
-0.018206 -0.035437 0.898000
-0.017448 -0.002540 0.897000
0.033872 0.000413 0.897000
-0.013725 -0.013217 0.895000
-0.002338 0.025084 0.908000
0.017824 -0.030193 0.907000
0.021277 -0.016828 0.911000
-0.026397 0.030790 0.900000
0.012143 -0.029622 0.901000
-0.005334 0.035587 0.909000
0.011528 0.006419 0.911000
-0.021061 -0.022059 0.926000
0.008117 0.007511 0.907000
0.021160 -0.042838 0.906000
0.019647 0.043253 0.905000
-0.032912 0.017571 0.906000
-0.003829 0.020577 0.907000
-0.001960 0.029503 0.906000
0.015143 -0.039723 0.903000
-0.006733 -0.010282 0.896000
0.016312 -0.030160 0.906000
0.013476 0.030206 0.916000
0.027750 0.011182 0.902000
-0.027817 0.022220 0.898000
-0.014847 -0.004750 0.896000
0.014837 -0.018994 0.907000
-0.016784 0.022665 0.901000
-0.006364 -0.014707 0.896000
0.012156 -0.044505 0.902000
0.009929 -0.044134 0.902000
-0.020054 0.011132 0.898000
-0.015602 0.000044 0.897000
-0.010052 -0.004750 0.896000
0.014416 -0.033442 0.904000
-0.013401 0.009654 0.898000
0.029332 -0.007032 0.905000
-0.008568 -0.009165 0.895000
-0.031723 0.010835 0.904000
-0.021234 0.028970 0.901000
0.003232 -0.038394 0.898000
-0.006371 -0.017677 0.897000
-0.026426 0.032307 0.901000
0.026497 -0.031791 0.910000
-0.013756 0.007428 0.897000
-0.031317 0.013796 0.903000
-0.028002 0.036880 0.904000
0.007718 -0.020419 0.904000
-0.008272 0.026432 0.903000
-0.010934 0.041901 0.908000
0.008162 0.017687 0.912000
-0.012988 -0.013217 0.895000
-0.016113 0.041018 0.905000
-0.018166 -0.005119 0.896000
0.019690 -0.031686 0.907000
-0.019072 0.039856 0.904000
0.002872 -0.024431 0.901000
0.024679 -0.009339 0.912000
-0.011258 0.022369 0.904000
0.015194 -0.026804 0.906000
0.013672 -0.034558 0.904000
-0.017021 -0.024609 0.894000
-0.012361 0.020857 0.903000
0.010825 0.027537 0.915000
0.022426 -0.010090 0.912000
0.024779 0.026774 0.902000
-0.010549 0.035509 0.907000
-0.013162 0.042228 0.907000
0.027560 -0.009298 0.908000
-0.004193 0.029843 0.905000
-0.019009 0.024890 0.901000
0.012899 -0.027799 0.902000
0.007676 -0.032517 0.899000
-0.012416 0.039615 0.907000
-0.022667 0.023355 0.899000
-0.001233 0.009512 0.920000
0.022802 -0.014969 0.912000
0.022304 -0.039525 0.907000
-0.009315 -0.002906 0.896000
0.022075 -0.001458 0.913000
0.005468 -0.011451 0.901000
0.017922 -0.001832 0.912000
-0.012306 0.011145 0.899000
-0.017777 -0.031635 0.895000
-0.005996 -0.028352 0.896000
-0.015900 -0.030462 0.893000
0.002151 0.021394 0.910000
0.003649 0.020270 0.910000
0.023928 -0.004459 0.912000
0.013808 0.010943 0.913000
0.011477 -0.001075 0.907000
-0.003422 -0.017327 0.898000
0.013762 -0.001453 0.910000
0.028735 0.018524 0.898000
0.007314 -0.041073 0.900000
-0.018186 -0.000694 0.897000
-0.008190 -0.031600 0.894000
-0.015368 0.036548 0.905000
0.013013 -0.001828 0.910000
-0.017040 -0.014322 0.895000
0.031567 -0.015600 0.905000
-0.011283 0.033232 0.906000
0.001016 -0.017365 0.900000
0.005903 0.021042 0.911000
-0.020817 0.017435 0.899000
0.024170 -0.040272 0.907000
-0.004971 0.044664 0.911000
-0.008568 -0.027215 0.895000
-0.003042 -0.032004 0.895000
0.020948 -0.000706 0.913000
-0.017155 0.025261 0.901000
0.017585 0.023369 0.914000
0.025151 0.025661 0.902000
0.017902 -0.007454 0.911000
-0.022692 0.028567 0.900000
0.038954 -0.026478 0.895000
0.016648 -0.038279 0.904000
-0.011515 -0.019111 0.895000
-0.003086 0.032932 0.908000
-0.019663 0.007059 0.897000
0.031798 -0.006631 0.901000
-0.006718 -0.036751 0.894000
0.001013 -0.041674 0.897000
0.033020 -0.024884 0.904000
-0.004938 0.030216 0.905000
0.002856 -0.030564 0.896000
-0.018267 0.021553 0.901000
-0.027168 0.032307 0.901000
0.016330 -0.025340 0.907000
-0.016095 0.034275 0.904000
0.016814 0.005682 0.913000
0.018632 0.034877 0.910000
-0.030911 0.028259 0.902000
-0.028958 0.026315 0.899000
0.002158 0.037247 0.913000
0.029573 0.003382 0.901000
0.013476 0.040008 0.916000
-0.012817 0.046437 0.909000
0.023797 -0.043259 0.907000
-0.015165 -0.036710 0.893000
-0.020794 -0.012892 0.898000
0.021277 0.016168 0.911000
-0.018988 0.022640 0.900000
0.040059 -0.026478 0.895000
-0.003467 0.035626 0.910000
-0.023433 0.031160 0.900000
0.013085 0.022641 0.915000
-0.016784 0.029340 0.901000
-0.018227 0.012625 0.899000
-0.017584 0.037996 0.904000
-0.021163 0.001892 0.898000
0.014591 0.029043 0.915000
-0.006763 0.010046 0.900000
0.020572 0.004554 0.913000
0.007067 0.038877 0.916000
-0.013756 0.004105 0.897000
-0.002697 0.013424 0.903000
-0.038385 0.017483 0.921000
0.030077 -0.010757 0.905000
-0.033150 0.027398 0.923000
0.027842 -0.000700 0.905000
0.012653 0.004919 0.911000
0.024725 0.033383 0.900000
0.022898 0.043432 0.901000
-0.012988 -0.007323 0.895000
-0.019380 0.028970 0.901000
-0.010052 -0.005119 0.896000
0.026468 -0.005193 0.909000
-0.023037 0.005595 0.899000
-0.030135 0.016732 0.901000
0.014870 -0.012301 0.909000
0.020196 0.013197 0.913000
0.034509 -0.031209 0.904000
-0.028588 0.027425 0.899000
-0.011370 0.048896 0.913000
0.020414 -0.037990 0.906000
0.027500 -0.002193 0.906000
-0.034069 0.020577 0.907000
0.019777 -0.014578 0.911000
0.025979 0.010847 0.905000
0.007044 0.028604 0.913000
0.012528 -0.042649 0.902000
0.024807 0.024202 0.903000
0.022328 -0.032842 0.908000
0.009642 0.010158 0.910000
0.012156 -0.027056 0.902000
0.011553 0.018458 0.913000
-0.013357 -0.042686 0.895000
0.028090 0.011911 0.901000
0.004360 -0.017775 0.902000
0.000278 0.028821 0.908000
-0.020144 0.035313 0.902000
0.005159 0.024444 0.912000
-0.000479 -0.047214 0.926000
0.012224 -0.013021 0.907000
-0.024887 0.029275 0.899000
-0.034106 0.019852 0.908000
0.007710 -0.007389 0.903000
0.003322 0.007643 0.923000
-0.009684 -0.016551 0.896000
0.025922 0.018628 0.903000
-0.001591 0.032184 0.908000
-0.014429 -0.031565 0.893000
-0.009284 -0.039283 0.893000
-0.030803 0.031887 0.921000
-0.015953 -0.010282 0.896000
-0.000464 -0.040152 0.896000
0.016851 0.018498 0.915000
0.013641 -0.045619 0.902000
0.015345 0.021135 0.915000
-0.004596 0.040540 0.911000
0.010707 -0.021932 0.905000
-0.022000 0.035313 0.902000
0.020064 -0.032806 0.907000
-0.021509 0.012966 0.897000
0.003289 0.039168 0.914000
0.000276 0.010079 0.903000
0.037195 -0.024691 0.897000
0.037523 -0.023189 0.896000
-0.034480 0.017236 0.908000
-0.024832 0.015919 0.897000
0.011785 -0.032996 0.902000
-0.015654 0.026715 0.900000
0.008064 -0.026285 0.901000
-0.016486 0.038038 0.905000
0.007744 -0.047738 0.907000
0.026206 0.023752 0.900000
-0.010491 0.025661 0.902000
-0.008190 -0.034544 0.894000
-0.014062 -0.029359 0.893000
0.006565 -0.028076 0.899000
0.021207 -0.031721 0.908000
-0.007462 -0.013954 0.895000
-0.013756 0.005582 0.897000
0.022205 0.037954 0.903000
-0.006838 0.041619 0.910000
0.012970 -0.008915 0.907000
-0.034892 0.015758 0.909000
-0.014639 0.038453 0.906000
0.027469 0.001162 0.905000
0.013013 -0.001079 0.910000
-0.016042 0.028599 0.901000
-0.019773 0.032343 0.902000
-0.025940 0.016289 0.897000
-0.001573 -0.014370 0.898000
-0.026455 0.034942 0.902000
0.027287 0.022615 0.899000
0.007322 -0.035926 0.901000
0.027378 0.013781 0.902000
-0.017409 -0.011375 0.895000
0.006951 -0.042972 0.901000
0.005170 0.036159 0.914000
0.005871 0.009740 0.906000
0.004784 0.027071 0.912000
-0.004976 0.047341 0.912000
-0.017642 0.045961 0.907000
0.022328 -0.047043 0.908000
0.029119 -0.028045 0.910000
-0.015549 -0.022769 0.894000
0.028713 -0.016791 0.909000
0.030988 0.013735 0.899000
-0.014930 0.014507 0.901000
-0.016395 0.015973 0.900000
-0.013740 -0.000325 0.896000
0.024889 0.012350 0.906000
0.022727 0.015384 0.909000
0.021137 0.036920 0.905000
0.001755 -0.043987 0.899000
0.014591 0.037705 0.915000
-0.030911 0.021948 0.902000
0.018237 0.040451 0.909000
0.015244 -0.010057 0.909000
0.025374 -0.001453 0.910000
0.025922 0.016769 0.903000
0.022328 -0.035084 0.908000
0.034688 -0.016976 0.899000
0.001780 0.033452 0.912000
0.025234 0.015316 0.905000
-0.000843 0.027669 0.907000
-0.011883 -0.005850 0.895000
0.017902 0.034540 0.911000
0.005480 -0.021512 0.903000
0.008556 0.028635 0.914000
0.000275 -0.017736 0.900000
0.016330 -0.026833 0.907000
-0.012251 -0.012112 0.895000
0.010707 -0.020814 0.905000
-0.016285 -0.027920 0.894000
-0.002305 -0.029057 0.895000
-0.015334 0.031636 0.903000
0.009547 -0.040747 0.901000
0.030550 -0.025368 0.908000
0.027621 -0.017184 0.910000
0.013838 0.019628 0.915000
0.018529 -0.042046 0.905000
0.030890 -0.024220 0.907000
0.021628 -0.020929 0.910000
-0.003052 -0.024719 0.898000
0.027750 0.011924 0.902000
-0.007173 0.020159 0.905000
-0.023433 0.003749 0.900000
0.018509 -0.044232 0.904000
0.017961 0.021864 0.914000
-0.009716 0.008925 0.899000
0.022802 -0.010465 0.912000
0.022426 0.005300 0.912000
-0.011618 0.023087 0.903000
0.006966 -0.024113 0.903000
0.013270 -0.040793 0.902000
-0.008199 -0.029425 0.895000
0.005916 0.030483 0.913000
-0.000846 0.034540 0.911000
0.009176 -0.042231 0.901000
0.023449 -0.034337 0.908000
0.011553 0.014325 0.913000
0.026813 -0.042559 0.908000
-0.008946 -0.007331 0.896000
0.008055 -0.039961 0.900000
-0.024915 0.030049 0.900000
0.019381 0.034503 0.910000
0.029087 -0.020532 0.909000
0.004374 0.006749 0.905000
-0.001223 0.040209 0.912000
0.033503 0.002259 0.897000
0.008547 0.021840 0.913000
-0.022421 0.043205 0.904000
0.001759 -0.023318 0.901000
-0.012402 0.033978 0.906000
0.009653 0.010919 0.911000
0.029770 -0.017874 0.907000
0.013028 0.003045 0.911000
-0.033695 0.019830 0.907000
0.022802 -0.015720 0.912000
-0.017078 0.000783 0.897000
-0.014494 0.005213 0.897000
0.018297 -0.002207 0.912000
0.010790 0.012057 0.912000
0.005540 0.027852 0.913000
-0.019051 0.037954 0.903000
0.022677 0.021696 0.907000
0.022802 -0.008588 0.912000
0.036047 -0.008806 0.896000
-0.019595 -0.029201 0.911000
-0.022371 0.037540 0.902000
0.033727 -0.022627 0.903000
0.016045 -0.000706 0.912000
0.017489 -0.017913 0.909000
0.028370 -0.023926 0.910000
0.017133 -0.013813 0.910000
0.005119 -0.009640 0.905000
0.001385 -0.015126 0.899000
0.015160 -0.038651 0.904000
0.006209 -0.013306 0.901000
-0.016522 0.045215 0.907000
-0.002673 -0.029793 0.895000
-0.018946 0.007067 0.898000
0.028370 -0.019057 0.910000
0.036208 -0.027737 0.900000
-0.013506 0.034685 0.905000
0.007684 -0.041073 0.900000
-0.001207 -0.021070 0.900000
-0.005683 0.026118 0.905000
-0.026113 0.039440 0.903000
0.019027 -0.011953 0.911000
0.025123 0.037499 0.901000
-0.014863 0.004475 0.897000
0.017883 -0.014188 0.910000
-0.016784 0.020440 0.901000
0.027652 -0.027326 0.911000
0.012542 -0.046413 0.903000
-0.023381 0.019633 0.898000
0.032383 -0.032059 0.907000
0.023876 -0.027296 0.910000
0.007051 0.029764 0.914000
0.009298 0.018834 0.913000
0.021906 -0.045075 0.906000
0.034980 -0.011401 0.897000
0.001767 0.013454 0.905000
0.027873 -0.004430 0.906000
0.027247 -0.011940 0.910000
0.022898 0.040466 0.901000
-0.020863 0.032307 0.901000
0.020948 -0.002585 0.913000
0.023294 0.035684 0.902000
-0.004515 -0.042686 0.895000
-0.013386 0.004844 0.897000
0.012899 -0.045248 0.902000
0.011502 0.001167 0.909000
-0.019401 0.030116 0.902000
-0.015198 -0.011007 0.895000
-0.018146 -0.029057 0.895000
0.011464 -0.019346 0.906000
0.012345 0.031714 0.916000
-0.017777 -0.026846 0.895000
0.017922 -0.005210 0.912000
-0.012334 0.014507 0.901000
0.012542 -0.037865 0.903000
-0.017526 0.020811 0.901000
0.032765 0.001152 0.897000
0.014559 0.011318 0.913000
0.001778 0.028916 0.911000
0.034137 -0.030465 0.904000
-0.008956 -0.002540 0.897000
0.021557 -0.034299 0.907000
-0.027844 0.007544 0.911000
0.008962 0.041184 0.917000
-0.011843 -0.034833 0.892000
0.011877 0.000045 0.909000
-0.004556 0.014168 0.903000
0.011043 -0.044876 0.902000
0.032045 -0.019388 0.908000
0.019445 0.015076 0.913000
-0.011605 0.024918 0.902000
0.037523 -0.023557 0.896000
0.030958 -0.028389 0.909000
0.022353 -0.029137 0.909000
0.022777 -0.018328 0.911000
0.026381 0.006011 0.906000
0.021906 -0.042465 0.906000
-0.026797 0.031936 0.901000
0.014215 0.041847 0.915000
0.021254 0.021019 0.910000
0.023928 -0.016471 0.912000
0.015687 0.006057 0.913000
0.004394 0.015384 0.909000
0.013672 -0.026000 0.904000
0.023177 -0.016096 0.912000
-0.018617 0.017825 0.900000
-0.026338 0.025547 0.898000
-0.000844 0.018731 0.908000
0.023797 -0.044378 0.907000
-0.006056 0.017924 0.905000
-0.026367 0.026685 0.899000
0.003232 -0.041351 0.898000
-0.015900 -0.031197 0.893000
0.022677 0.019830 0.907000
-0.005287 0.011170 0.901000
0.002130 -0.019981 0.901000
-0.004156 -0.012508 0.897000
0.019006 -0.016809 0.910000
0.010801 0.017706 0.913000
-0.011527 -0.001800 0.896000
0.001030 0.033077 0.912000
-0.029328 0.024465 0.899000
0.006990 0.006757 0.906000
0.005851 -0.016680 0.903000
0.001382 -0.035398 0.897000
-0.013312 -0.034466 0.892000
-0.015900 -0.028624 0.893000
-0.005252 -0.043791 0.895000
-0.018925 -0.028383 0.897000
-0.023856 0.036798 0.902000
0.012528 -0.040793 0.902000
0.025692 -0.044054 0.908000
0.003609 -0.015143 0.900000
-0.018988 0.023011 0.900000
-0.021927 -0.003656 0.899000
-0.020863 0.029340 0.901000
0.031672 -0.031721 0.908000
0.003286 0.035368 0.913000
-0.014046 -0.036302 0.892000
-0.011476 -0.039606 0.892000
0.028370 -0.028795 0.910000
0.025402 -0.023577 0.911000
0.003984 -0.024801 0.901000
-0.017535 -0.040894 0.921000
0.023527 0.002295 0.911000
-0.029360 0.014861 0.900000
-0.030135 0.017474 0.901000
0.008472 -0.046515 0.905000
-0.029764 0.011540 0.901000
-0.003042 -0.041213 0.895000
0.022051 0.010180 0.912000
-0.017956 0.035763 0.904000
0.011968 0.041516 0.916000
-0.001939 -0.038309 0.896000
0.013838 0.042224 0.915000
0.004773 0.017274 0.910000
0.029137 0.020395 0.899000
-0.004576 0.020577 0.907000
0.016027 0.042789 0.911000
0.029977 -0.001440 0.902000
0.012278 0.004169 0.911000
-0.019816 0.040972 0.904000
-0.021976 0.030082 0.901000
0.018570 0.044841 0.907000
0.037606 -0.029524 0.898000
0.006966 -0.044926 0.903000
0.014902 -0.000705 0.911000
0.032062 0.006697 0.898000
-0.018576 0.010393 0.898000
-0.020424 0.015568 0.898000
0.025777 -0.010079 0.911000
0.022075 0.001172 0.913000
-0.010433 0.004475 0.897000
-0.008199 -0.027952 0.895000
0.012956 -0.021210 0.906000
0.013085 0.024901 0.915000
-0.020538 0.038697 0.903000
0.036579 -0.029960 0.900000
0.011079 -0.020442 0.905000
0.036497 -0.025088 0.898000
-0.005989 -0.034951 0.895000
0.010289 -0.040747 0.901000
0.034137 -0.031581 0.904000
-0.008663 0.021649 0.905000
0.019799 0.019564 0.912000
0.031288 0.007797 0.897000
-0.020032 0.000783 0.897000
0.001407 0.038374 0.913000
0.013056 0.015076 0.913000
-0.007134 0.010046 0.900000
-0.029328 0.021875 0.899000
0.026381 0.005638 0.906000
0.021581 -0.032095 0.908000
-0.026367 0.027795 0.899000
0.003613 -0.024431 0.901000
-0.015689 0.030858 0.902000
0.008046 -0.030667 0.899000
-0.006428 0.017551 0.905000
-0.015671 0.020070 0.901000
0.004715 -0.035477 0.899000
-0.017797 -0.004012 0.896000
-0.010019 -0.033770 0.893000
-0.026338 0.023329 0.898000
-0.009304 -0.013954 0.895000
0.001030 0.033452 0.912000
0.011189 0.022616 0.914000
0.026497 -0.032165 0.910000
-0.003821 0.028353 0.905000
-0.011963 0.013395 0.901000
0.027560 -0.008924 0.908000
-0.004916 0.010428 0.901000
0.009973 -0.000328 0.906000
-0.002694 0.010811 0.902000
0.025179 0.021229 0.903000
0.027500 0.000045 0.906000
-0.010754 -0.034137 0.893000
-0.003825 0.030995 0.906000
-0.006853 0.048091 0.912000
-0.020077 0.019285 0.899000
0.031602 -0.022329 0.906000
-0.019751 0.029711 0.901000
-0.019707 0.018545 0.899000
-0.007102 -0.011757 0.896000
0.011540 0.009804 0.912000
0.020730 -0.049558 0.920000
0.010801 0.019585 0.913000
0.018509 -0.043488 0.904000
0.023718 0.026462 0.904000
-0.017193 0.031264 0.903000
0.033282 -0.014789 0.901000
0.032540 -0.011081 0.901000
0.019755 -0.019431 0.910000
0.034941 -0.008438 0.896000
0.029540 0.007823 0.900000
0.020741 0.046553 0.904000
0.016833 0.027507 0.914000
0.033540 -0.008826 0.898000
-0.036509 0.014684 0.912000
0.004345 -0.041397 0.899000
0.006602 0.001161 0.904000
0.019821 0.000421 0.913000
-0.025684 0.034532 0.901000
-0.014913 0.025604 0.900000
-0.018946 0.010393 0.898000
0.025692 -0.044801 0.908000
0.013641 -0.030769 0.902000
-0.034106 0.015741 0.908000
-0.010754 -0.041488 0.893000
0.017152 -0.007829 0.911000
0.026872 -0.010068 0.910000
0.015670 0.000045 0.912000
-0.010479 0.013765 0.901000
-0.016113 0.040645 0.905000
-0.023037 0.023355 0.899000
-0.013220 0.048039 0.911000
-0.014526 0.010035 0.899000
0.022377 0.013903 0.910000
-0.019663 -0.004386 0.897000
0.014199 0.017350 0.914000
0.024144 0.015333 0.906000
0.004037 0.033865 0.913000
-0.002679 -0.027276 0.897000
0.011477 -0.001448 0.907000
0.005449 -0.032480 0.898000
0.024303 -0.007087 0.912000
0.007354 -0.045771 0.905000
-0.002706 0.026520 0.906000
0.018902 -0.044281 0.905000
-0.016672 -0.016164 0.895000
-0.011146 -0.021689 0.895000
0.006982 0.005259 0.905000
0.013300 -0.047952 0.904000
-0.000096 0.023615 0.909000
0.023639 0.041207 0.901000
-0.005996 -0.013232 0.896000
-0.026142 0.040228 0.904000
0.001405 0.036455 0.912000
0.014400 -0.028945 0.903000
0.001385 -0.014016 0.899000
-0.009016 0.027176 0.903000
0.016027 0.043914 0.911000
-0.019294 -0.023953 0.897000
-0.011540 0.004844 0.897000
0.034980 -0.004755 0.897000
-0.013710 -0.021665 0.894000
0.013358 -0.014156 0.908000
-0.007086 -0.035279 0.894000
-0.014078 -0.023873 0.894000
0.004715 -0.034367 0.899000
-0.007840 -0.026508 0.896000
0.000278 0.025860 0.909000
-0.017428 -0.005856 0.896000
-0.004884 -0.038634 0.895000
0.021230 0.021370 0.909000
-0.010019 -0.033035 0.893000
0.029235 0.001901 0.902000
-0.029859 0.035910 0.927000
0.022677 -0.045872 0.907000
0.020948 -0.001082 0.913000
0.014968 0.035445 0.915000
-0.021951 0.025604 0.900000
-0.034106 0.023963 0.908000
0.005528 0.022167 0.911000
0.008064 -0.037039 0.901000
0.004705 -0.030968 0.897000
0.018714 0.006816 0.914000
-0.015723 0.034275 0.904000
-0.005340 0.040870 0.910000
0.020196 0.007936 0.913000
0.015227 -0.016772 0.908000
0.029836 -0.026144 0.909000
-0.012704 0.013395 0.901000
-0.007479 -0.020999 0.897000
-0.017777 -0.027952 0.895000
-0.011515 -0.044160 0.895000
0.016474 0.015862 0.915000
-0.012320 0.012639 0.900000
-0.013894 0.039944 0.906000
-0.027168 0.032678 0.901000
-0.022692 0.028937 0.900000
-0.033695 0.017217 0.907000
-0.011515 -0.020216 0.895000
0.017412 -0.037203 0.905000
-0.003079 0.017198 0.906000
0.025607 0.010847 0.905000
-0.021557 -0.002176 0.899000
0.022627 0.032823 0.905000
-0.015971 0.001521 0.897000
0.031728 0.000044 0.899000
-0.006471 0.046164 0.911000
-0.004193 0.026863 0.905000
0.008180 0.029388 0.914000
-0.015953 -0.003644 0.896000
-0.011896 -0.001431 0.896000
0.019647 -0.045026 0.905000
-0.019315 0.009654 0.898000
0.013285 -0.040094 0.903000
-0.019380 0.028228 0.901000
0.010006 0.007902 0.909000
0.037523 -0.013600 0.896000
-0.002333 0.029503 0.906000
0.000278 0.017610 0.908000
0.027067 0.006370 0.904000
0.036208 -0.029589 0.900000
0.023553 -0.003333 0.912000
0.014512 -0.006322 0.910000
0.020833 -0.028358 0.908000
0.012653 0.003045 0.911000
-0.014510 0.008545 0.898000
0.007371 -0.047365 0.907000
0.012156 -0.045619 0.902000
0.027657 0.019655 0.899000
0.020787 -0.045075 0.906000
-0.007848 -0.019892 0.897000
-0.011870 -0.027552 0.894000
0.010801 0.018082 0.913000
-0.020470 0.023752 0.900000
-0.017040 -0.016901 0.895000
0.006244 0.009740 0.906000
0.017152 -0.005579 0.911000
-0.027477 0.025945 0.899000
-0.005270 -0.022501 0.898000
0.027903 -0.008168 0.907000
-0.018946 0.007806 0.898000
-0.007848 -0.001802 0.897000
-0.001217 0.025084 0.908000
-0.009325 -0.001432 0.897000
0.010050 0.018834 0.913000
-0.010995 0.048896 0.913000
0.009951 -0.011490 0.904000
0.014199 0.014716 0.914000
0.000276 0.013439 0.904000
-0.014446 -0.022769 0.894000
0.020196 0.000045 0.913000
0.017508 -0.048645 0.910000
-0.016322 -0.003644 0.896000
0.028214 -0.001818 0.905000
0.014968 0.022641 0.915000
-0.000465 -0.014370 0.898000
-0.013940 0.046811 0.909000
0.029475 0.016676 0.898000
-0.015953 -0.006594 0.896000
0.005449 -0.031372 0.898000
0.022426 -0.013468 0.912000
0.014559 0.010943 0.913000
-0.021976 0.030824 0.901000
0.012264 0.001543 0.910000
-0.021927 0.021875 0.899000
-0.004591 0.039372 0.910000
0.010277 -0.028108 0.900000
-0.017212 0.035391 0.904000
-0.005982 -0.038591 0.894000
0.000644 -0.036505 0.897000
0.007821 0.039254 0.916000
-0.010778 -0.011007 0.895000
-0.006062 0.019062 0.906000
0.034726 -0.022181 0.900000
0.008434 -0.034814 0.901000
0.027996 -0.017184 0.910000
-0.011896 -0.014338 0.896000
0.019090 0.014716 0.914000
-0.021470 -0.014953 0.911000
0.017152 -0.007079 0.911000
0.028767 0.014475 0.899000
-0.002718 0.035252 0.910000
0.023424 0.018337 0.907000
0.034242 -0.001432 0.897000
-0.002682 -0.045416 0.898000
-0.001573 -0.013631 0.898000
0.027621 -0.031791 0.910000
0.026665 0.012681 0.903000
-0.010886 0.019764 0.904000
-0.025968 0.023329 0.898000
0.013358 -0.010419 0.908000
0.007701 -0.013692 0.902000
-0.012042 0.039615 0.907000
-0.022986 0.016289 0.897000
-0.013386 0.005213 0.897000
-0.010742 -0.036302 0.892000
-0.009304 -0.011743 0.895000
-0.026084 0.034570 0.902000
0.003289 0.040297 0.914000
0.008825 -0.045298 0.903000
-0.014251 0.037293 0.905000
0.024598 -0.034001 0.909000
-0.002685 -0.021786 0.899000
0.026547 0.025205 0.899000
-0.011258 0.020881 0.904000
-0.007822 -0.034911 0.894000
0.010471 0.040052 0.917000
-0.008966 0.005219 0.898000
0.011477 -0.001822 0.907000
0.001017 -0.022206 0.901000
0.021699 -0.005592 0.913000
-0.002706 0.027266 0.906000
0.008854 0.004519 0.906000
-0.012402 0.037334 0.906000
0.006223 -0.022255 0.903000
-0.011553 0.007806 0.898000
0.008825 -0.009990 0.903000
-0.012988 -0.012849 0.895000
0.034611 -0.001802 0.897000
-0.002685 -0.022526 0.899000
0.003980 -0.013661 0.900000
-0.006801 0.017179 0.905000
0.011202 0.026030 0.915000
0.018277 -0.008204 0.911000
-0.020794 -0.011044 0.898000
0.004355 -0.024801 0.901000
-0.004515 -0.036792 0.895000
-0.001596 0.034540 0.911000
0.035097 -0.024033 0.900000
0.033429 -0.030871 0.905000
-0.011618 0.021229 0.903000
0.019069 0.003427 0.913000
0.002153 0.030416 0.911000
0.019090 0.015469 0.914000
-0.003049 -0.013985 0.897000
-0.015917 -0.017618 0.894000
0.007710 -0.015565 0.903000
-0.003471 0.041290 0.911000
-0.007173 0.018296 0.905000
0.023424 -0.038779 0.907000
0.034318 -0.015126 0.899000
-0.008916 -0.042223 0.893000
0.016833 0.008697 0.914000
-0.021187 0.022245 0.899000
-0.031941 0.029992 0.921000
0.018923 -0.035007 0.906000
-0.024832 0.014073 0.897000
0.033245 -0.014402 0.900000
0.030382 -0.008504 0.903000
-0.022446 -0.005915 0.905000
0.007044 0.024095 0.913000
-0.024093 0.011489 0.897000
0.027287 0.021875 0.899000
-0.020979 0.045165 0.906000
0.008171 0.025598 0.913000
0.034776 -0.022077 0.911000
-0.017409 -0.016164 0.895000
0.011226 0.040052 0.917000
-0.008587 -0.003648 0.897000
0.029235 0.002643 0.902000
0.033020 -0.022652 0.904000
-0.023011 0.021112 0.898000
0.005916 0.028980 0.913000
0.015904 -0.045720 0.904000
-0.000464 -0.041996 0.896000
-0.010052 -0.018763 0.896000
-0.014814 -0.020929 0.894000
0.005461 -0.036627 0.900000
0.028121 0.008212 0.902000
0.036826 -0.010662 0.897000
-0.026708 0.009654 0.898000
0.011785 -0.038194 0.902000
0.007403 0.015043 0.911000
-0.010433 0.002259 0.897000
-0.005246 -0.040431 0.894000
0.025346 0.000793 0.909000
-0.008181 -0.036710 0.893000
-0.008682 0.034016 0.907000
-0.023433 0.030790 0.900000
0.013056 0.012821 0.913000
0.017152 -0.004829 0.911000
0.006928 -0.030263 0.898000
0.002149 0.019500 0.909000
0.040473 -0.029827 0.896000
-0.009036 0.032078 0.905000
0.015975 -0.017520 0.908000
-0.006808 0.022418 0.906000
-0.008946 -0.023557 0.896000
0.023849 -0.030259 0.909000
0.012942 -0.024539 0.905000
0.021462 0.039812 0.903000
-0.000836 -0.019218 0.900000
0.005540 0.000045 0.913000
0.011092 -0.016363 0.906000
-0.008208 -0.007700 0.896000
-0.025370 0.039069 0.903000
-0.006357 -0.033477 0.895000
-0.034518 0.015010 0.909000
-0.014109 -0.007700 0.896000
-0.011121 -0.034137 0.893000
-0.020099 0.025233 0.900000
0.007684 -0.038109 0.900000
-0.002313 -0.017696 0.898000
0.031022 0.000415 0.900000
-0.000470 0.026205 0.908000
-0.010041 -0.008060 0.895000
0.004799 0.039211 0.915000
-0.029360 0.027085 0.900000
0.011591 0.031714 0.916000
0.021207 0.027700 0.908000
-0.028958 0.018915 0.899000
0.002528 0.028541 0.911000
-0.015636 0.009665 0.899000
0.015345 0.034692 0.915000
-0.031317 0.015654 0.903000
0.015704 0.037288 0.914000
-0.008936 -0.028688 0.895000
0.017171 -0.001456 0.912000
-0.014863 0.002998 0.897000
0.008805 -0.036297 0.901000
-0.000832 -0.042365 0.896000
0.007787 0.021816 0.912000
0.020459 -0.028358 0.908000
-0.011134 -0.025345 0.894000
0.007804 0.028259 0.914000
0.032911 -0.013676 0.901000
0.008509 0.011269 0.909000
0.007676 -0.030297 0.899000
0.008189 0.034692 0.915000
-0.006726 -0.034582 0.895000
0.019090 0.016973 0.914000
0.001778 0.028541 0.911000
-0.004884 -0.034582 0.895000
0.025027 -0.017578 0.911000
-0.019009 0.025261 0.901000
-0.017040 -0.010638 0.895000
0.029844 0.012611 0.898000
-0.015165 -0.028624 0.893000
0.001775 0.019500 0.909000
-0.009315 -0.023189 0.896000
0.015721 0.025277 0.915000
0.005916 0.031234 0.913000
-0.015741 0.037665 0.905000
-0.007529 0.027176 0.903000
-0.022000 0.037169 0.902000
-0.001598 0.039083 0.912000
0.012722 0.030960 0.916000
0.028959 -0.004798 0.905000
-0.016322 -0.008438 0.896000
0.020550 0.015435 0.912000
0.030754 -0.009619 0.903000
0.023876 0.003790 0.910000
-0.013357 -0.012480 0.895000
0.012542 -0.046784 0.903000
0.019274 0.045860 0.905000
0.029877 0.016695 0.899000
0.009176 -0.036297 0.901000
0.037849 -0.018374 0.895000
-0.007165 0.028694 0.904000
0.015261 -0.005573 0.910000
0.004710 -0.029154 0.898000
0.008090 -0.019675 0.904000
0.022802 -0.005585 0.912000
0.010083 0.033976 0.916000
-0.011515 -0.043791 0.895000
-0.003410 -0.034951 0.895000
-0.013461 0.018978 0.902000
0.023823 0.010509 0.908000
0.033130 -0.033553 0.907000
-0.001570 -0.028720 0.896000
-0.038344 0.018600 0.920000
0.029462 -0.024273 0.909000
0.002856 -0.032039 0.896000
-0.020863 0.028599 0.901000
-0.017545 0.030116 0.902000
-0.014046 -0.032631 0.892000
0.008556 0.027883 0.914000
0.015177 -0.031989 0.905000
-0.031317 0.011566 0.903000
0.014059 -0.025657 0.905000
-0.017623 0.044046 0.906000
-0.011233 0.029744 0.902000
-0.012292 0.008545 0.898000
-0.026797 0.032307 0.901000
0.004379 0.011977 0.906000
0.026902 -0.014578 0.911000
0.030618 0.004115 0.899000
-0.014413 -0.033365 0.892000
0.011226 0.042694 0.917000
0.010790 -0.049878 0.912000
0.024381 0.032307 0.901000
0.026323 0.011951 0.904000
0.008584 0.042316 0.917000
-0.004520 -0.014707 0.896000
-0.011502 -0.027920 0.894000
-0.004184 0.014168 0.903000
0.005080 -0.032111 0.898000
0.037278 -0.029557 0.899000
0.027996 -0.034413 0.910000
0.013358 -0.006682 0.908000
0.031869 -0.014078 0.903000
0.005819 -0.029524 0.898000
0.012210 -0.008905 0.906000
0.033134 0.001152 0.897000
-0.036509 0.011681 0.912000
-0.001211 0.013424 0.903000
0.023823 -0.037327 0.908000
0.015549 -0.028264 0.905000
0.011452 -0.022304 0.905000
0.019821 0.012070 0.913000
-0.005639 -0.019914 0.898000
-0.015198 -0.040844 0.895000
0.024197 -0.045549 0.908000
-0.024463 0.008905 0.897000
0.006292 0.025598 0.913000
-0.011246 0.030521 0.903000
0.010289 -0.041118 0.901000
-0.012577 -0.039606 0.892000
0.019296 -0.038363 0.906000
0.009962 -0.015972 0.905000
-0.013371 0.001151 0.896000
0.004345 -0.043247 0.899000
-0.008199 -0.011743 0.895000
-0.004944 0.025029 0.906000
-0.006868 0.050078 0.914000
-0.010086 0.011515 0.899000
0.031091 -0.007752 0.902000
-0.007945 0.035548 0.908000
-0.018535 -0.011757 0.896000
-0.019663 -0.006601 0.897000
-0.020886 0.036798 0.902000
0.008481 0.003774 0.906000
0.035058 -0.018456 0.899000
-0.011883 -0.013954 0.895000
0.020437 -0.031686 0.907000
0.003653 0.026292 0.911000
0.015992 -0.014172 0.909000
0.001394 0.014571 0.905000
-0.012416 0.038495 0.907000
0.012899 -0.030769 0.902000
0.026152 -0.020577 0.911000
0.035019 -0.015479 0.898000
0.000652 0.022493 0.909000
-0.026113 0.038697 0.903000
-0.002344 0.034128 0.910000
-0.025741 0.039812 0.903000
0.012514 -0.029251 0.901000
-0.007462 -0.029425 0.895000
0.019317 0.039242 0.907000
-0.028683 0.031972 0.902000
-0.029795 0.035071 0.925000
0.019799 0.033828 0.912000
0.008825 -0.012963 0.903000
0.028027 0.023725 0.899000
0.031728 -0.000326 0.899000
0.014215 0.023018 0.915000
-0.012347 0.030116 0.902000
-0.024174 0.031160 0.900000
-0.015900 -0.037445 0.893000
0.023050 0.020577 0.907000
-0.031282 0.025289 0.902000
-0.027447 0.019264 0.898000
-0.014062 -0.040386 0.893000
-0.020233 0.045165 0.906000
0.005884 -0.001076 0.908000
0.019090 0.014340 0.914000
0.010695 -0.008141 0.904000
0.033093 -0.032770 0.906000
-0.012634 0.000413 0.896000
0.019799 -0.008964 0.912000
0.020856 0.025860 0.909000
0.006202 -0.037739 0.900000
-0.010131 0.030521 0.903000
0.009962 -0.017462 0.905000
-0.019663 -0.008816 0.897000
0.024223 -0.046721 0.909000
-0.005252 -0.037161 0.895000
0.021699 0.006433 0.913000
0.024303 -0.007462 0.912000
-0.029360 0.011898 0.900000
0.004033 0.028573 0.912000
0.016474 0.016615 0.915000
-0.027447 0.020742 0.898000
0.029639 -0.003672 0.903000
-0.002308 -0.037940 0.896000
-0.010131 0.024946 0.903000
-0.011630 0.031671 0.904000
-0.017021 -0.028656 0.894000
0.038629 -0.029827 0.896000
-0.011258 0.021253 0.904000
0.014837 -0.023100 0.907000
0.015311 0.007936 0.913000
0.017209 0.008321 0.914000
0.032757 -0.033926 0.907000
-0.012238 -0.023873 0.894000
-0.022347 -0.004406 0.901000
0.037481 -0.020216 0.895000
-0.013075 0.013395 0.901000
0.017585 0.009450 0.914000
0.035718 -0.016569 0.897000
0.010719 -0.017481 0.906000
0.011043 -0.037823 0.902000
-0.002679 -0.014354 0.897000
0.013838 0.042977 0.915000
-0.010790 0.000044 0.896000
-0.021557 -0.003656 0.899000
-0.017021 -0.030864 0.894000
0.021699 0.001548 0.913000
0.021207 0.026579 0.908000
0.001408 0.009450 0.914000
-0.015532 -0.037078 0.893000
-0.020538 0.038325 0.903000
0.007059 0.038458 0.915000
-0.000832 -0.036096 0.896000
-0.005340 0.039372 0.910000
-0.025627 0.027425 0.899000
-0.017155 0.028970 0.901000
-0.033285 0.022418 0.906000
0.010849 0.040429 0.917000
-0.008548 -0.036343 0.893000
-0.017564 0.033865 0.903000
0.033948 -0.013646 0.899000
0.002862 -0.035807 0.898000
0.028370 -0.026547 0.910000
0.010778 0.007919 0.911000
-0.002305 -0.032372 0.895000
0.013403 0.000795 0.911000
0.022752 -0.025049 0.910000
0.001027 0.029259 0.910000
0.026468 -0.045225 0.909000
0.017209 0.029764 0.914000
0.022426 0.007928 0.912000
0.010849 0.038165 0.917000
0.016402 0.040915 0.911000
0.019027 0.030041 0.911000
-0.017269 0.045215 0.907000
-0.018903 -0.022451 0.896000
-0.002338 0.024336 0.908000
0.026206 0.030049 0.900000
-0.027447 0.017785 0.898000
0.004715 -0.036587 0.899000
-0.009716 0.010775 0.899000
0.006668 0.026725 0.913000
0.030686 -0.001810 0.901000
-0.011618 0.019371 0.903000
-0.010142 0.020508 0.904000
0.014028 -0.045669 0.903000
0.022304 -0.040272 0.907000
-0.005996 -0.027983 0.896000
0.018217 0.041154 0.908000
0.010300 -0.033368 0.902000
0.010460 0.035107 0.916000
0.014952 0.039921 0.914000
-0.023724 0.016289 0.897000
0.005832 -0.036998 0.900000
0.017585 0.015845 0.914000
-0.007953 0.039702 0.909000
-0.011540 0.006690 0.897000
-0.012761 0.033940 0.905000
0.003239 -0.013661 0.900000
-0.021927 -0.002546 0.899000
-0.028958 0.024465 0.899000
-0.009304 -0.009165 0.895000
0.011968 0.043401 0.916000
-0.019904 -0.026115 0.908000
-0.024915 0.005601 0.900000
0.034471 -0.028201 0.903000
0.032838 -0.007726 0.899000
0.002528 0.028916 0.911000
0.008416 -0.031407 0.899000
0.027621 -0.035162 0.910000
-0.010778 -0.013217 0.895000
0.007314 -0.038109 0.900000
-0.028186 0.012241 0.898000
-0.011308 0.041901 0.908000
0.030953 0.006697 0.898000
0.019445 0.001172 0.913000
0.006388 -0.050699 0.927000
-0.001945 -0.018086 0.899000
-0.016322 -0.009544 0.896000
0.002868 -0.013291 0.900000
-0.015917 -0.026449 0.894000
0.003235 -0.043617 0.899000
0.028461 0.011540 0.901000
0.027530 -0.002942 0.907000
0.020948 0.003803 0.913000
-0.008596 0.002262 0.898000
-0.000095 -0.018106 0.900000
0.032026 0.005213 0.897000
0.028863 0.005242 0.902000
-0.027447 0.024808 0.898000
-0.028747 0.033159 0.904000
-0.009408 0.022394 0.905000
-0.007110 -0.017677 0.897000
0.030210 -0.031008 0.909000
0.009278 0.012043 0.911000
-0.004884 -0.032004 0.895000
-0.000096 0.032255 0.910000
0.001026 0.018751 0.909000
0.029119 -0.029544 0.910000
0.021300 0.013183 0.912000
0.024752 0.039353 0.901000
-0.004161 -0.019175 0.898000
-0.008217 -0.020999 0.897000
-0.019685 0.010763 0.898000
-0.004525 -0.017677 0.897000
0.025979 0.011964 0.905000
-0.019272 -0.009175 0.896000
-0.015602 0.002998 0.897000
0.014772 -0.045669 0.903000
0.024303 -0.009339 0.912000
0.005108 -0.019282 0.903000
0.026636 0.016379 0.902000
-0.032131 0.010847 0.905000
-0.026708 0.019264 0.898000
0.008416 -0.028447 0.899000
-0.035305 0.020270 0.910000
0.027217 -0.008560 0.909000
-0.016784 0.020811 0.901000
-0.008976 0.007815 0.899000
0.010414 0.014684 0.912000
0.001387 -0.044777 0.900000
0.016098 0.024901 0.915000
0.006587 -0.015548 0.902000
-0.023724 0.014073 0.897000
0.033802 -0.015600 0.905000
0.020879 0.019896 0.910000
-0.012279 0.003736 0.897000
0.014528 -0.000705 0.911000
0.013373 -0.003322 0.909000
0.032045 -0.031721 0.908000
0.022426 -0.014969 0.912000
0.007795 0.026725 0.913000
0.001012 -0.033514 0.896000
0.007727 -0.046143 0.905000
0.024917 0.009004 0.907000
0.016294 -0.032734 0.905000
0.020459 -0.027610 0.908000
-0.013461 0.017122 0.902000
0.035267 -0.019893 0.914000
-0.013003 -0.043471 0.896000
0.016722 -0.020510 0.908000
0.033839 -0.033889 0.906000
0.008491 0.009004 0.907000
0.030210 -0.024648 0.909000
-0.001217 0.031811 0.908000
0.019338 -0.047791 0.908000
0.025922 0.017141 0.903000
-0.018679 0.034609 0.903000
0.026094 -0.004819 0.909000
0.020572 0.001548 0.913000
0.034611 -0.008816 0.897000
0.013717 -0.020487 0.907000
0.012956 -0.021956 0.906000
0.012722 0.042647 0.916000
-0.003083 0.020203 0.907000
-0.019294 -0.025430 0.897000
-0.011682 0.043770 0.908000
0.020572 -0.003337 0.913000
-0.001952 0.010439 0.902000
-0.010910 0.034351 0.906000
0.011477 -0.002195 0.907000
0.005449 -0.031741 0.898000
-0.003410 -0.029793 0.895000
0.011079 -0.022304 0.905000
0.020527 -0.015703 0.911000
0.018337 0.016221 0.914000
0.024010 0.040095 0.901000
-0.021210 0.024122 0.900000
0.010742 0.002287 0.908000
-0.001584 0.015300 0.904000
-0.002308 -0.043103 0.896000
0.025374 -0.003326 0.910000
-0.033285 0.020181 0.906000
0.026065 -0.039943 0.908000
-0.012733 0.023087 0.903000
-0.023381 0.018524 0.898000
-0.003049 -0.026537 0.897000
-0.011502 -0.026816 0.894000
-0.028218 0.024835 0.899000
0.008180 0.026754 0.914000
-0.010421 -0.015076 0.896000
0.000274 -0.039828 0.897000
0.029023 -0.011528 0.907000
-0.016653 -0.019089 0.894000
0.011955 0.024901 0.915000
0.028429 0.024122 0.900000
-0.012056 0.044143 0.908000
-0.000465 -0.016606 0.899000
-0.003779 -0.035319 0.895000
0.038260 -0.025401 0.896000
0.004042 0.037288 0.914000
-0.008318 0.035548 0.908000
0.010671 -0.038194 0.902000
-0.008606 0.010035 0.899000
0.017190 0.005682 0.913000
-0.002346 0.039040 0.911000
0.021324 0.009815 0.913000
0.015887 -0.041581 0.903000
-0.019751 0.026745 0.901000
-0.021210 0.025233 0.900000
0.006244 0.008621 0.906000
0.017209 0.024497 0.914000
0.016685 -0.030160 0.906000
0.033130 -0.034299 0.907000
-0.015671 0.025261 0.901000
-0.021210 0.027456 0.900000
-0.009387 0.026432 0.903000
-0.010409 -0.025741 0.895000
0.019360 -0.019410 0.909000
0.018458 -0.049937 0.920000
0.010426 0.016955 0.913000
-0.003418 -0.027645 0.897000
-0.000095 -0.019958 0.900000
0.017942 0.003051 0.913000
0.002158 0.035368 0.913000
0.020572 -0.001082 0.913000
0.033872 -0.006601 0.897000
0.026843 -0.007812 0.909000
-0.025257 0.028535 0.899000
0.019669 -0.035753 0.906000
0.036047 -0.013600 0.896000
-0.019294 0.001152 0.897000
0.019466 0.007945 0.914000
0.009196 -0.024485 0.903000
-0.016095 0.033903 0.904000
0.008055 -0.033664 0.900000
0.017863 -0.018661 0.909000
0.002910 0.033865 0.913000
-0.017797 -0.005487 0.896000
-0.022642 0.020372 0.898000
0.008556 0.026378 0.914000
-0.027077 0.018155 0.898000
0.012722 0.035107 0.916000
0.003250 -0.045298 0.903000
-0.014125 0.005951 0.897000
-0.014830 -0.016532 0.895000
0.022898 0.040095 0.901000
-0.004576 0.023190 0.907000
0.028991 -0.008532 0.906000
0.011414 -0.036338 0.902000
-0.017896 0.023778 0.901000
-0.013536 0.043348 0.907000
-0.008199 -0.013585 0.895000
-0.016653 -0.030128 0.894000
0.007436 0.033186 0.915000
0.010648 -0.029219 0.900000
0.014184 0.012070 0.913000
-0.032912 0.018689 0.906000
0.002512 0.011219 0.905000
-0.028218 0.027055 0.899000
0.018217 -0.026115 0.908000
-0.014078 -0.021665 0.894000
-0.015619 0.006328 0.898000
0.023527 0.005294 0.911000
0.007693 -0.042602 0.901000
0.031706 -0.033627 0.909000
0.023876 0.006038 0.910000
0.037523 -0.021345 0.896000
-0.019663 -0.007339 0.897000
0.029202 0.007090 0.901000
0.003617 -0.018147 0.902000
-0.027077 0.020742 0.898000
-0.017526 0.027857 0.901000
0.014935 0.043259 0.913000
-0.009662 -0.029392 0.894000
-0.007173 0.023884 0.905000
-0.009662 -0.043374 0.894000
0.012899 -0.043391 0.902000
0.005851 -0.018910 0.903000
-0.012959 -0.028624 0.893000
0.009298 0.021464 0.913000
0.008046 -0.031407 0.899000
0.022328 0.021347 0.908000
0.023553 -0.010465 0.912000
0.005528 0.021042 0.911000
0.011955 0.023018 0.915000
-0.013119 0.032043 0.904000
0.018177 -0.036126 0.906000
-0.006049 0.028322 0.904000
-0.018700 0.039112 0.904000
0.024625 0.002292 0.910000
0.030754 -0.008132 0.903000
0.003975 -0.042137 0.899000
0.037154 -0.021714 0.896000
0.003289 0.037664 0.914000
0.003246 -0.018518 0.902000
-0.016304 -0.013217 0.895000
-0.015182 -0.017986 0.894000
-0.003093 0.036001 0.910000
0.019006 -0.016435 0.910000
0.024277 -0.000705 0.911000
0.030652 0.002267 0.900000
-0.004895 -0.016938 0.897000
-0.003418 -0.014723 0.897000
-0.020470 0.023381 0.900000
0.006573 -0.034035 0.900000
-0.023355 0.013335 0.897000
0.013778 0.001545 0.911000
-0.021533 0.005588 0.898000
0.007314 -0.039220 0.900000
-0.028556 0.017416 0.898000
0.018297 0.028197 0.912000
0.002153 0.025542 0.911000
-0.010409 -0.022058 0.895000
0.013417 0.005300 0.912000
-0.023088 0.035274 0.901000
-0.007094 -0.032740 0.895000
-0.011296 0.036629 0.907000
-0.012775 0.038080 0.906000
0.002158 0.039126 0.913000
0.017784 -0.040183 0.905000
0.025234 0.013827 0.905000
-0.011963 0.014507 0.901000
-0.005683 0.016806 0.905000
0.011202 0.026784 0.915000
-0.000096 0.039833 0.912000
-0.010742 -0.038138 0.892000
-0.012634 -0.002168 0.896000
-0.007831 -0.014690 0.895000
-0.013090 0.018607 0.902000
0.029299 -0.002932 0.904000
0.028745 -0.022802 0.910000
-0.022667 0.025575 0.899000
-0.015723 0.032415 0.904000
0.035389 -0.019175 0.898000
0.002872 -0.021835 0.901000
0.014788 -0.037162 0.904000
0.008046 -0.031777 0.899000
-0.014510 0.008915 0.898000
0.018944 -0.028326 0.907000
0.012156 -0.039679 0.902000
0.014230 0.029075 0.916000
-0.000836 -0.019958 0.900000
-0.003083 0.019457 0.907000
0.027287 0.021135 0.899000
0.003971 -0.028415 0.898000
-0.013446 0.027115 0.901000
-0.013832 0.022319 0.902000
-0.027847 0.009665 0.899000
0.026902 -0.022452 0.911000
-0.029393 0.028970 0.901000
0.006195 -0.033257 0.899000
-0.013148 0.036588 0.906000
-0.006371 -0.016938 0.897000
0.008099 -0.001073 0.905000
-0.011515 -0.009902 0.895000
0.009237 0.004524 0.907000
0.017209 0.016973 0.914000
0.019317 -0.030939 0.907000
-0.011896 -0.000693 0.896000
0.008055 -0.032553 0.900000
0.015227 -0.017146 0.908000
0.019423 -0.005961 0.912000
-0.033285 0.017944 0.906000
0.005455 -0.042137 0.899000
-0.018535 -0.005856 0.896000
0.009558 -0.043391 0.902000
0.009929 -0.035224 0.902000
-0.024201 0.033049 0.901000
0.002903 0.027041 0.911000
0.023050 0.020950 0.907000
0.002153 0.027041 0.911000
-0.019114 0.045165 0.906000
0.000644 -0.044308 0.898000
0.010369 0.004156 0.908000
0.016312 -0.029414 0.906000
-0.010041 -0.044528 0.895000
0.003242 -0.024431 0.901000
0.028587 -0.002190 0.905000
-0.018535 -0.004750 0.896000
0.012291 0.010180 0.912000
-0.015917 -0.023505 0.894000
-0.019751 -0.025172 0.901000
-0.009304 -0.024636 0.895000
0.024354 0.034494 0.900000
-0.009835 0.046862 0.910000
0.002534 0.035744 0.913000
-0.011296 0.035882 0.907000
0.013270 -0.042649 0.902000
-0.020424 0.012241 0.898000
0.018337 0.009450 0.914000
0.000646 -0.018106 0.900000
0.009685 0.025250 0.914000
0.002156 0.033452 0.912000
0.013300 -0.034186 0.904000
-0.021557 -0.006986 0.899000
-0.019030 0.032714 0.902000
-0.013832 0.020463 0.902000
0.009716 0.041184 0.917000
0.011540 0.009054 0.912000
0.020064 0.035882 0.907000
0.019690 -0.046992 0.907000
0.010094 0.040807 0.917000
0.003966 -0.032075 0.897000
0.031834 -0.010722 0.902000
-0.011883 -0.012480 0.895000
0.012985 -0.012288 0.908000
0.000652 0.019125 0.909000
0.017585 0.017726 0.914000
0.019821 -0.001082 0.913000
0.002151 0.024765 0.910000
0.026902 -0.027326 0.911000
0.018591 -0.024247 0.908000
0.023553 0.001171 0.912000
0.017902 -0.010454 0.911000
0.003597 -0.031706 0.897000
-0.007997 0.049702 0.914000
-0.029328 0.018545 0.899000
-0.025599 0.022960 0.898000
-0.007918 0.019786 0.905000
-0.028219 0.007919 0.911000
-0.029731 0.014121 0.900000
-0.034930 0.013528 0.910000
0.017902 -0.048699 0.911000
-0.000096 0.033041 0.911000
0.012224 -0.011901 0.907000
0.024170 0.013484 0.907000
0.007028 0.018043 0.911000
0.002123 -0.035807 0.898000
0.020572 0.007561 0.913000
0.012345 0.039254 0.916000
0.012956 -0.023075 0.906000
0.038346 -0.032111 0.898000
-0.026338 0.022960 0.898000
0.009962 -0.015227 0.905000
-0.008181 -0.041488 0.893000
0.005540 0.027477 0.913000
0.012345 0.028321 0.916000
-0.012238 -0.023505 0.894000
0.004384 0.014230 0.907000
0.005897 0.016150 0.910000
0.005923 0.033149 0.914000
0.013099 0.038877 0.916000
0.007744 -0.047365 0.907000
0.023050 -0.038406 0.907000
-0.001943 -0.013631 0.898000
0.030281 0.001897 0.900000
-0.018535 -0.018395 0.896000
-0.005664 0.014152 0.902000
-0.004596 0.043164 0.911000
-0.024517 0.027795 0.899000
0.018570 0.045215 0.907000
-0.008946 -0.022451 0.896000
0.026381 0.006384 0.906000
0.015160 -0.035674 0.904000
-0.024626 0.039440 0.903000
0.005825 -0.039917 0.899000
0.016045 0.040209 0.912000
0.025777 -0.008204 0.911000
0.026206 0.030419 0.900000
-0.025997 0.028535 0.899000
-0.009727 0.013009 0.900000
0.022051 -0.006336 0.912000
0.008903 0.014293 0.911000
0.019027 0.027416 0.911000
-0.012251 -0.004376 0.895000
0.011177 0.015076 0.913000
-0.029731 0.024122 0.900000
-0.010176 0.035135 0.907000
0.022752 -0.023926 0.910000
0.001388 -0.022576 0.901000
-0.026084 0.034942 0.902000
0.035718 -0.015462 0.897000
0.001773 0.016488 0.908000
-0.021163 0.003371 0.898000
-0.007134 -0.005512 0.900000
-0.007094 -0.044896 0.895000
0.025635 0.007503 0.906000
-0.020121 0.028228 0.901000
-0.020401 -0.005863 0.897000
-0.004938 0.030588 0.905000
0.027530 -0.004062 0.907000
-0.001937 -0.029425 0.895000
0.015939 -0.029414 0.906000
-0.015012 0.040317 0.906000
0.004024 0.018023 0.910000
0.018317 -0.001458 0.913000
0.005125 0.011604 0.906000
-0.027077 0.025177 0.898000
-0.014847 -0.010650 0.896000
0.016796 -0.000330 0.912000
-0.000096 0.035704 0.912000
-0.017021 -0.022033 0.894000
0.007718 -0.002932 0.904000
0.016420 0.037581 0.912000
-0.001939 -0.042365 0.896000
-0.014251 0.034313 0.905000
0.002153 0.030041 0.911000
-0.013832 0.030116 0.902000
-0.006733 -0.025033 0.896000
-0.018903 -0.011388 0.896000
-0.021557 -0.004396 0.899000
0.024090 0.022369 0.904000
-0.009770 0.030926 0.904000
0.022923 0.037169 0.902000
0.020550 0.017687 0.912000
-0.018903 -0.024664 0.896000
0.009217 -0.016344 0.905000
-0.022642 0.007436 0.898000
-0.013771 0.010024 0.898000
0.027996 -0.019057 0.910000
-0.020794 -0.006239 0.898000
0.019821 0.015828 0.913000
0.020902 -0.014953 0.911000
-0.014141 0.008545 0.898000
-0.009738 0.014136 0.901000
-0.001217 0.024710 0.908000
0.025151 0.038283 0.902000
