0.026857 -0.018415 0.897000
0.033203 0.009772 0.909000
-0.008254 0.038982 0.901000
0.024489 -0.005170 0.905000
0.011043 0.027517 0.902000
0.031622 -0.027983 0.896000
0.008766 -0.012139 0.897000
-0.011910 -0.004755 0.897000
0.005546 0.017726 0.914000
0.012472 0.029612 0.898000
-0.031116 0.016862 0.908000
0.011785 0.026774 0.902000
0.007419 0.021464 0.913000
-0.037014 0.013469 0.906000
-0.007579 0.013513 0.909000
-0.029962 0.015350 0.907000
0.021207 0.001913 0.908000
0.044379 0.004156 0.908000
-0.040889 0.002640 0.901000
0.044134 -0.017795 0.903000
-0.021493 0.022191 0.912000
0.023403 -0.032631 0.892000
-0.001220 0.028884 0.910000
-0.029830 0.011194 0.903000
-0.011171 -0.005863 0.897000
-0.008759 0.025277 0.915000
-0.011395 0.028667 0.915000
0.042695 -0.014094 0.904000
0.025318 0.000419 0.908000
-0.020674 0.040451 0.909000
0.034174 -0.008522 0.905000
0.023850 -0.023900 0.895000
-0.023724 -0.008816 0.897000
0.023114 -0.038266 0.895000
-0.027539 0.004124 0.901000
0.007718 0.004137 0.904000
0.022003 0.006038 0.910000
0.039674 -0.015193 0.903000
-0.007997 0.029388 0.914000
0.030583 -0.022132 0.898000
-0.033285 0.013842 0.906000
0.010659 0.027857 0.901000
-0.000097 0.025598 0.913000
-0.032622 -0.007348 0.898000
0.014706 -0.015126 0.899000
-0.007149 0.037540 0.902000
0.002116 -0.019111 0.895000
0.043375 0.014410 0.895000
-0.006049 0.008602 0.904000
0.033839 -0.007413 0.906000
0.017666 -0.017346 0.899000
0.016814 0.012821 0.913000
0.020099 -0.031896 0.892000
-0.031829 -0.017127 0.907000
0.029606 -0.007380 0.902000
-0.013986 0.020315 0.912000
-0.019685 -0.007717 0.898000
-0.014963 0.005619 0.903000
0.046690 0.013305 0.895000
-0.037057 -0.002912 0.898000
0.000642 -0.012849 0.895000
0.016446 -0.033770 0.893000
0.028713 0.001541 0.909000
0.039302 0.010823 0.903000
0.013551 -0.021345 0.896000
0.001747 -0.014690 0.895000
-0.024253 0.034768 0.917000
-0.016989 0.021441 0.912000
-0.010131 0.007478 0.903000
-0.018490 0.020315 0.912000
0.001771 0.010871 0.907000
0.046467 -0.014855 0.905000
-0.002703 0.008239 0.905000
0.024219 -0.025741 0.895000
0.016114 -0.023900 0.895000
0.021676 0.012057 0.912000
0.008001 -0.027184 0.894000
0.015093 0.026345 0.900000
-0.048893 0.007122 0.905000
-0.000097 0.021864 0.914000
0.043727 0.001918 0.910000
-0.031688 0.010823 0.903000
0.010624 -0.008826 0.898000
-0.013220 0.016543 0.911000
0.015498 -0.008494 0.902000
0.041060 -0.002948 0.909000
0.017133 0.006787 0.910000
0.016556 -0.016236 0.899000
0.027136 -0.031232 0.894000
0.042089 0.011515 0.899000
0.029105 0.019633 0.898000
-0.046184 0.009708 0.903000
0.007787 0.012432 0.912000
0.001405 0.015810 0.912000
-0.032991 -0.006608 0.898000
0.033540 -0.027676 0.898000
-0.021564 0.028667 0.915000
0.001408 0.018854 0.914000
0.024246 -0.018026 0.896000
0.011707 -0.020238 0.896000
0.011401 0.027857 0.901000
0.015549 0.022766 0.905000
0.041298 0.007130 0.906000
-0.013075 0.003382 0.901000
0.013935 0.028841 0.897000
0.005806 -0.013600 0.896000
0.026352 -0.006287 0.905000
-0.019970 0.019542 0.911000
0.007281 -0.020607 0.896000
0.040552 -0.008905 0.906000
-0.039777 0.005236 0.901000
0.026738 -0.031565 0.893000
0.045722 -0.013737 0.905000
0.005799 -0.028688 0.895000
-0.038007 0.007478 0.903000
0.044999 0.010763 0.898000
-0.034556 -0.016809 0.910000
0.044379 -0.006308 0.908000
0.040925 0.007875 0.906000
0.009940 0.001531 0.903000
-0.029491 -0.016326 0.904000
0.037774 -0.024086 0.902000
-0.047403 0.003397 0.905000
0.016168 -0.017696 0.898000
-0.004571 0.033605 0.906000
-0.015351 0.005626 0.904000
-0.025940 -0.009555 0.897000
-0.007165 0.008602 0.904000
-0.013416 -0.017716 0.899000
0.042742 -0.023049 0.905000
0.000276 0.033085 0.902000
0.050732 -0.011914 0.908000
0.039762 0.008984 0.905000
-0.046184 0.010079 0.903000
0.028429 -0.011809 0.900000
-0.022642 -0.014000 0.898000
0.026827 -0.020607 0.896000
0.044977 -0.012247 0.905000
-0.041764 0.026320 0.912000
0.037361 -0.019610 0.901000
0.010981 -0.018046 0.897000
-0.010254 0.022240 0.914000
0.004360 0.030858 0.902000
0.048703 -0.017972 0.912000
-0.015249 -0.009565 0.898000
-0.004611 0.026378 0.914000
0.038773 0.007893 0.908000
0.018057 -0.014032 0.900000
-0.014156 -0.016976 0.899000
0.034242 0.017396 0.897000
-0.002354 0.026002 0.914000
0.011681 -0.025713 0.894000
0.005516 0.025860 0.909000
-0.030876 0.001899 0.901000
0.044330 -0.007795 0.907000
-0.000097 0.021112 0.914000
0.025750 -0.016569 0.897000
0.002116 -0.022794 0.895000
-0.020121 -0.002181 0.901000
-0.043534 0.004128 0.902000
0.016983 -0.008865 0.902000
-0.024981 0.030960 0.916000
0.012569 0.004142 0.905000
0.043859 -0.012620 0.905000
0.006244 0.007503 0.906000
-0.022667 -0.004026 0.899000
0.008747 -0.022426 0.895000
-0.034777 0.014215 0.906000
0.041015 -0.004066 0.908000
-0.042468 0.023667 0.911000
0.010969 -0.021714 0.896000
0.008153 0.022542 0.911000
-0.022244 0.022567 0.912000
-0.030945 0.010823 0.903000
-0.026431 0.027883 0.914000
-0.024887 -0.004766 0.899000
0.032081 0.000793 0.909000
0.019402 0.007544 0.911000
0.010932 -0.028257 0.893000
0.042978 0.001543 0.910000
-0.000472 0.025973 0.913000
0.009105 -0.028656 0.894000
0.029606 -0.008123 0.902000
-0.042467 0.008964 0.903000
-0.003096 0.014668 0.911000
0.005068 -0.028720 0.896000
0.010648 0.028937 0.900000
0.006912 -0.016551 0.896000
0.035467 -0.027367 0.900000
-0.010198 0.013139 0.909000
-0.034328 -0.012978 0.904000
-0.027124 0.024444 0.912000
0.045048 -0.024407 0.914000
0.051612 -0.014674 0.917000
-0.005258 -0.020607 0.896000
0.027277 0.006419 0.911000
-0.015989 -0.012522 0.898000
0.023152 0.013168 0.911000
0.005492 0.028353 0.905000
-0.021869 0.039083 0.912000
-0.025679 0.026378 0.914000
0.043353 0.002292 0.910000
0.025635 -0.031932 0.893000
0.032455 -0.001077 0.909000
-0.006364 -0.010282 0.896000
0.025721 -0.018395 0.896000
0.029737 -0.004803 0.906000
-0.040062 -0.015789 0.916000
-0.003863 0.024524 0.915000
0.008001 -0.028656 0.894000
0.046995 -0.006308 0.908000
-0.009046 0.011977 0.906000
0.006653 0.023667 0.911000
-0.007840 -0.018026 0.896000
0.003589 -0.016532 0.895000
0.034318 -0.028817 0.899000
0.025893 -0.008865 0.902000
0.023398 -0.004057 0.906000
0.025430 0.009804 0.912000
-0.030127 0.024819 0.912000
0.000654 0.013543 0.911000
-0.022268 0.038750 0.913000
0.036490 -0.004435 0.907000
0.005923 0.017350 0.914000
-0.032273 0.018751 0.909000
0.007354 0.027236 0.905000
0.023824 -0.029392 0.894000
-0.002356 0.023018 0.915000
0.032169 -0.015531 0.901000
0.012913 -0.000327 0.903000
-0.022570 0.040870 0.910000
0.020550 0.013558 0.912000
-0.002676 -0.009913 0.896000
-0.017307 0.015384 0.909000
0.005793 -0.026816 0.894000
0.008472 -0.006287 0.905000
0.045099 0.009305 0.900000
-0.020233 0.009740 0.906000
-0.017564 0.003390 0.903000
0.014976 -0.031932 0.893000
0.033166 -0.003319 0.908000
0.016593 0.024520 0.901000
0.033653 -0.017014 0.901000
0.012102 -0.011413 0.898000
-0.017307 0.038580 0.909000
-0.020886 0.046079 0.902000
-0.004571 0.011604 0.906000
-0.040237 0.009336 0.903000
0.011153 0.010544 0.911000
-0.045043 0.020645 0.910000
-0.023191 0.013827 0.905000
-0.014880 -0.004760 0.898000
0.023718 -0.008513 0.904000
-0.017007 0.022216 0.913000
0.022677 -0.000702 0.907000
0.016483 -0.025741 0.895000
-0.040042 0.016097 0.907000
0.042276 -0.021140 0.903000
0.023050 -0.002195 0.907000
0.051106 -0.008551 0.908000
0.011890 0.007910 0.910000
-0.023909 0.005998 0.904000
0.005540 0.015828 0.913000
0.038516 -0.022601 0.902000
0.006912 -0.020607 0.896000
-0.036728 -0.001436 0.899000
0.023534 -0.016569 0.897000
-0.008208 -0.009175 0.896000
-0.036358 -0.001066 0.899000
0.025324 -0.026478 0.895000
-0.004586 0.031472 0.909000
0.028121 -0.007752 0.902000
-0.031953 -0.000696 0.900000
-0.013756 -0.007339 0.897000
-0.001603 0.023394 0.915000
-0.023121 0.034013 0.917000
-0.042002 0.003753 0.901000
0.019386 -0.028992 0.893000
0.011772 -0.004406 0.901000
-0.007102 -0.018395 0.896000
0.009268 0.009408 0.910000
-0.043449 0.019104 0.908000
0.017039 0.022021 0.905000
-0.011258 0.009346 0.904000
0.004705 -0.029122 0.897000
0.032081 0.000419 0.909000
-0.016577 0.015401 0.910000
-0.009684 -0.009913 0.896000
0.044999 0.011132 0.898000
-0.019970 0.020292 0.911000
0.037732 -0.018868 0.901000
0.019953 -0.010350 0.902000
-0.013416 0.000044 0.899000
-0.015989 -0.013631 0.898000
-0.018115 0.020690 0.912000
-0.025940 -0.011770 0.897000
0.029507 -0.013646 0.899000
0.048116 -0.007429 0.908000
0.005806 -0.016551 0.896000
-0.017545 0.043480 0.902000
0.003589 -0.013954 0.895000
-0.036763 0.020622 0.909000
-0.008956 -0.013246 0.897000
-0.000095 0.033457 0.902000
-0.045012 0.023068 0.917000
0.023824 -0.028656 0.894000
0.021882 0.019414 0.905000
0.006230 0.028694 0.904000
-0.030436 -0.020555 0.910000
-0.011159 -0.007700 0.896000
-0.034556 -0.017184 0.910000
0.026497 0.003041 0.910000
0.039674 -0.015565 0.903000
0.030180 0.019980 0.897000
0.042931 -0.003696 0.909000
-0.014510 -0.015479 0.898000
-0.005746 0.027160 0.915000
-0.030776 0.017629 0.909000
-0.037178 -0.015311 0.910000
0.015043 0.028103 0.897000
0.008922 0.018834 0.913000
-0.039252 0.013842 0.906000
-0.017759 0.023343 0.913000
0.032504 0.016714 0.900000
0.027627 -0.016588 0.898000
-0.005364 0.027507 0.914000
0.041060 -0.001826 0.909000
-0.004184 0.034980 0.903000
-0.022342 0.030206 0.916000
0.010277 0.028937 0.900000
0.014336 -0.015496 0.899000
0.039433 0.008248 0.906000
0.041808 0.004160 0.909000
0.006529 -0.023137 0.894000
0.046995 -0.019762 0.908000
0.031427 -0.012564 0.901000
0.026459 -0.023189 0.896000
-0.016449 0.003761 0.903000
-0.034328 -0.012606 0.904000
0.032765 -0.027276 0.897000
-0.018551 0.026407 0.915000
0.005845 0.030487 0.902000
-0.001225 0.022240 0.914000
-0.014785 0.026030 0.915000
0.032901 0.005669 0.911000
-0.011772 0.024524 0.915000
0.034700 0.000045 0.909000
-0.028157 0.019500 0.909000
-0.010946 -0.020532 0.909000
0.030180 0.019611 0.897000
-0.002336 0.012364 0.907000
-0.019337 -0.005506 0.899000
0.019338 0.001913 0.908000
-0.042142 -0.005536 0.904000
0.007427 0.019231 0.914000
0.011785 -0.000698 0.902000
0.017002 0.023459 0.903000
0.024834 -0.007025 0.904000
0.023613 0.021529 0.900000
0.020466 -0.032263 0.892000
0.043956 0.005644 0.907000
0.002852 -0.019111 0.895000
-0.007857 -0.004760 0.898000
-0.030127 0.025194 0.912000
-0.013249 0.022216 0.913000
-0.002308 -0.017288 0.896000
-0.004971 0.015043 0.911000
-0.019794 0.044272 0.903000
0.003962 -0.012863 0.896000
0.014755 0.024918 0.902000
-0.010607 0.019189 0.912000
0.048383 -0.011515 0.906000
-0.045142 0.021441 0.912000
-0.024335 0.017944 0.906000
-0.012470 0.034915 0.911000
0.038025 -0.003319 0.908000
0.036450 0.010113 0.906000
-0.035601 0.017983 0.908000
-0.010064 -0.013246 0.897000
0.001031 0.025598 0.913000
0.040879 -0.011130 0.905000
-0.001602 0.024121 0.914000
-0.027047 -0.006970 0.897000
0.034726 -0.019958 0.900000
0.047637 -0.011888 0.906000
-0.033248 0.011592 0.905000
0.019061 -0.025005 0.895000
0.007419 0.016203 0.913000
-0.020834 0.035484 0.916000
-0.017837 -0.008087 0.898000
-0.032694 -0.011439 0.900000
-0.014345 0.018418 0.911000
0.022577 -0.009990 0.903000
-0.020771 -0.010662 0.897000
-0.001965 0.030316 0.908000
-0.002694 0.034942 0.902000
0.010426 0.017331 0.913000
-0.001937 -0.013217 0.895000
0.035270 0.018094 0.895000
0.017706 -0.013306 0.901000
0.024983 -0.019132 0.896000
0.020482 0.003412 0.909000
-0.030472 -0.013291 0.900000
-0.026678 -0.008078 0.897000
0.000274 -0.015427 0.895000
-0.044796 0.013454 0.905000
0.005431 -0.027952 0.895000
0.022033 -0.018026 0.896000
0.021300 0.014309 0.912000
0.019430 -0.037897 0.895000
-0.022719 0.031714 0.916000
0.030147 0.020327 0.896000
0.025374 0.003790 0.910000
0.024010 -0.011822 0.901000
0.023346 0.018648 0.904000
0.014512 0.019896 0.910000
0.019669 0.019808 0.906000
0.026439 -0.001076 0.908000
-0.011246 0.007849 0.903000
0.012102 -0.013261 0.898000
0.044476 -0.001079 0.910000
0.032838 -0.022156 0.899000
0.022051 0.010180 0.912000
-0.025285 -0.002178 0.900000
0.008397 -0.018415 0.897000
-0.008654 0.008230 0.904000
-0.016202 0.016899 0.910000
0.045954 0.013305 0.895000
0.044102 0.000045 0.910000
0.033130 -0.004062 0.907000
-0.016784 0.044545 0.901000
-0.011540 -0.015462 0.897000
-0.004525 -0.022476 0.897000
-0.024550 0.027883 0.914000
0.005910 0.023318 0.912000
0.019754 -0.030094 0.893000
0.007362 0.007875 0.906000
0.018965 0.002661 0.908000
-0.027168 -0.016272 0.901000
-0.038965 0.018731 0.908000
-0.010826 -0.019566 0.899000
0.016520 -0.019892 0.897000
-0.022719 0.030583 0.916000
0.041904 -0.016308 0.903000
0.028607 -0.033440 0.894000
-0.031247 0.004495 0.901000
-0.002318 0.035976 0.900000
-0.007102 -0.007700 0.896000
0.003593 -0.012494 0.896000
0.029901 0.004544 0.911000
0.014690 -0.018805 0.898000
0.009125 -0.021345 0.896000
0.021272 -0.023900 0.895000
0.008913 0.012807 0.912000
-0.005627 -0.019501 0.896000
-0.025330 0.038835 0.915000
-0.019114 0.008994 0.906000
0.025777 0.006044 0.911000
-0.000096 0.009740 0.906000
0.046044 0.005998 0.904000
-0.043210 -0.001070 0.903000
-0.036399 0.001156 0.900000
-0.024200 0.029796 0.915000
0.003958 -0.025373 0.895000
0.003221 -0.024268 0.895000
0.011030 0.027857 0.901000
0.021277 0.015418 0.911000
-0.013817 0.002640 0.901000
-0.017440 0.029829 0.916000
-0.004152 -0.015813 0.896000
0.026352 -0.005915 0.905000
-0.021749 0.012364 0.907000
-0.000464 -0.011019 0.896000
0.008388 -0.020976 0.896000
0.039630 -0.021117 0.902000
0.009526 -0.007356 0.899000
0.017002 0.023087 0.903000
0.034738 0.007910 0.910000
-0.047071 0.017706 0.913000
0.005799 -0.021689 0.895000
0.011681 -0.032336 0.894000
0.013793 0.012432 0.912000
0.015412 -0.020261 0.897000
0.018427 0.024492 0.900000
-0.010802 -0.014723 0.897000
0.037072 -0.012963 0.903000
-0.023537 0.005998 0.904000
0.014168 0.018062 0.912000
-0.017402 0.024497 0.914000
-0.013220 0.017293 0.911000
-0.028186 -0.012522 0.898000
-0.022297 -0.004396 0.899000
-0.032912 -0.015617 0.906000
-0.043497 0.019874 0.909000
0.009589 0.005632 0.905000
0.041716 -0.005928 0.907000
0.047795 0.012569 0.895000
-0.045316 -0.001870 0.931000
-0.019114 0.008621 0.906000
0.036530 0.009014 0.908000
-0.005346 0.015043 0.911000
0.013138 -0.027522 0.893000
0.014090 0.022443 0.907000
0.005165 0.016579 0.913000
-0.022272 -0.006978 0.898000
-0.023063 -0.002178 0.900000
-0.009738 0.003382 0.901000
0.001784 0.020735 0.914000
0.019538 -0.015513 0.900000
0.028767 -0.014386 0.899000
-0.034956 0.003753 0.901000
-0.006371 -0.006970 0.897000
-0.005258 -0.016919 0.896000
0.004742 0.005254 0.904000
-0.026737 -0.014386 0.899000
-0.023724 -0.009185 0.897000
-0.016559 0.013888 0.909000
-0.039865 0.009336 0.903000
-0.020054 -0.007717 0.898000
0.002484 -0.020216 0.895000
-0.022366 0.032503 0.917000
0.008737 -0.024241 0.894000
0.030584 0.000793 0.909000
-0.034994 0.004500 0.902000
-0.015555 0.030960 0.916000
0.041762 0.005651 0.908000
0.027306 0.008303 0.912000
-0.045742 0.018377 0.909000
0.036823 0.009740 0.906000
-0.042373 0.001899 0.901000
0.025290 -0.001822 0.907000
0.003661 0.023343 0.913000
0.021114 -0.008141 0.904000
0.008171 0.020337 0.913000
-0.048095 0.009346 0.904000
0.001010 -0.019479 0.895000
-0.000095 0.034161 0.901000
0.029442 0.022565 0.897000
-0.047987 0.003038 0.909000
-0.045119 0.012695 0.904000
0.009040 0.001188 0.925000
0.008019 -0.019501 0.896000
-0.038421 -0.010001 0.904000
-0.024654 0.007858 0.904000
0.020925 0.009429 0.912000
-0.024654 0.010835 0.904000
0.018447 0.024149 0.901000
0.046690 0.012200 0.895000
0.040731 -0.000704 0.910000
0.009674 0.016203 0.913000
-0.018555 -0.011401 0.897000
0.007265 -0.027184 0.894000
0.031288 -0.033921 0.897000
-0.000847 0.027071 0.912000
0.043823 -0.025855 0.912000
0.022949 -0.009247 0.903000
-0.007173 0.010474 0.905000
0.009125 -0.032039 0.896000
0.037734 0.006787 0.910000
0.023902 0.006794 0.911000
0.024117 -0.005915 0.905000
-0.009016 0.006363 0.903000
0.030481 -0.030530 0.895000
0.037732 -0.019239 0.901000
0.001784 0.019607 0.914000
0.009984 0.007138 0.907000
-0.012109 0.018438 0.912000
-0.029425 0.010811 0.902000
-0.024970 0.003015 0.902000
0.003597 -0.028383 0.897000
0.046477 0.009654 0.898000
0.013417 0.012807 0.912000
0.033097 0.018852 0.896000
0.036651 0.004544 0.911000
0.035151 0.003045 0.911000
0.028366 -0.019544 0.898000
-0.028657 0.026349 0.913000
-0.011395 0.024901 0.915000
-0.025026 0.013067 0.904000
0.019006 0.006038 0.910000
-0.045440 0.007849 0.903000
0.005437 -0.013232 0.896000
0.034997 0.010124 0.907000
-0.017231 0.041018 0.905000
-0.018308 0.043157 0.903000
0.003286 0.023343 0.913000
0.029040 -0.035727 0.896000
-0.046235 0.011207 0.904000
-0.024599 0.001530 0.902000
0.018036 -0.016976 0.899000
-0.023096 0.029829 0.916000
0.020041 -0.003684 0.906000
0.009505 -0.032813 0.897000
-0.029458 0.011194 0.903000
-0.010850 0.042691 0.901000
0.026065 0.000045 0.908000
0.006595 0.029034 0.903000
-0.011733 0.035329 0.912000
0.010266 -0.006986 0.899000
-0.043162 0.001530 0.902000
0.023850 -0.026478 0.895000
0.034318 -0.022896 0.899000
0.030281 -0.011439 0.900000
0.046262 0.007832 0.901000
0.026947 -0.011068 0.900000
-0.001978 0.019607 0.914000
-0.003414 -0.018395 0.896000
0.013920 -0.022820 0.896000
-0.023165 0.006742 0.904000
-0.000831 -0.016164 0.895000
-0.043928 0.025738 0.918000
-0.000849 0.022616 0.914000
0.004689 -0.023873 0.894000
0.001016 0.034123 0.900000
0.044134 -0.020768 0.903000
-0.007840 -0.009544 0.896000
0.001408 0.020359 0.914000
0.015481 -0.010710 0.901000
0.008010 -0.030530 0.895000
0.039172 0.012639 0.900000
0.008126 0.025084 0.908000
-0.011720 0.034915 0.911000
0.007419 0.015828 0.913000
-0.010596 0.017668 0.911000
-0.047776 0.011964 0.905000
0.047368 -0.007056 0.908000
-0.005996 -0.018026 0.896000
0.026556 0.007177 0.912000
0.016630 -0.006645 0.903000
-0.028990 -0.000326 0.900000
-0.039008 0.021370 0.909000
-0.030878 0.023693 0.912000
-0.008337 0.032630 0.910000
-0.031478 -0.008447 0.897000
0.032026 -0.032444 0.897000
-0.011910 -0.015831 0.897000
0.028277 -0.003688 0.907000
-0.006733 -0.012494 0.896000
0.001394 0.006004 0.905000
-0.015161 0.027160 0.915000
-0.019616 0.021065 0.912000
0.006292 0.016203 0.913000
0.032829 0.000045 0.909000
0.033134 0.020719 0.897000
-0.013655 0.026784 0.915000
0.014755 -0.001812 0.902000
-0.002673 -0.013217 0.895000
-0.036133 -0.017222 0.912000
-0.047083 0.013842 0.906000
-0.019702 0.033599 0.916000
0.029745 -0.032372 0.895000
-0.034777 0.012350 0.906000
0.016813 -0.034137 0.893000
0.020550 0.009054 0.912000
0.009278 0.021792 0.911000
0.024587 -0.021689 0.895000
0.006631 0.009388 0.908000
-0.007134 0.040421 0.900000
0.018529 -0.003680 0.905000
-0.003471 0.029666 0.911000
0.033540 0.017416 0.898000
-0.026827 0.008954 0.902000
0.011363 -0.014000 0.898000
-0.034623 0.004871 0.902000
-0.043871 0.019874 0.909000
-0.031455 0.015350 0.907000
-0.023876 0.034391 0.917000
0.034623 -0.005928 0.907000
0.010323 0.001905 0.904000
0.012305 0.018082 0.913000
-0.016522 0.010871 0.907000
-0.014494 -0.009185 0.897000
-0.002313 -0.025088 0.898000
0.021254 0.004539 0.910000
-0.013909 0.010124 0.907000
0.036782 -0.010012 0.905000
0.004321 -0.024609 0.894000
-0.033732 0.017610 0.908000
-0.042373 0.002640 0.901000
-0.006846 0.016543 0.911000
0.024807 -0.008875 0.903000
0.051536 -0.011553 0.909000
-0.017098 -0.008826 0.898000
-0.028594 0.021042 0.911000
0.025692 -0.027583 0.895000
0.023482 -0.020953 0.895000
-0.003939 -0.026066 0.933000
-0.028280 0.000045 0.901000
0.033614 0.000794 0.910000
-0.019423 0.043900 0.903000
-0.028874 0.017983 0.908000
0.018468 -0.009979 0.902000
0.013226 -0.014756 0.899000
0.012143 -0.004776 0.901000
0.002484 -0.019111 0.895000
0.009841 -0.026449 0.894000
0.009278 0.011294 0.911000
-0.037219 0.023667 0.911000
-0.033101 -0.011822 0.901000
-0.038378 0.008964 0.903000
-0.032991 -0.003652 0.898000
-0.001224 0.018458 0.913000
0.035370 0.011617 0.907000
0.043391 -0.016680 0.903000
-0.015504 0.022216 0.913000
-0.014001 0.022592 0.913000
-0.048893 0.008612 0.905000
0.011733 0.029612 0.898000
0.009558 0.027888 0.902000
0.024090 -0.008513 0.904000
0.014919 0.010931 0.912000
0.024889 -0.004803 0.906000
0.022402 0.006419 0.911000
-0.012135 0.032397 0.914000
0.026235 0.019328 0.901000
0.017936 -0.027552 0.894000
0.017200 -0.036751 0.894000
0.021935 -0.034833 0.892000
-0.036358 -0.007726 0.899000
-0.006089 0.031506 0.910000
0.013808 0.016579 0.913000
0.050048 -0.016920 0.916000
-0.015079 0.015401 0.910000
0.012799 -0.023163 0.895000
0.026008 -0.003684 0.906000
0.043114 0.007494 0.905000
0.026119 0.023672 0.897000
-0.039406 -0.007001 0.901000
0.029364 -0.004430 0.906000
-0.023850 0.036238 0.916000
-0.009878 0.022992 0.914000
0.037319 -0.001452 0.909000
-0.015619 -0.010304 0.898000
-0.031513 -0.005869 0.898000
0.001031 0.016579 0.913000
-0.047083 0.014215 0.906000
0.037858 -0.011862 0.904000
-0.041260 0.001528 0.901000
0.017431 0.021300 0.906000
-0.025570 -0.010293 0.897000
-0.044746 0.000417 0.904000
-0.033395 -0.017165 0.909000
-0.014125 -0.012877 0.897000
0.015294 0.012057 0.912000
0.018591 0.001913 0.908000
0.022302 -0.033365 0.892000
0.022230 -0.007397 0.904000
-0.014172 0.001526 0.900000
0.004757 0.027669 0.907000
-0.003410 -0.011375 0.895000
0.027934 -0.001076 0.908000
0.016945 -0.015143 0.900000
-0.031455 -0.017127 0.907000
0.007051 0.018478 0.914000
-0.038803 -0.015737 0.913000
0.019083 -0.021714 0.896000
-0.011910 -0.009185 0.897000
-0.000095 -0.009196 0.898000
-0.028524 -0.011031 0.897000
0.050358 -0.007056 0.908000
-0.044697 0.001160 0.903000
0.006299 0.019231 0.914000
0.040356 0.000794 0.910000
0.033171 -0.025088 0.898000
0.005916 0.021464 0.913000
-0.019051 0.043900 0.903000
-0.013756 -0.009924 0.897000
0.037899 -0.010012 0.905000
0.044977 0.006377 0.905000
-0.022818 0.044370 0.905000
-0.022844 0.044046 0.906000
0.005923 0.019231 0.914000
0.006175 -0.029458 0.896000
0.010426 -0.000331 0.913000
0.033166 -0.002197 0.908000
0.038272 -0.010012 0.905000
-0.014672 0.012004 0.908000
-0.035150 0.014215 0.906000
0.020489 -0.036710 0.893000
-0.001960 0.011232 0.906000
-0.018115 0.019939 0.912000
-0.003414 -0.021345 0.896000
0.035058 -0.027706 0.899000
-0.023511 0.003761 0.903000
-0.017440 0.031714 0.916000
-0.026485 0.012309 0.903000
0.038844 -0.019610 0.901000
-0.034585 -0.010710 0.901000
0.032728 0.020327 0.896000
0.044878 -0.018910 0.903000
0.012076 -0.022082 0.896000
0.044134 -0.016680 0.903000
-0.004944 0.033605 0.906000
-0.025342 -0.016290 0.902000
0.025324 -0.026846 0.895000
-0.018511 0.036495 0.913000
0.003221 -0.015427 0.895000
-0.012662 -0.016957 0.898000
0.016027 0.018043 0.911000
0.040223 0.007138 0.907000
0.029151 0.009794 0.911000
0.005832 0.031530 0.900000
0.011668 -0.027522 0.893000
-0.023319 0.041619 0.910000
0.025663 -0.001822 0.907000
-0.004152 -0.013969 0.896000
0.044851 -0.000704 0.910000
-0.006861 0.019585 0.913000
-0.010221 0.016168 0.911000
0.014256 -0.033808 0.894000
-0.019681 0.027537 0.915000
0.036329 -0.014078 0.903000
0.018611 0.004160 0.909000
-0.004240 0.024147 0.915000
0.002205 -0.029906 0.933000
0.022745 -0.023163 0.895000
0.006195 0.034085 0.899000
0.021272 -0.025373 0.895000
-0.030061 0.019521 0.910000
0.017627 0.027364 0.897000
-0.039581 0.013454 0.905000
0.032765 -0.030598 0.897000
0.012102 -0.012152 0.898000
0.029442 -0.035767 0.897000
-0.012648 -0.012139 0.897000
0.017976 -0.021714 0.896000
-0.019241 0.020690 0.912000
-0.003429 0.037087 0.900000
-0.005317 0.010859 0.906000
0.013566 -0.019523 0.897000
-0.011171 -0.012139 0.897000
-0.028155 -0.009924 0.897000
0.049556 -0.010781 0.907000
0.031602 -0.005176 0.906000
0.002149 0.011643 0.909000
-0.006022 0.038568 0.900000
-0.017212 0.005626 0.904000
-0.028657 0.027101 0.913000
-0.023447 0.029043 0.915000
0.031125 0.015283 0.903000
-0.019773 0.044965 0.902000
-0.035444 0.008974 0.904000
0.023126 0.005288 0.910000
-0.033730 -0.008456 0.898000
-0.043968 0.022167 0.911000
0.015532 0.000045 0.904000
-0.046286 0.012709 0.905000
-0.033584 -0.013350 0.904000
-0.035305 -0.016809 0.910000
0.014400 0.000045 0.903000
0.040731 0.004165 0.910000
-0.027168 0.005607 0.901000
-0.036601 0.011964 0.905000
0.036904 -0.003319 0.908000
-0.034878 -0.008096 0.899000
0.019777 0.007169 0.911000
0.034958 -0.006294 0.906000
-0.024200 0.029043 0.915000
-0.038922 0.017590 0.907000
-0.018186 -0.010293 0.897000
-0.038463 -0.010757 0.905000
0.017296 -0.017346 0.899000
-0.019729 -0.002919 0.900000
-0.015029 0.010497 0.907000
-0.042839 0.009336 0.903000
0.013808 0.013949 0.913000
-0.008006 0.028290 0.915000
-0.026084 0.001530 0.902000
-0.029328 -0.004026 0.899000
0.013982 -0.011068 0.900000
-0.013401 -0.001804 0.898000
-0.031108 -0.008816 0.897000
0.026931 0.007928 0.912000
0.042183 -0.003696 0.909000
0.019027 0.007919 0.911000
0.029119 0.002667 0.910000
0.049666 -0.006315 0.909000
-0.001219 0.029601 0.909000
0.028246 0.014588 0.906000
-0.042002 -0.001068 0.901000
0.033986 -0.030330 0.900000
0.042183 -0.002574 0.909000
-0.027909 0.003382 0.901000
-0.034892 0.019125 0.909000
0.023501 0.005288 0.910000
0.033503 -0.004808 0.907000
0.046477 0.010024 0.898000
-0.028524 -0.007709 0.897000
-0.039008 0.021744 0.909000
0.019189 0.023407 0.901000
0.015093 -0.012920 0.900000
0.016045 0.016186 0.912000
-0.025798 0.015316 0.905000
0.019338 0.002661 0.908000
-0.022869 0.018337 0.907000
0.015584 -0.037286 0.907000
0.004389 0.026952 0.908000
-0.015619 -0.005869 0.898000
0.044878 -0.016308 0.903000
0.005063 -0.015059 0.895000
0.045550 -0.002948 0.909000
0.003653 0.025542 0.911000
-0.024872 0.022942 0.912000
-0.016274 0.034278 0.914000
0.023139 -0.018763 0.896000
0.033615 -0.018847 0.900000
-0.017936 0.003390 0.903000
-0.038251 0.001897 0.900000
-0.049375 0.009751 0.907000
0.028959 0.015316 0.905000
-0.029621 0.017610 0.908000
-0.007229 0.016936 0.912000
-0.008217 -0.007339 0.897000
-0.038591 -0.012288 0.908000
0.002913 0.021112 0.914000
0.030483 0.013469 0.906000
0.028607 -0.030496 0.894000
0.017489 0.004160 0.909000
-0.025684 0.000045 0.901000
0.023114 -0.026478 0.895000
-0.012429 0.011630 0.908000
-0.005364 0.021488 0.914000
0.017566 0.012821 0.913000
0.007419 -0.008222 0.913000
-0.032719 0.024042 0.911000
0.027965 0.000793 0.909000
-0.034508 -0.001436 0.899000
-0.015436 0.014636 0.909000
0.009298 0.015828 0.913000
-0.022317 0.028667 0.915000
0.022402 -0.017657 0.896000
0.012856 -0.014386 0.899000
0.046736 0.006363 0.903000
-0.005258 -0.011019 0.896000
-0.026708 -0.013261 0.898000
-0.015385 0.008994 0.906000
0.020174 0.013183 0.912000
-0.013655 0.032056 0.915000
-0.043582 -0.000327 0.903000
-0.009387 0.005991 0.903000
0.011313 -0.026449 0.894000
0.013808 0.016955 0.913000
0.030147 -0.026139 0.896000
0.043763 -0.017423 0.903000
-0.018287 0.001158 0.902000
-0.028186 -0.005500 0.898000
0.025778 -0.013631 0.898000
-0.029632 -0.009924 0.897000
0.031798 -0.011081 0.901000
0.019820 -0.021345 0.896000
-0.013595 0.016918 0.911000
0.030382 0.015654 0.903000
-0.023088 0.000415 0.901000
0.016114 -0.024636 0.895000
-0.037259 -0.016471 0.912000
-0.026112 0.032091 0.916000
-0.041260 -0.002181 0.901000
-0.000095 -0.013217 0.895000
-0.047299 0.006363 0.903000
-0.018700 0.042833 0.904000
0.008491 0.007884 0.907000
-0.011579 -0.019218 0.900000
-0.030539 -0.014063 0.902000
0.013966 -0.016606 0.899000
0.026977 -0.008856 0.901000
-0.012648 -0.008447 0.897000
-0.042049 -0.003668 0.902000
0.016908 0.028504 0.898000
0.013138 -0.029359 0.893000
0.020505 0.004539 0.910000
-0.020979 0.008248 0.906000
-0.020424 -0.007348 0.898000
-0.019325 0.029829 0.916000
-0.014591 0.005991 0.903000
0.000279 0.026696 0.912000
0.027591 0.001167 0.909000
-0.011746 0.021464 0.913000
0.002484 -0.021689 0.895000
-0.041724 0.009708 0.903000
-0.039008 0.020622 0.909000
0.002528 0.013918 0.911000
-0.004207 0.013125 0.908000
-0.012761 0.008984 0.905000
-0.042886 0.010835 0.904000
-0.004520 -0.011019 0.896000
0.031776 0.006044 0.911000
0.037361 -0.024801 0.901000
0.011772 -0.004035 0.901000
-0.021581 -0.002549 0.900000
0.002517 0.010124 0.907000
0.047212 -0.014110 0.905000
-0.010421 -0.008806 0.896000
0.013211 -0.018066 0.898000
-0.004235 0.021112 0.914000
0.050414 -0.013798 0.909000
-0.024523 0.024095 0.913000
0.026002 -0.033402 0.893000
0.013138 -0.028257 0.893000
0.014106 0.021347 0.908000
0.044112 0.014410 0.895000
-0.031758 0.011964 0.905000
-0.030742 -0.018641 0.908000
0.015687 0.012446 0.913000
0.042972 -0.020374 0.902000
-0.021095 0.020292 0.911000
-0.021352 0.042927 0.906000
0.044309 0.010775 0.899000
0.003257 0.029471 0.905000
0.026768 -0.035647 0.894000
-0.001225 0.019607 0.914000
0.016186 -0.015866 0.899000
0.039476 -0.006301 0.907000
0.040356 0.001169 0.910000
-0.018409 0.012004 0.908000
0.039824 0.013720 0.898000
0.032169 -0.017014 0.901000
0.008153 0.011668 0.911000
-0.032694 0.000785 0.900000
-0.004955 0.032184 0.908000
0.009125 -0.032408 0.896000
0.026370 -0.032300 0.893000
-0.035975 -0.014530 0.908000
0.015093 -0.014032 0.900000
-0.001200 -0.013217 0.895000
0.029364 0.014215 0.906000
-0.033918 0.008964 0.903000
-0.001225 0.020359 0.914000
0.029803 -0.002197 0.908000
0.024697 -0.013646 0.899000
-0.016613 0.019939 0.912000
0.025067 0.021135 0.899000
-0.037468 -0.004026 0.899000
-0.023962 0.017944 0.906000
-0.011936 -0.001066 0.899000
0.046051 -0.024162 0.919000
-0.050297 0.007971 0.917000
-0.033695 0.014604 0.907000
-0.003079 0.011232 0.906000
0.014559 0.015452 0.913000
-0.007471 -0.014707 0.896000
0.025465 -0.011068 0.900000
-0.006457 0.013888 0.909000
0.021858 -0.007397 0.904000
0.002868 0.033383 0.900000
-0.044718 0.021792 0.911000
-0.021305 0.004882 0.904000
0.017647 -0.018066 0.898000
0.007633 -0.025345 0.894000
0.021207 0.017610 0.908000
-0.006076 0.013125 0.908000
-0.015538 0.032056 0.915000
-0.024174 0.026002 0.914000
0.044232 0.006749 0.905000
-0.042188 0.013827 0.905000
-0.031899 0.018377 0.909000
-0.003055 0.037046 0.899000
-0.038948 -0.004766 0.899000
-0.035737 0.004128 0.902000
0.015177 0.022766 0.905000
0.019125 -0.017696 0.898000
-0.009096 0.032666 0.911000
0.017896 -0.034099 0.892000
0.013388 0.007910 0.910000
0.000647 0.033457 0.902000
-0.035287 0.001526 0.900000
-0.038259 0.020996 0.909000
0.044281 -0.010023 0.906000
-0.003045 -0.018395 0.896000
0.044281 -0.009650 0.906000
0.032801 0.017416 0.898000
0.007787 0.012807 0.912000
-0.010850 0.003011 0.901000
0.015711 -0.030094 0.893000
0.043305 -0.003696 0.909000
0.045975 0.000419 0.910000
0.011477 0.023936 0.907000
0.008019 -0.030933 0.896000
0.025374 0.003416 0.910000
0.029526 0.004919 0.911000
-0.014510 -0.004021 0.898000
0.001405 0.025570 0.912000
0.037941 -0.008159 0.906000
0.008547 0.015452 0.913000
0.015567 0.021673 0.906000
0.045772 -0.010023 0.906000
-0.009694 -0.005863 0.897000
-0.038664 0.004495 0.901000
-0.003045 -0.020238 0.896000
0.028863 -0.007752 0.902000
0.048222 0.003790 0.910000
0.030147 -0.026508 0.896000
0.013211 0.028873 0.898000
0.016204 -0.014402 0.900000
-0.014125 -0.008816 0.897000
-0.018206 -0.007348 0.898000
-0.010120 0.003757 0.902000
0.030618 -0.021416 0.899000
-0.029065 0.028635 0.914000
0.018157 0.020904 0.905000
-0.007587 0.032255 0.910000
0.045027 -0.010769 0.906000
-0.017857 -0.005506 0.899000
0.010050 0.019210 0.913000
0.011376 -0.006986 0.899000
-0.009856 0.019189 0.912000
-0.037635 -0.016471 0.912000
-0.005352 0.016561 0.912000
-0.017739 0.021065 0.912000
-0.032991 -0.007717 0.898000
0.003221 -0.017269 0.895000
-0.018555 -0.009924 0.897000
0.037610 0.008631 0.907000
0.029008 -0.028688 0.895000
0.002492 -0.028415 0.898000
-0.009889 0.029420 0.915000
-0.004152 -0.020607 0.896000
-0.008382 0.027537 0.915000
0.012035 -0.029359 0.893000
-0.043497 0.020622 0.909000
0.032151 0.003795 0.911000
0.024807 0.018999 0.903000
-0.014736 0.035329 0.912000
0.026887 -0.013631 0.898000
0.023797 -0.035240 0.893000
0.043535 -0.023448 0.906000
-0.042095 -0.005159 0.903000
-0.000096 0.011244 0.907000
-0.028990 0.004860 0.900000
0.029202 -0.008485 0.901000
-0.042235 0.014588 0.906000
-0.007471 -0.012494 0.896000
-0.023724 -0.012877 0.897000
-0.005996 -0.012863 0.896000
0.034726 -0.020699 0.900000
0.006257 0.025831 0.908000
0.026008 -0.004057 0.906000
0.023770 -0.032998 0.892000
-0.013386 -0.011031 0.897000
0.033134 -0.026168 0.897000
0.044604 -0.022304 0.905000
-0.000848 0.026349 0.913000
-0.007875 0.039680 0.900000
-0.000472 0.016561 0.912000
-0.036973 0.012337 0.905000
0.034250 -0.030939 0.907000
-0.000844 0.029942 0.908000
0.011837 0.006011 0.906000
-0.014323 -0.019559 0.934000
-0.033472 0.004124 0.901000
-0.004520 -0.016551 0.896000
-0.026678 -0.006970 0.897000
-0.018155 0.025250 0.914000
0.028366 -0.020284 0.898000
-0.021258 0.001530 0.902000
0.023501 0.015027 0.910000
0.014168 0.010555 0.912000
-0.007848 -0.019154 0.897000
0.021834 0.020486 0.903000
-0.013940 0.012765 0.909000
0.042090 -0.007048 0.907000
-0.037511 0.021370 0.909000
-0.021878 -0.009185 0.897000
0.021067 0.021577 0.902000
-0.030404 -0.011413 0.898000
-0.035072 0.010091 0.904000
0.019189 -0.013676 0.901000
0.044330 -0.007421 0.907000
0.019048 0.012807 0.912000
-0.004152 -0.019501 0.896000
-0.022471 0.009740 0.906000
-0.042002 -0.001810 0.901000
0.006237 0.006749 0.905000
-0.027477 -0.003656 0.899000
0.006209 0.030453 0.901000
0.015711 -0.034137 0.893000
-0.023962 0.016079 0.906000
0.020696 -0.010350 0.902000
0.013982 -0.013661 0.900000
-0.042048 -0.014962 0.935000
-0.022986 -0.011401 0.897000
-0.016595 0.018793 0.911000
0.001379 -0.019479 0.895000
0.019210 -0.011093 0.902000
-0.032731 0.005236 0.901000
0.016168 -0.017327 0.898000
-0.029022 0.001157 0.901000
0.004403 0.024792 0.911000
0.036904 -0.002571 0.908000
-0.018135 0.023343 0.913000
0.011903 0.010169 0.911000
0.001018 0.033085 0.902000
0.019865 -0.017327 0.898000
-0.033361 -0.004021 0.898000
0.008472 0.005632 0.905000
-0.020367 0.020690 0.912000
0.023191 -0.015479 0.898000
0.023036 -0.033732 0.892000
0.042836 -0.007795 0.907000
-0.045761 0.005984 0.902000
0.018839 -0.010350 0.902000
-0.032144 -0.021067 0.916000
0.043305 -0.025022 0.909000
0.048955 0.010370 0.896000
-0.028280 0.001899 0.901000
0.031323 -0.022501 0.898000
0.009146 0.032200 0.898000
0.018818 -0.011822 0.901000
-0.021893 0.023343 0.913000
-0.018429 0.039328 0.909000
-0.004938 0.034313 0.905000
0.005793 -0.026081 0.894000
-0.011346 0.016168 0.911000
0.030924 -0.001824 0.908000
0.013056 0.014700 0.913000
0.010357 0.024310 0.907000
-0.009856 0.018062 0.912000
0.036570 -0.001077 0.909000
0.005455 0.032235 0.899000
-0.044246 0.019500 0.909000
0.008019 -0.017288 0.896000
0.035074 0.008650 0.909000
0.010612 -0.012508 0.897000
-0.024998 0.004133 0.903000
0.033540 -0.028045 0.898000
-0.014393 0.023745 0.914000
-0.009846 0.016918 0.911000
-0.010561 0.012751 0.908000
-0.032237 0.017236 0.908000
0.021462 -0.009247 0.903000
-0.004601 0.018062 0.912000
-0.033361 -0.005869 0.898000
0.012278 0.010919 0.911000
0.047368 -0.005935 0.908000
-0.015619 -0.014000 0.898000
0.030210 0.001167 0.909000
-0.017642 0.040362 0.907000
0.044654 0.005265 0.906000
0.010006 0.023241 0.909000
-0.006846 0.015418 0.911000
0.001397 0.010497 0.907000
0.017843 0.019478 0.908000
-0.018135 0.022216 0.913000
-0.000832 -0.011388 0.896000
-0.036308 0.016470 0.907000
-0.027722 0.017217 0.907000
0.003289 0.020359 0.914000
-0.014510 -0.009565 0.898000
-0.000470 0.028853 0.909000
0.022402 0.014668 0.911000
0.034842 -0.012963 0.903000
-0.021749 0.042602 0.907000
0.019909 -0.014772 0.900000
-0.010064 -0.018046 0.897000
0.040970 -0.007048 0.907000
-0.009325 -0.017677 0.897000
-0.039252 0.014960 0.906000
0.006529 -0.026816 0.894000
0.003665 0.021864 0.914000
0.007403 0.012418 0.911000
-0.045793 0.019521 0.910000
0.046724 0.001169 0.910000
-0.013075 0.041949 0.901000
-0.000842 0.006757 0.906000
-0.028280 0.001528 0.901000
-0.033101 0.001528 0.901000
0.017133 0.018397 0.910000
0.026902 0.004919 0.911000
0.031057 0.016732 0.901000
0.021319 0.025518 0.897000
0.047264 -0.011888 0.906000
0.013657 0.024946 0.903000
0.024587 -0.020216 0.895000
0.031367 0.009408 0.910000
-0.045019 0.004128 0.902000
0.023243 0.021899 0.900000
0.027903 -0.028320 0.895000
0.021509 -0.005543 0.905000
-0.034404 0.013469 0.906000
0.043162 -0.009650 0.906000
0.003629 0.006004 0.905000
-0.009336 -0.019544 0.898000
-0.032647 0.019874 0.909000
-0.037098 -0.000696 0.899000
-0.027447 -0.005130 0.898000
-0.019992 0.038332 0.912000
0.038644 0.011219 0.905000
0.024652 0.013543 0.911000
0.002907 0.015435 0.912000
-0.012470 0.034166 0.911000
-0.042791 0.007469 0.902000
0.034174 -0.007777 0.905000
0.004326 -0.021321 0.895000
-0.026767 -0.001437 0.900000
-0.001586 0.008239 0.905000
-0.012347 0.005984 0.902000
0.023482 -0.019848 0.895000
0.012116 -0.009946 0.899000
0.047902 0.010012 0.897000
0.006565 0.031865 0.899000
0.016538 -0.018066 0.898000
0.022008 -0.027215 0.895000
0.032984 -0.010362 0.903000
0.027591 0.001541 0.909000
0.011707 -0.033883 0.896000
-0.031918 -0.002916 0.899000
0.021414 -0.012935 0.901000
0.046808 -0.023027 0.919000
-0.009336 -0.003652 0.898000
0.025430 0.007552 0.912000
0.030992 0.002292 0.910000
0.022999 -0.006660 0.905000
-0.011989 0.006363 0.903000
-0.005996 -0.019870 0.896000
-0.029022 0.002270 0.901000
0.021676 0.009054 0.912000
-0.019178 0.039702 0.909000
0.039259 -0.021117 0.902000
0.036611 0.007161 0.910000
-0.015654 0.001526 0.900000
-0.012279 -0.014354 0.897000
-0.032876 -0.014855 0.905000
-0.040326 0.012337 0.905000
-0.006400 0.037499 0.901000
-0.046015 0.015724 0.907000
-0.037676 -0.016865 0.913000
0.041070 0.010799 0.901000
0.048912 0.006727 0.902000
-0.039382 0.020248 0.909000
-0.032731 0.001528 0.901000
0.024862 -0.005543 0.905000
0.003641 0.010509 0.908000
-0.003498 -0.025647 0.918000
0.040596 -0.005928 0.907000
0.022377 -0.019479 0.895000
-0.041343 0.024417 0.911000
-0.005258 -0.009175 0.896000
0.011681 -0.025345 0.894000
-0.016914 0.012751 0.908000
-0.022297 -0.005136 0.899000
0.024956 -0.027952 0.895000
0.037485 -0.012606 0.904000
0.010600 -0.020607 0.896000
-0.000849 0.024121 0.914000
0.030884 -0.033146 0.896000
0.031253 -0.027983 0.896000
-0.042328 0.018731 0.908000
-0.019616 0.021816 0.912000
0.000642 -0.013217 0.895000
-0.025679 0.028259 0.914000
0.012899 -0.001069 0.902000
-0.002733 0.023771 0.915000
-0.002318 0.038198 0.900000
0.026724 -0.006287 0.905000
-0.040889 0.004124 0.901000
0.043162 0.006384 0.906000
0.012500 0.028197 0.900000
0.038730 -0.007048 0.907000
0.044604 -0.011502 0.905000
-0.040103 0.002637 0.900000
0.036208 0.015232 0.900000
0.025234 0.017179 0.905000
-0.014896 0.000414 0.899000
0.023482 -0.023163 0.895000
-0.004525 -0.021738 0.897000
0.031798 -0.010339 0.901000
-0.012539 0.028698 0.916000
-0.024228 0.001158 0.902000
-0.040262 0.026696 0.912000
-0.020910 0.045015 0.903000
0.013581 0.029612 0.898000
0.019712 0.018357 0.908000
0.046467 -0.017089 0.905000
-0.022995 0.022942 0.912000
-0.036469 0.023667 0.911000
0.016078 -0.033770 0.893000
0.034023 -0.017385 0.901000
-0.009006 0.004871 0.902000
0.015652 0.009419 0.911000
-0.018824 0.038997 0.910000
-0.038578 -0.001436 0.899000
0.036944 0.007902 0.909000
0.051706 -0.013093 0.912000
0.010426 0.018834 0.913000
-0.014314 0.037458 0.909000
0.015127 -0.003668 0.902000
0.044281 -0.008905 0.906000
0.018818 0.023407 0.901000
-0.013940 0.013139 0.909000
-0.029054 0.010439 0.902000
0.018117 -0.008132 0.903000
0.025805 0.007928 0.912000
-0.001602 0.023745 0.914000
-0.013061 0.001156 0.900000
0.003958 -0.020216 0.895000
0.020257 -0.016236 0.899000
0.011772 -0.002922 0.901000
-0.009694 -0.012139 0.897000
0.022821 0.023329 0.898000
0.031057 -0.011081 0.901000
0.044210 0.012228 0.897000
-0.032432 0.010079 0.903000
0.016983 -0.010350 0.902000
0.044005 0.004903 0.908000
0.015277 0.008294 0.911000
0.013966 -0.014386 0.899000
0.052342 -0.010442 0.910000
0.010742 0.023215 0.908000
0.028492 -0.008123 0.902000
-0.009016 0.006734 0.903000
0.027217 0.001167 0.909000
-0.014801 0.027944 0.916000
0.042978 0.001918 0.910000
-0.007237 0.020337 0.913000
0.014543 0.018438 0.912000
0.044183 -0.013722 0.904000
-0.000833 -0.025430 0.897000
-0.027477 -0.014756 0.899000
0.006905 -0.029057 0.895000
0.026468 0.013888 0.909000
0.025402 0.012418 0.911000
0.018366 -0.019523 0.897000
0.025692 -0.037529 0.895000
-0.025940 -0.009924 0.897000
0.001757 0.034123 0.900000
0.036863 0.009377 0.907000
-0.028155 -0.006970 0.897000
-0.017817 -0.011770 0.897000
0.012870 -0.006623 0.900000
-0.031953 -0.011809 0.900000
0.014755 -0.002554 0.902000
0.026061 -0.027952 0.895000
-0.019262 0.037247 0.913000
0.024219 -0.037529 0.895000
-0.017662 0.012377 0.908000
0.028799 -0.011809 0.900000
0.026768 -0.030496 0.894000
0.018284 -0.035608 0.893000
-0.029360 0.000044 0.900000
0.038151 0.002295 0.911000
0.010209 -0.029392 0.894000
-0.014656 0.010124 0.907000
-0.014494 -0.004755 0.897000
-0.033881 0.005984 0.902000
-0.018928 0.028290 0.915000
0.032432 -0.023980 0.898000
0.002142 0.008994 0.906000
0.026370 -0.030829 0.893000
-0.020470 -0.004401 0.900000
0.033540 -0.003319 0.908000
-0.014494 -0.010662 0.897000
0.009196 0.027547 0.903000
-0.008318 0.004903 0.908000
-0.007253 0.024147 0.915000
0.041024 0.011528 0.900000
0.016832 -0.026816 0.894000
-0.020014 0.024095 0.913000
-0.019358 -0.003289 0.900000
0.037361 -0.022206 0.901000
0.016630 -0.002929 0.903000
0.009874 -0.016569 0.897000
-0.012484 0.019189 0.912000
-0.033175 0.009336 0.903000
0.046044 -0.015210 0.904000
0.005091 0.031901 0.900000
-0.001201 -0.010282 0.896000
0.019975 0.021229 0.903000
-0.025798 0.016061 0.905000
-0.001602 0.019983 0.914000
-0.026767 -0.002178 0.900000
-0.035816 0.010091 0.904000
0.030248 0.018545 0.899000
-0.019882 0.041108 0.907000
-0.034777 0.013469 0.906000
-0.037635 0.008593 0.903000
-0.037880 0.001526 0.900000
0.014559 0.016579 0.913000
-0.016131 0.039944 0.906000
-0.030001 -0.007709 0.897000
0.039017 -0.010757 0.905000
-0.014559 0.003011 0.901000
0.015481 0.025261 0.901000
0.002484 -0.016901 0.895000
0.028671 -0.026508 0.896000
0.020482 0.004160 0.909000
0.029343 -0.030496 0.894000
0.002158 0.016955 0.913000
0.012569 0.003397 0.905000
0.030884 0.019958 0.896000
0.002144 0.010871 0.907000
0.047532 0.005254 0.904000
0.023088 -0.022401 0.894000
0.020086 0.000419 0.908000
-0.011923 -0.016957 0.898000
0.041901 0.016252 0.895000
0.038526 0.002670 0.911000
0.017686 0.024863 0.900000
0.015043 -0.020261 0.897000
-0.017269 0.010871 0.907000
0.030416 -0.006653 0.904000
0.027007 0.018607 0.902000
0.022702 0.000792 0.908000
0.032169 0.015990 0.901000
0.010742 -0.001450 0.908000
-0.033285 0.012350 0.906000
0.041389 -0.004813 0.908000
-0.017876 -0.001437 0.900000
0.012291 0.011681 0.912000
-0.016431 0.043109 0.902000
-0.000463 -0.018374 0.895000
-0.034290 0.008221 0.903000
-0.011592 0.040466 0.901000
-0.010826 -0.001806 0.899000
0.019006 -0.038907 0.910000
0.014837 0.022070 0.907000
-0.035266 0.019125 0.909000
-0.005683 0.034685 0.905000
0.006299 0.018102 0.914000
0.037774 -0.016662 0.902000
0.041343 -0.024593 0.907000
0.029967 -0.037157 0.913000
-0.027047 -0.010662 0.897000
0.017566 0.013573 0.913000
0.024516 -0.004057 0.906000
0.010730 0.007138 0.907000
0.003253 0.030182 0.904000
-0.031116 0.016115 0.908000
-0.025968 -0.013631 0.898000
0.001784 0.022616 0.914000
-0.019509 0.041482 0.907000
0.026857 -0.017308 0.897000
0.016704 0.020577 0.907000
-0.020014 0.024470 0.913000
-0.004156 -0.022476 0.897000
-0.028990 0.005230 0.900000
-0.036892 0.006734 0.903000
-0.026084 0.003386 0.902000
0.027469 0.015689 0.905000
0.046108 0.010393 0.898000
0.029202 -0.036668 0.901000
-0.024860 -0.006978 0.898000
-0.043630 0.011207 0.904000
-0.018741 0.041436 0.906000
0.042600 0.009326 0.902000
0.009135 -0.012508 0.897000
0.045393 -0.025731 0.921000
-0.044788 -0.002628 0.928000
0.033240 0.009408 0.910000
0.050358 -0.011540 0.908000
0.026123 0.013154 0.910000
0.047264 0.003774 0.906000
0.046322 0.012937 0.895000
-0.023498 0.034391 0.917000
0.034026 0.004169 0.911000
0.036701 -0.014450 0.903000
0.020650 -0.014402 0.900000
-0.005996 -0.014707 0.896000
0.023320 -0.009990 0.903000
-0.006056 0.035058 0.905000
0.015746 -0.025005 0.895000
0.043006 0.014410 0.895000
0.031263 0.012737 0.907000
0.024250 0.003416 0.910000
-0.003783 -0.009913 0.896000
0.013702 0.004147 0.906000
-0.004616 0.026030 0.915000
0.014992 -0.035279 0.894000
-0.019681 0.027160 0.915000
0.042416 -0.009278 0.906000
-0.032985 0.017610 0.908000
0.039630 0.011182 0.902000
0.001010 -0.015427 0.895000
-0.008730 0.031575 0.912000
-0.031594 0.023292 0.911000
0.051536 -0.010431 0.909000
-0.006116 0.022240 0.914000
0.021616 -0.037487 0.894000
-0.016747 -0.003656 0.899000
-0.040281 0.010463 0.904000
0.010254 -0.009565 0.898000
0.043811 -0.014466 0.904000
-0.037676 -0.017241 0.913000
0.015584 0.021323 0.907000
-0.008587 -0.013246 0.897000
-0.022073 0.007867 0.905000
-0.022098 0.046656 0.906000
0.004374 0.006377 0.905000
-0.008208 -0.012863 0.896000
0.012305 0.018458 0.913000
0.003958 -0.013217 0.895000
-0.013032 -0.016218 0.898000
-0.043678 0.013454 0.905000
0.028339 0.000793 0.909000
0.015549 0.001907 0.905000
-0.020278 0.013125 0.908000
0.049985 -0.007429 0.908000
-0.023537 0.006370 0.904000
-0.000463 -0.013585 0.895000
0.041854 -0.001079 0.910000
-0.047031 0.013082 0.905000
0.020324 -0.011093 0.902000
0.018985 0.003412 0.909000
0.022821 0.023699 0.898000
-0.040504 0.021370 0.909000
0.006912 -0.013969 0.896000
-0.039998 0.015706 0.906000
-0.025386 0.035523 0.917000
-0.014032 0.026030 0.915000
-0.012761 0.009357 0.905000
0.014240 -0.030094 0.893000
-0.017739 0.019939 0.912000
0.041997 -0.012247 0.905000
-0.001937 -0.019479 0.895000
0.044555 -0.015210 0.904000
-0.004576 0.032522 0.907000
0.038888 -0.022230 0.902000
0.028239 -0.029760 0.894000
0.019006 0.004914 0.910000
-0.021903 -0.007348 0.898000
-0.032694 0.000044 0.900000
0.034688 -0.022526 0.899000
0.014059 0.003397 0.905000
0.027560 -0.000703 0.908000
0.030884 -0.027614 0.896000
0.025409 -0.015109 0.898000
0.014028 0.024946 0.903000
-0.015989 -0.005130 0.898000
0.005148 0.011281 0.910000
-0.007571 0.034053 0.908000
-0.030876 0.003753 0.901000
0.038151 0.003795 0.911000
-0.021588 0.030583 0.916000
-0.014526 -0.001436 0.899000
0.010243 -0.017308 0.897000
0.017219 -0.037161 0.895000
0.012913 0.025689 0.903000
0.015687 0.015076 0.913000
0.005063 -0.026846 0.895000
-0.015283 0.001526 0.900000
0.017258 -0.020261 0.897000
-0.006116 0.021112 0.914000
0.014153 0.019167 0.911000
0.016889 -0.019892 0.897000
-0.029752 0.023693 0.912000
0.006292 0.016955 0.913000
-0.019882 0.041482 0.907000
0.029409 -0.026508 0.896000
-0.006733 -0.013600 0.896000
-0.007875 0.039309 0.900000
0.006175 -0.017288 0.896000
0.038901 0.003045 0.911000
0.008747 -0.023163 0.895000
0.036579 -0.025144 0.900000
-0.033695 -0.015634 0.907000
-0.013771 -0.015848 0.898000
-0.030193 0.026754 0.914000
0.050732 -0.008924 0.908000
-0.003110 0.022264 0.915000
0.022426 0.010931 0.912000
0.026527 0.012043 0.911000
0.022627 -0.005543 0.905000
0.006264 0.025486 0.909000
0.025550 0.018256 0.903000
-0.030101 -0.000326 0.900000
0.038272 -0.010757 0.905000
-0.012718 0.040510 0.902000
-0.030573 0.011194 0.903000
0.046480 -0.023810 0.920000
-0.013104 0.007106 0.903000
0.023372 -0.005543 0.905000
-0.007529 0.006734 0.903000
0.052025 -0.012328 0.911000
-0.002676 -0.020976 0.896000
0.001010 -0.019111 0.895000
0.011785 -0.001812 0.902000
0.017588 -0.025373 0.895000
-0.039998 0.014960 0.906000
0.027596 -0.037244 0.897000
0.041578 -0.012978 0.904000
-0.012539 0.028321 0.916000
-0.025941 0.021019 0.910000
-0.024093 -0.008078 0.897000
0.027996 -0.016957 0.898000
0.020650 -0.014772 0.900000
0.038815 -0.002574 0.909000
0.005540 0.016579 0.913000
-0.016413 0.001528 0.901000
0.027227 -0.017677 0.897000
0.000650 0.009367 0.906000
0.029429 -0.000703 0.908000
-0.023433 -0.003289 0.900000
-0.000831 -0.016532 0.895000
-0.014672 0.011256 0.908000
-0.025998 0.023693 0.912000
0.039367 0.015164 0.896000
-0.019294 -0.011401 0.897000
0.011903 0.009419 0.911000
0.021391 0.022640 0.900000
0.007028 0.012043 0.911000
0.014853 0.020973 0.908000
-0.019573 0.018397 0.910000
-0.026455 0.001901 0.902000
-0.016274 0.034654 0.914000
0.022008 -0.020953 0.895000
0.017936 -0.036383 0.894000
-0.014623 0.039528 0.905000
0.002495 0.035566 0.899000
-0.008644 0.005619 0.903000
0.004345 0.034456 0.899000
0.021640 -0.021689 0.895000
-0.042232 0.027131 0.914000
-0.035111 0.011964 0.905000
0.005437 -0.017288 0.896000
-0.032324 0.000785 0.900000
0.002116 -0.013217 0.895000
0.051968 -0.011191 0.910000
0.011668 -0.030462 0.893000
-0.016784 0.044916 0.901000
-0.036560 0.008974 0.904000
-0.016896 0.039988 0.907000
-0.010433 -0.006601 0.897000
