0.006434 -0.025701 0.881000
0.016188 -0.034687 0.879000
0.028223 0.023640 0.882000
0.002448 -0.025367 0.882000
-0.020446 -0.013040 0.883000
-0.010328 -0.040525 0.888000
-0.005076 0.044189 0.865000
0.022084 0.018641 0.869000
0.010761 -0.026728 0.879000
0.029346 -0.020308 0.883000
0.023955 0.040958 0.872000
0.017936 -0.021950 0.876000
0.027766 -0.009363 0.879000
0.003851 0.020835 0.871000
0.010026 -0.008629 0.878000
0.002092 -0.029825 0.885000
-0.023610 0.017409 0.879000
0.018657 -0.022311 0.876000
-0.013073 0.024560 0.876000
-0.015046 -0.024024 0.886000
-0.002238 0.040817 0.869000
0.023184 0.036209 0.870000
-0.014316 -0.028035 0.886000
0.009698 -0.028602 0.881000
0.012696 0.047994 0.863000
0.010447 -0.043931 0.883000
0.022135 0.006137 0.871000
0.011354 0.020430 0.869000
0.008107 0.043527 0.866000
0.034127 -0.023873 0.894000
0.004210 0.024779 0.871000
0.016399 0.006137 0.871000
0.026980 -0.006093 0.877000
0.004972 -0.020216 0.879000
0.015736 -0.007871 0.874000
0.018087 0.029983 0.866000
0.001345 0.017649 0.873000
0.001695 0.042199 0.868000
0.023569 0.029081 0.871000
-0.022991 -0.019581 0.883000
-0.020151 -0.021107 0.886000
-0.014893 0.021340 0.877000
0.009992 0.003284 0.875000
-0.014332 -0.031352 0.887000
0.000634 -0.034521 0.884000
0.015754 -0.016883 0.875000
-0.024278 -0.028111 0.877000
-0.015722 -0.004681 0.883000
-0.019608 0.019557 0.878000
-0.000093 -0.017361 0.881000
-0.015080 -0.032484 0.888000
0.004950 0.014449 0.875000
0.018066 0.036713 0.865000
-0.010188 0.027805 0.876000
-0.011386 -0.023268 0.885000
0.012083 0.015440 0.870000
-0.015722 -0.007588 0.883000
0.028255 0.035296 0.883000
0.028159 -0.013720 0.880000
0.001695 0.039341 0.868000
-0.001549 -0.033429 0.884000
0.015394 -0.011841 0.875000
0.007045 0.037511 0.867000
-0.023556 0.030725 0.877000
-0.005909 -0.014493 0.883000
0.026288 0.034735 0.878000
0.005996 0.023318 0.870000
-0.021125 0.002219 0.881000
0.013469 0.027876 0.867000
0.004258 -0.010109 0.881000
0.007548 -0.045072 0.884000
0.015646 0.017568 0.869000
-0.015739 -0.041798 0.884000
0.015592 0.031409 0.866000
0.019738 -0.024474 0.876000
0.006596 0.048957 0.855000
-0.010130 0.039835 0.871000
-0.020151 -0.031682 0.886000
0.008200 0.008336 0.876000
0.017751 0.024308 0.867000
0.024701 0.023758 0.873000
0.005285 0.019043 0.871000
0.021702 0.027194 0.868000
-0.013983 -0.037236 0.888000
-0.011034 -0.031317 0.886000
0.003874 -0.050433 0.876000
-0.027433 0.033138 0.874000
0.021036 0.010069 0.870000
0.027404 0.004023 0.879000
0.011458 -0.016561 0.877000
-0.020621 0.036057 0.875000
0.005989 0.031160 0.869000
-0.013920 -0.001776 0.884000
0.013593 -0.010401 0.875000
0.003497 0.029114 0.872000
0.013578 -0.007511 0.874000
-0.022550 0.008012 0.880000
-0.011322 0.013807 0.880000
-0.008405 0.015944 0.878000
-0.012727 0.017730 0.877000
0.009544 0.035727 0.867000
0.020939 0.039963 0.866000
0.013874 0.012218 0.870000
-0.003376 -0.043716 0.886000
-0.016812 -0.007952 0.883000
-0.012829 -0.000684 0.884000
-0.005070 0.044493 0.864000
-0.008395 0.016286 0.877000
0.025868 0.020234 0.876000
0.017214 -0.019066 0.876000
-0.009839 0.030725 0.877000
-0.022860 0.001127 0.878000
0.002456 -0.047309 0.885000
-0.014731 -0.045693 0.889000
-0.014842 0.034577 0.874000
-0.001165 0.041532 0.869000
-0.017781 0.023145 0.877000
0.027860 0.030900 0.882000
0.001695 0.042913 0.868000
0.019870 0.033191 0.866000
0.002052 0.042199 0.868000
-0.003001 -0.025396 0.883000
0.029015 0.026968 0.884000
-0.029098 -0.026455 0.870000
0.000634 -0.037068 0.884000
0.009632 0.005085 0.875000
0.006812 -0.040297 0.883000
0.008580 -0.012605 0.878000
-0.006928 0.026303 0.874000
0.000633 -0.009758 0.882000
0.002087 -0.037026 0.883000
-0.016831 -0.011235 0.884000
0.010376 -0.010785 0.877000
0.009654 -0.012590 0.877000
0.015236 0.033191 0.866000
-0.005855 0.028494 0.875000
0.022262 -0.028440 0.876000
0.010761 -0.025281 0.879000
-0.011270 0.022037 0.876000
0.007437 0.016892 0.871000
-0.026949 -0.032184 0.870000
0.018974 -0.014346 0.874000
-0.000457 -0.035249 0.884000
-0.000452 0.017310 0.874000
-0.025934 -0.032976 0.872000
0.029743 -0.004322 0.884000
-0.004818 -0.023943 0.883000
0.006009 0.016552 0.872000
0.020844 -0.031721 0.877000
-0.019563 0.032853 0.876000
-0.010682 -0.037559 0.887000
0.028554 -0.001770 0.881000
-0.013572 -0.046216 0.885000
0.025898 -0.028111 0.877000
-0.012712 0.020955 0.876000
0.027373 -0.007184 0.878000
0.007505 -0.021663 0.879000
0.020030 -0.008580 0.873000
0.009544 0.032872 0.867000
0.018338 -0.031757 0.878000
-0.000093 0.014121 0.877000
-0.010561 0.028559 0.877000
0.011135 -0.031105 0.880000
-0.006300 -0.045225 0.887000
-0.014648 -0.015238 0.884000
0.000998 -0.038887 0.884000
-0.001883 -0.051520 0.870000
0.025147 -0.025916 0.876000
-0.017459 0.014515 0.879000
-0.015958 0.027084 0.876000
-0.013952 -0.026577 0.886000
-0.020881 -0.022565 0.886000
-0.001891 0.032058 0.874000
0.008620 -0.031176 0.882000
0.021566 -0.034609 0.877000
0.015412 -0.016542 0.876000
0.006820 -0.028700 0.884000
-0.008826 -0.047983 0.884000
0.004469 0.045980 0.852000
-0.028839 0.033818 0.873000
-0.009940 -0.034234 0.886000
-0.006999 -0.020308 0.883000
0.012770 0.023979 0.868000
0.018887 0.006846 0.870000
0.001359 -0.011210 0.882000
-0.008053 0.014515 0.879000
-0.010847 0.040552 0.871000
-0.002238 0.039744 0.869000
-0.007665 0.028166 0.876000
-0.026774 0.026724 0.876000
-0.014714 -0.033946 0.888000
0.001363 -0.047309 0.885000
-0.008089 -0.014493 0.883000
0.019915 0.020406 0.868000
-0.027793 0.027382 0.874000
-0.012843 -0.024361 0.885000
-0.011737 -0.020331 0.884000
-0.017963 -0.019648 0.886000
-0.022886 -0.003936 0.879000
-0.023222 0.007993 0.878000
-0.013222 -0.025847 0.886000
-0.019787 -0.018554 0.886000
0.015844 -0.037624 0.880000
0.025537 -0.033165 0.877000
-0.005935 -0.047051 0.887000
-0.017760 0.031771 0.876000
0.021036 0.009711 0.870000
-0.018162 0.020280 0.878000
0.008629 -0.046475 0.883000
-0.024278 0.033612 0.877000
-0.008453 -0.020308 0.883000
0.014896 0.028947 0.867000
-0.004087 -0.018107 0.882000
0.026288 0.039071 0.878000
0.012000 0.045560 0.864000
0.020436 -0.022285 0.875000
-0.017983 -0.024416 0.887000
-0.003686 0.032740 0.873000
0.014314 -0.011121 0.875000
-0.022601 -0.015929 0.882000
0.002805 -0.019153 0.880000
0.008473 0.037511 0.867000
0.013547 0.004709 0.872000
0.003493 0.031590 0.871000
-0.025994 -0.024778 0.874000
0.029810 0.015360 0.886000
-0.013967 -0.038289 0.887000
-0.013073 0.023118 0.876000
-0.017440 0.017389 0.878000
-0.026083 0.027115 0.877000
0.010822 -0.043617 0.884000
-0.013794 0.031411 0.876000
0.021345 0.030052 0.868000
0.022852 0.008288 0.871000
0.001718 -0.019153 0.880000
0.003393 0.046004 0.846000
0.000267 0.026243 0.872000
-0.019742 -0.014146 0.884000
-0.008405 0.015582 0.878000
-0.020739 -0.003216 0.880000
-0.000452 0.028821 0.874000
0.023211 0.041986 0.871000
0.008247 -0.026064 0.881000
-0.018714 -0.026972 0.887000
0.013640 -0.025975 0.878000
0.024065 -0.028079 0.876000
0.020963 0.030731 0.867000
0.020249 0.028947 0.867000
-0.024639 0.007262 0.877000
0.000271 -0.031282 0.885000
0.002456 -0.044759 0.885000
0.007479 0.007975 0.876000
-0.016793 0.004763 0.882000
-0.014466 0.037771 0.873000
0.022826 0.024034 0.870000
0.001693 0.045718 0.867000
0.009049 0.048899 0.854000
0.031669 -0.034638 0.887000
0.014215 0.019357 0.869000
-0.021005 0.034656 0.876000
0.007471 -0.050736 0.875000
0.026259 -0.029916 0.877000
0.021467 -0.011814 0.873000
0.010376 -0.011146 0.877000
0.011604 0.049655 0.861000
-0.015958 0.025281 0.876000
0.007893 -0.027183 0.882000
0.006774 -0.016218 0.878000
-0.002974 0.017330 0.875000
0.007094 0.014056 0.873000
-0.006300 -0.030622 0.887000
0.007402 0.039652 0.867000
-0.007329 0.014515 0.879000
-0.018714 -0.027702 0.887000
-0.009543 -0.019218 0.883000
0.016188 -0.033964 0.879000
-0.005888 -0.054285 0.880000
-0.014122 0.034577 0.874000
0.014017 -0.029984 0.879000
-0.012115 -0.022904 0.885000
-0.026414 0.032132 0.876000
-0.011009 -0.021787 0.884000
-0.005129 0.023065 0.874000
0.003120 0.043934 0.867000
-0.020400 -0.001044 0.881000
0.032949 -0.016844 0.892000
0.017097 0.008995 0.870000
0.014556 0.021478 0.868000
-0.021464 0.010185 0.880000
-0.019268 0.018494 0.879000
0.018822 0.027876 0.867000
0.005709 -0.002132 0.881000
0.005996 0.024034 0.870000
0.010072 -0.043155 0.882000
0.030073 -0.034118 0.883000
0.013142 0.019714 0.869000
0.011354 0.023291 0.869000
0.006812 -0.042477 0.883000
0.015306 0.009711 0.870000
0.011644 0.046983 0.864000
-0.011386 -0.023633 0.885000
0.017354 0.034932 0.865000
0.022623 -0.026998 0.876000
-0.008424 0.010547 0.880000
0.005618 0.041436 0.867000
0.025449 0.001842 0.874000
-0.010633 -0.001774 0.883000
0.021181 -0.027719 0.876000
-0.019334 -0.005765 0.882000
-0.016467 -0.011235 0.884000
-0.018064 -0.039928 0.891000
0.004273 -0.031246 0.884000
0.026650 0.024616 0.878000
0.026229 0.011581 0.876000
-0.003326 0.023039 0.873000
0.032107 -0.030325 0.889000
0.010376 -0.015478 0.877000
-0.010188 0.027084 0.876000
0.013294 -0.029984 0.879000
0.011236 0.049597 0.860000
-0.019246 0.021725 0.878000
0.013233 -0.012201 0.875000
-0.011232 0.037052 0.873000
0.007840 0.005451 0.876000
0.001704 0.030225 0.873000
-0.020881 -0.027670 0.886000
-0.022314 -0.019990 0.885000
-0.006523 0.041841 0.868000
-0.002947 -0.052056 0.867000
-0.007752 -0.027306 0.886000
0.005000 -0.028700 0.884000
0.017175 -0.013626 0.874000
0.002092 -0.045852 0.885000
-0.017720 0.038174 0.874000
-0.005822 0.039431 0.870000
0.009335 -0.028240 0.881000
0.000270 -0.011573 0.882000
0.027073 0.041333 0.880000
-0.020470 -0.035249 0.884000
0.027373 -0.002848 0.878000
0.033721 -0.029727 0.893000
-0.002259 0.014482 0.877000
0.000632 -0.020262 0.881000
-0.006643 -0.025061 0.884000
0.019491 0.038493 0.865000
0.011085 -0.009691 0.876000
0.022262 -0.027719 0.876000
0.028191 0.011647 0.881000
0.025537 0.043719 0.877000
0.007062 0.026868 0.869000
-0.007379 -0.026547 0.885000
0.006696 0.034696 0.868000
0.000995 -0.020987 0.881000
0.005340 -0.010460 0.880000
-0.008280 0.043121 0.865000
0.007530 -0.034080 0.882000
0.023705 -0.028079 0.876000
0.024010 -0.012187 0.874000
-0.016504 -0.023659 0.886000
-0.018714 -0.029892 0.887000
0.026980 -0.008981 0.877000
0.004094 0.046756 0.847000
0.015324 0.006854 0.871000
-0.008786 0.010547 0.880000
0.032143 -0.017173 0.890000
0.018150 0.015780 0.869000
0.011766 0.002558 0.873000
-0.024583 0.036777 0.875000
-0.020881 -0.019283 0.886000
-0.015739 -0.013782 0.884000
0.016700 0.018977 0.868000
-0.025361 0.021340 0.877000
-0.012451 0.002951 0.883000
-0.018481 0.028526 0.876000
0.013158 0.012934 0.870000
0.019289 -0.004264 0.872000
-0.000807 0.038671 0.869000
0.001356 -0.018791 0.880000
0.002080 -0.017704 0.880000
0.011419 0.000403 0.874000
0.008952 -0.010086 0.879000
0.024482 -0.036816 0.878000
0.024370 -0.012547 0.874000
-0.028512 0.029181 0.874000
0.017792 0.015422 0.869000
-0.015812 0.040412 0.868000
-0.025693 0.013744 0.876000
-0.001531 -0.050678 0.874000
0.017854 -0.001393 0.872000
0.005279 -0.051520 0.870000
0.027435 0.025035 0.880000
0.000271 -0.046580 0.885000
-0.030122 0.030433 0.879000
0.028127 -0.025643 0.879000
0.022905 -0.006065 0.873000
0.014965 0.006496 0.871000
0.019245 0.008279 0.870000
0.000994 -0.019877 0.880000
0.005982 0.032910 0.868000
0.022084 0.024364 0.869000
-0.008481 -0.033505 0.886000
0.018317 -0.025946 0.877000
0.018593 -0.010377 0.873000
-0.018842 0.028526 0.876000
-0.005470 0.037684 0.871000
0.006719 0.019043 0.871000
0.027860 0.035982 0.882000
0.019870 0.032834 0.866000
0.023928 0.014024 0.871000
0.021345 0.023264 0.868000
-0.013873 0.010922 0.881000
0.005273 0.032233 0.869000
-0.023583 0.023532 0.878000
0.007184 -0.045072 0.884000
-0.006215 0.019851 0.875000
-0.007743 -0.025818 0.885000
0.008779 0.047584 0.862000
-0.022782 0.037857 0.875000
0.016512 -0.027028 0.877000
-0.022886 0.010535 0.879000
-0.009575 -0.046633 0.886000
-0.022912 -0.029294 0.880000
-0.008462 -0.012327 0.884000
0.003505 0.016231 0.874000
0.007530 -0.031902 0.882000
-0.005199 -0.037516 0.886000
-0.004769 0.018749 0.874000
-0.028120 0.032022 0.873000
0.021036 0.007921 0.870000
-0.018608 -0.000682 0.882000
-0.020763 -0.002132 0.881000
0.016022 0.010427 0.870000
-0.019969 0.024616 0.878000
0.022212 -0.012907 0.874000
-0.022627 -0.016674 0.883000
-0.011399 -0.032046 0.886000
0.021011 0.015065 0.869000
-0.015428 -0.036463 0.887000
0.006368 0.015476 0.872000
0.006719 0.019401 0.871000
0.019603 0.009353 0.870000
0.007902 -0.029394 0.883000
0.007777 0.028298 0.869000
0.007530 -0.031539 0.882000
-0.020739 0.015980 0.880000
-0.020598 0.038893 0.874000
0.010222 0.047338 0.864000
-0.011347 0.007304 0.882000
-0.020015 -0.007925 0.880000
0.013655 -0.032155 0.879000
0.008463 0.042814 0.866000
-0.014413 -0.046582 0.892000
0.012384 0.033904 0.866000
-0.011644 0.030364 0.877000
0.007078 0.020118 0.871000
-0.002599 0.035492 0.870000
0.013263 -0.020892 0.877000
0.003152 0.014465 0.876000
-0.018481 0.032492 0.876000
-0.013118 0.014876 0.879000
0.002445 -0.010109 0.881000
0.000268 0.014482 0.877000
0.025061 0.006511 0.873000
0.034534 -0.032372 0.895000
-0.017801 0.021003 0.878000
0.022905 -0.007143 0.873000
0.011380 0.012590 0.871000
0.011806 -0.007168 0.876000
-0.002970 0.018029 0.874000
0.012570 -0.031431 0.879000
0.006085 -0.041387 0.883000
0.026980 -0.018005 0.877000
0.014033 -0.037987 0.880000
0.032949 -0.011704 0.892000
-0.023222 -0.032841 0.878000
-0.011373 -0.005414 0.884000
-0.001887 0.024448 0.872000
-0.000449 0.043628 0.868000
0.006085 -0.027577 0.883000
0.019581 0.015780 0.869000
-0.007396 -0.040479 0.887000
0.009356 -0.042841 0.883000
0.001343 0.020500 0.872000
0.012470 0.006503 0.872000
-0.009403 0.040864 0.870000
0.026589 -0.004644 0.876000
-0.016067 0.008030 0.882000
0.007184 -0.045436 0.884000
0.003541 -0.034118 0.883000
-0.027011 -0.023644 0.872000
-0.004796 0.013429 0.879000
-0.002611 -0.050678 0.874000
-0.005929 -0.037881 0.886000
0.004921 0.027257 0.870000
0.010700 0.003281 0.874000
0.000270 -0.009758 0.882000
0.023291 -0.014705 0.874000
-0.020106 -0.014510 0.884000
0.005364 -0.042162 0.884000
0.008144 0.024034 0.870000
-0.021751 0.028198 0.877000
-0.008746 0.028887 0.876000
-0.006173 -0.051818 0.869000
-0.024026 -0.019174 0.881000
0.004616 -0.020964 0.880000
-0.011059 -0.039063 0.888000
0.023955 0.036651 0.872000
-0.019036 -0.014526 0.885000
-0.021900 -0.034482 0.883000
0.032509 -0.020836 0.890000
-0.026713 -0.021540 0.874000
0.026650 0.014498 0.878000
0.017874 -0.007502 0.873000
0.021702 0.033625 0.868000
0.011472 -0.024891 0.878000
-0.017039 0.027445 0.876000
0.006812 -0.027577 0.883000
-0.024334 -0.021663 0.879000
0.030539 -0.010167 0.886000
0.018909 -0.000674 0.871000
-0.005193 -0.036381 0.885000
-0.013192 -0.013055 0.884000
0.029810 0.019735 0.886000
-0.021029 0.029281 0.877000
0.014281 -0.001035 0.873000
-0.007735 -0.014146 0.884000
-0.022601 -0.015566 0.882000
0.007759 0.038582 0.867000
0.015306 0.010427 0.870000
-0.017841 0.009823 0.880000
0.030574 0.008075 0.887000
-0.011790 -0.040890 0.888000
0.022623 -0.028079 0.876000
-0.011386 -0.009063 0.885000
-0.013556 -0.007961 0.884000
-0.028056 -0.022542 0.871000
0.007411 0.033982 0.868000
-0.013526 0.009845 0.882000
-0.012814 0.003678 0.883000
0.003865 -0.050678 0.874000
-0.012479 -0.023633 0.885000
-0.003690 0.019108 0.874000
-0.008856 -0.037559 0.887000
0.012014 0.042765 0.865000
0.006774 -0.002848 0.878000
0.015592 0.033547 0.866000
0.007419 0.028656 0.869000
0.004263 -0.025730 0.882000
-0.010293 -0.008334 0.885000
0.017156 -0.006784 0.873000
0.021320 0.033229 0.867000
0.011752 0.008657 0.872000
-0.016337 0.020257 0.877000
-0.001544 -0.019537 0.881000
-0.004829 -0.026182 0.885000
0.003120 0.045362 0.867000
0.003152 0.013744 0.876000
-0.009918 -0.011963 0.884000
-0.000822 -0.030918 0.885000
0.020678 0.011143 0.870000
-0.008098 -0.023970 0.884000
0.003909 -0.046891 0.884000
-0.019079 -0.030257 0.887000
0.004210 0.029081 0.871000
-0.013967 -0.039384 0.887000
0.009187 0.036441 0.867000
0.021467 -0.009299 0.873000
-0.002235 0.044342 0.868000
0.007135 -0.016580 0.878000
0.010435 -0.048600 0.882000
0.006092 -0.044345 0.884000
-0.019036 -0.016712 0.885000
-0.018778 0.039567 0.873000
-0.009839 0.016647 0.877000
0.009889 0.038181 0.866000
0.033316 -0.020148 0.892000
-0.007396 -0.028432 0.887000
0.002064 0.029507 0.873000
0.014982 0.002555 0.872000
0.013309 -0.033640 0.880000
0.027435 0.017066 0.880000
-0.016698 0.021340 0.877000
0.004595 0.010860 0.876000
0.010626 0.026122 0.868000
-0.022525 0.021750 0.879000
0.024786 -0.021589 0.876000
-0.015080 0.041793 0.867000
-0.008866 -0.043814 0.888000
0.007419 0.029371 0.869000
0.021229 -0.036093 0.878000
0.022494 0.003269 0.871000
0.010435 -0.040251 0.882000
-0.005158 0.011620 0.879000
-0.028120 0.034178 0.873000
-0.002189 0.046571 0.850000
-0.006658 -0.036058 0.886000
-0.007296 0.031735 0.875000
0.021205 -0.034248 0.877000
-0.002646 -0.029129 0.886000
0.017018 0.029983 0.866000
-0.023328 -0.019559 0.882000
-0.016736 0.014876 0.879000
0.003533 -0.011197 0.881000
0.021108 -0.011096 0.873000
0.015985 0.017906 0.868000
-0.026323 -0.025827 0.873000
0.022313 -0.037178 0.878000
-0.024555 -0.033771 0.874000
0.012456 0.009005 0.871000
-0.006635 -0.019581 0.883000
0.029709 -0.017764 0.883000
-0.006293 -0.038610 0.886000
-0.019809 -0.028067 0.887000
0.019870 0.034260 0.866000
0.009346 -0.039888 0.882000
-0.026024 0.035336 0.875000
-0.012408 0.013082 0.880000
-0.023556 0.032890 0.877000
-0.001547 -0.011949 0.883000
0.018213 -0.004264 0.872000
-0.005176 -0.019196 0.882000
0.027011 -0.000679 0.878000
0.028917 -0.026064 0.881000
-0.001552 -0.028035 0.886000
-0.006635 -0.015947 0.883000
-0.026652 -0.026157 0.872000
0.022957 -0.023005 0.875000
-0.004840 -0.042670 0.887000
-0.009839 0.028920 0.877000
-0.008135 -0.042718 0.888000
-0.005868 0.016286 0.877000
-0.002953 0.041532 0.869000
0.022879 -0.001751 0.872000
0.027734 -0.015134 0.878000
0.006071 -0.025339 0.881000
-0.000091 0.048069 0.858000
0.018887 0.007921 0.870000
0.005715 -0.002861 0.882000
0.030505 -0.015619 0.885000
0.026680 0.035136 0.879000
0.000271 -0.028764 0.886000
-0.008453 -0.049019 0.883000
0.017195 -0.014362 0.875000
-0.002246 0.033062 0.872000
-0.003669 0.041532 0.869000
0.008125 0.032553 0.868000
-0.007761 -0.038654 0.887000
0.018909 0.002552 0.871000
-0.010270 -0.016674 0.883000
-0.004840 -0.030622 0.887000
-0.011710 0.005852 0.882000
-0.019057 -0.020742 0.886000
-0.027104 0.025973 0.875000
-0.010537 0.021291 0.875000
0.024730 -0.010389 0.874000
-0.025114 -0.018449 0.881000
-0.003741 -0.040434 0.886000
0.025595 0.032242 0.879000
-0.011425 -0.039063 0.888000
-0.008826 -0.022514 0.884000
0.028917 -0.028602 0.881000
-0.000093 0.015186 0.876000
-0.009128 0.015944 0.878000
-0.017499 0.007658 0.881000
0.016835 -0.015803 0.875000
-0.011373 -0.004322 0.884000
0.000269 0.011246 0.878000
-0.018587 0.006208 0.881000
0.012097 0.010798 0.871000
0.010026 -0.020555 0.878000
-0.006665 -0.031718 0.887000
-0.010669 -0.032046 0.886000
0.009654 -0.012951 0.877000
0.007462 -0.052117 0.874000
0.013263 -0.019448 0.877000
-0.020354 0.020303 0.879000
-0.014349 -0.036870 0.888000
-0.009554 -0.023242 0.884000
0.009522 0.045969 0.865000
-0.020400 0.007296 0.881000
0.017332 -0.038799 0.882000
-0.000821 -0.048347 0.884000
0.003185 -0.046580 0.885000
0.020963 0.031088 0.867000
-0.008016 0.032095 0.875000
0.012125 0.002558 0.873000
0.007777 0.029014 0.869000
0.010773 -0.030018 0.880000
0.025868 -0.014379 0.876000
0.026620 -0.016561 0.877000
-0.016355 0.018473 0.878000
-0.009232 -0.043083 0.888000
0.023705 -0.026277 0.876000
0.012726 0.039561 0.865000
0.003513 0.014105 0.876000
-0.017039 0.029969 0.876000
0.009643 0.001846 0.876000
0.016835 -0.013642 0.875000
0.005696 -0.014428 0.879000
-0.000821 -0.035249 0.884000
-0.002593 0.044342 0.868000
0.028522 -0.033278 0.880000
0.010602 0.035686 0.866000
0.007062 0.030087 0.869000
0.011341 0.027909 0.868000
0.030073 -0.033755 0.883000
0.027829 0.016361 0.881000
0.001728 -0.045852 0.885000
-0.008846 -0.027670 0.886000
-0.004840 -0.044860 0.887000
0.006774 -0.000679 0.878000
0.000633 -0.025760 0.883000
0.002412 0.035452 0.869000
0.031705 -0.017134 0.888000
-0.023195 0.004736 0.877000
0.014297 -0.004993 0.874000
0.022313 -0.036455 0.878000
-0.004404 0.023039 0.873000
-0.015046 -0.038975 0.886000
-0.002542 0.046626 0.851000
0.003541 -0.038480 0.883000
0.028191 0.000406 0.881000
0.025507 0.037540 0.876000
0.001347 -0.050678 0.874000
0.029776 0.005143 0.885000
0.022084 0.021503 0.869000
-0.013464 0.016666 0.878000
-0.021101 0.010185 0.880000
0.016661 0.031052 0.866000
0.005728 -0.043981 0.884000
0.016022 0.010785 0.870000
-0.006943 0.029608 0.876000
0.012902 -0.020170 0.877000
-0.013952 -0.028400 0.886000
-0.003345 0.013053 0.878000
0.008571 0.002209 0.877000
0.016738 0.007563 0.870000
-0.018907 0.015600 0.879000
0.013500 0.018284 0.869000
-0.013480 0.014876 0.879000
0.024730 -0.011468 0.874000
0.023184 0.016873 0.870000
-0.017923 -0.012691 0.884000
0.021541 -0.028079 0.876000
-0.010270 0.000407 0.883000
-0.022163 -0.003936 0.879000
-0.002644 -0.037474 0.885000
-0.012507 -0.035733 0.887000
0.008266 -0.042114 0.883000
-0.018950 0.009109 0.881000
0.022059 0.032910 0.868000
-0.009906 -0.017764 0.883000
0.015610 0.024665 0.867000
0.004268 -0.036299 0.883000
-0.008117 -0.033140 0.886000
-0.009359 0.041389 0.866000
0.023759 -0.038623 0.878000
0.004553 0.039341 0.868000
-0.025934 -0.030104 0.872000
-0.013920 -0.010871 0.884000
0.022800 0.030087 0.869000
0.013422 0.042715 0.864000
0.006412 -0.001763 0.878000
0.022623 -0.025555 0.876000
-0.003669 0.041174 0.869000
-0.024306 0.024978 0.878000
-0.004105 -0.042986 0.886000
-0.027527 0.018091 0.877000
0.018296 -0.024834 0.876000
0.026980 -0.012590 0.877000
-0.029098 -0.025739 0.870000
0.017234 -0.024863 0.877000
-0.009543 -0.019581 0.883000
0.014674 -0.014362 0.875000
0.016004 0.016138 0.869000
0.013142 0.021145 0.869000
-0.005828 0.036250 0.871000
0.027073 0.036625 0.880000
0.014232 0.010785 0.870000
0.001336 -0.053483 0.867000
0.032546 -0.014625 0.891000
0.019961 0.004698 0.870000
-0.005129 0.032418 0.874000
0.010958 0.039250 0.866000
0.025089 -0.004993 0.874000
0.000981 -0.051818 0.869000
0.001362 -0.026517 0.884000
0.005152 0.047914 0.849000
-0.007691 0.013068 0.879000
-0.010095 0.041127 0.868000
-0.021586 -0.018533 0.885000
-0.013904 0.003678 0.883000
-0.025663 0.035696 0.875000
-0.011964 0.034217 0.874000
-0.014332 -0.039019 0.887000
0.012726 0.038493 0.865000
0.006781 -0.020216 0.879000
-0.013967 -0.038654 0.887000
-0.020284 0.033574 0.876000
-0.013556 -0.002503 0.884000
0.007054 0.033267 0.868000
0.025838 0.009767 0.875000
0.021590 -0.035371 0.878000
0.011328 0.029661 0.867000
0.001363 -0.047673 0.885000
0.022084 0.025079 0.869000
0.022826 0.020095 0.870000
0.021852 -0.015785 0.874000
-0.026263 -0.032221 0.871000
-0.016448 -0.007588 0.883000
-0.009929 -0.026182 0.885000
0.007858 -0.016580 0.878000
0.018614 -0.013267 0.874000
0.027466 0.033040 0.881000
0.000633 -0.011573 0.882000
0.008219 -0.049826 0.878000
-0.021439 -0.002489 0.879000
-0.004753 0.036609 0.871000
0.023317 -0.020484 0.875000
-0.007262 -0.051221 0.871000
0.018974 -0.016504 0.874000
-0.004031 0.040506 0.870000
-0.000093 -0.049826 0.878000
0.029743 -0.013782 0.884000
-0.014927 0.013791 0.879000
-0.015579 0.032815 0.875000
0.002779 0.029114 0.872000
-0.000450 0.039744 0.869000
-0.007735 -0.009052 0.884000
0.026650 0.023532 0.878000
-0.000456 -0.013388 0.882000
0.020868 -0.035732 0.878000
-0.014859 0.032455 0.875000
-0.022188 0.016342 0.880000
-0.010922 0.030364 0.877000
-0.021244 0.039477 0.871000
0.010423 -0.038755 0.881000
-0.017440 0.020280 0.878000
0.029346 -0.011586 0.883000
-0.004379 -0.052116 0.868000
-0.019924 0.029969 0.876000
0.028255 0.030208 0.883000
0.021345 0.024336 0.868000
-0.001188 -0.042986 0.886000
0.002434 0.010872 0.877000
-0.018307 -0.015619 0.885000
-0.029332 0.026393 0.877000
0.009665 -0.004654 0.878000
-0.018864 0.024588 0.877000
-0.002272 -0.021374 0.882000
0.001702 0.027678 0.872000
-0.024251 0.034656 0.876000
-0.014515 0.022397 0.876000
0.013158 0.015798 0.870000
0.009720 -0.045021 0.883000
-0.014978 0.007667 0.882000
0.019201 0.018263 0.868000
0.004626 -0.048963 0.882000
0.031375 0.006630 0.889000
0.028191 0.000044 0.881000
0.028127 -0.027814 0.879000
0.000623 0.044699 0.868000
0.001336 0.045362 0.867000
-0.000452 0.027351 0.873000
-0.013192 -0.016329 0.884000
-0.005564 -0.027306 0.886000
-0.021125 0.006933 0.881000
-0.018692 -0.018189 0.886000
0.008144 0.023318 0.870000
0.017455 0.006846 0.870000
-0.001538 -0.049826 0.878000
-0.000456 -0.017361 0.881000
0.020319 0.005772 0.870000
-0.008746 0.018792 0.876000
0.003167 -0.019153 0.880000
0.030539 -0.002144 0.886000
-0.017078 0.016666 0.878000
-0.000819 -0.023915 0.882000
0.005696 -0.017322 0.879000
-0.005835 -0.050921 0.872000
0.013500 0.019357 0.869000
0.005702 -0.009736 0.880000
-0.005123 0.032740 0.873000
0.019961 0.007921 0.870000
0.027373 -0.030312 0.878000
0.028522 -0.018066 0.880000
-0.018121 0.027805 0.876000
0.000627 0.016950 0.874000
0.014248 0.007571 0.871000
0.025262 -0.039073 0.880000
0.028982 0.009129 0.883000
0.019783 -0.034648 0.878000
0.002423 0.030944 0.873000
0.024398 -0.019044 0.875000
-0.017821 0.014876 0.879000
-0.000093 -0.014477 0.882000
-0.010984 0.004763 0.882000
-0.016831 -0.038523 0.884000
-0.003694 0.028494 0.875000
-0.004040 0.034138 0.872000
0.004831 0.048548 0.854000
0.011110 -0.024530 0.878000
0.014166 0.032478 0.866000
0.023344 -0.028800 0.876000
0.016892 -0.032480 0.878000
0.019806 -0.038305 0.879000
-0.015739 -0.015965 0.884000
0.024398 -0.016523 0.875000
-0.021029 0.028198 0.877000
0.018614 -0.013626 0.874000
-0.028056 -0.032221 0.871000
-0.020331 0.023532 0.878000
-0.003686 0.023039 0.873000
0.025118 0.041819 0.875000
0.023371 -0.031360 0.877000
0.027766 -0.032879 0.879000
-0.024639 0.032529 0.877000
-0.015704 0.007304 0.882000
-0.000819 -0.009758 0.882000
0.015271 0.019335 0.868000
0.029313 -0.028635 0.882000
0.023569 0.010798 0.871000
-0.005570 -0.047051 0.887000
-0.017175 -0.006135 0.883000
0.006419 -0.022387 0.879000
0.023184 0.031912 0.870000
-0.012101 -0.004686 0.884000
-0.011047 -0.045225 0.887000
0.017116 0.004345 0.871000
0.024730 -0.005712 0.874000
0.013263 -0.022697 0.877000
-0.019630 0.015600 0.879000
0.008144 0.021886 0.870000
-0.015202 0.035296 0.874000
-0.018503 0.027115 0.877000
-0.003330 0.027022 0.874000
-0.014316 -0.025118 0.886000
0.023955 0.007939 0.872000
0.022852 0.011156 0.871000
0.023732 -0.030277 0.877000
0.005340 -0.024223 0.880000
0.014607 0.005062 0.871000
0.006354 0.024392 0.870000
0.027860 0.033441 0.882000
0.001695 0.043270 0.868000
0.014623 0.001479 0.872000
-0.008062 0.011996 0.880000
0.021036 0.011143 0.870000
-0.013192 -0.005414 0.884000
-0.016430 0.004763 0.882000
-0.023503 0.036777 0.875000
0.022571 -0.012547 0.874000
0.026711 0.031554 0.880000
0.010984 0.027909 0.868000
0.020436 -0.022645 0.875000
-0.005828 0.038401 0.871000
-0.012858 -0.029858 0.886000
0.019961 0.009711 0.870000
-0.012352 0.032132 0.876000
0.013547 0.006144 0.872000
-0.004725 0.044240 0.866000
0.023237 0.001479 0.872000
-0.006478 0.043681 0.862000
0.014314 -0.012561 0.875000
0.017535 -0.013986 0.874000
-0.019079 -0.029527 0.887000
0.017977 -0.033203 0.878000
0.015664 0.012576 0.870000
-0.019653 0.011996 0.880000
-0.010293 -0.046580 0.885000
-0.010270 -0.017037 0.883000
-0.026083 0.013038 0.877000
0.013842 0.025765 0.868000
-0.017902 -0.007225 0.883000
-0.009828 0.031771 0.876000
0.024314 0.022295 0.872000
0.021664 -0.039118 0.881000
0.024730 0.038893 0.874000
0.015736 -0.007151 0.874000
-0.007770 -0.044545 0.888000
0.024038 -0.021925 0.875000
-0.023583 0.003296 0.878000
-0.015358 0.002588 0.883000
0.009335 -0.034404 0.881000
0.028917 -0.028240 0.881000
-0.017882 -0.004676 0.882000
0.010773 -0.031829 0.880000
-0.001169 0.023013 0.872000
0.002057 0.033702 0.870000
-0.015358 -0.001774 0.883000
0.026650 -0.032480 0.878000
-0.014631 -0.004681 0.883000
-0.024667 -0.023807 0.878000
0.002814 -0.033755 0.883000
0.030175 0.002232 0.886000
0.007102 -0.051037 0.874000
-0.011644 0.028559 0.877000
0.001337 0.043628 0.868000
-0.024278 -0.027028 0.877000
0.025838 0.004365 0.875000
0.024065 -0.026277 0.876000
0.027734 -0.016580 0.878000
-0.022576 -0.014461 0.881000
0.020366 -0.003546 0.872000
0.002054 0.037955 0.869000
-0.017519 -0.002861 0.882000
-0.021900 -0.015947 0.883000
-0.001878 0.044699 0.868000
-0.014876 0.032132 0.876000
0.016170 -0.028866 0.878000
-0.022087 0.034295 0.876000
0.022852 0.004345 0.871000
-0.003004 -0.048347 0.884000
0.025089 0.018749 0.874000
-0.011047 -0.044495 0.887000
0.013067 0.044849 0.864000
-0.002957 0.037283 0.870000
-0.002644 -0.035289 0.885000
0.005696 -0.019854 0.879000
-0.001915 -0.037838 0.885000
0.016681 0.022524 0.867000
-0.015739 -0.012691 0.884000
-0.007031 -0.030257 0.887000
-0.007287 0.023425 0.874000
-0.007387 -0.036787 0.886000
0.014640 -0.001035 0.873000
0.021877 -0.019404 0.875000
0.000626 0.033062 0.872000
0.010785 -0.039480 0.881000
0.018444 0.032121 0.866000
0.011766 0.004714 0.873000
-0.013133 0.013082 0.880000
0.034534 -0.028688 0.895000
0.013953 -0.011481 0.875000
0.029810 0.017183 0.886000
-0.024361 -0.019153 0.880000
0.027860 0.037071 0.882000
-0.018971 -0.001772 0.882000
-0.019334 -0.008669 0.882000
0.017195 -0.016163 0.875000
-0.008453 -0.004318 0.883000
0.027042 0.024283 0.879000
0.023983 0.000402 0.873000
0.002453 -0.038887 0.884000
-0.005539 -0.016655 0.882000
-0.002947 -0.052413 0.867000
0.029743 -0.001412 0.884000
0.002817 -0.040706 0.884000
0.012356 0.046983 0.864000
0.011485 -0.027814 0.879000
0.021517 -0.021565 0.875000
-0.014349 -0.035774 0.888000
0.013082 0.041697 0.865000
-0.016542 -0.033215 0.888000
0.006804 -0.037347 0.882000
-0.009180 -0.004681 0.883000
-0.020331 0.022448 0.878000
-0.007717 -0.049689 0.882000
0.004273 -0.029063 0.884000
-0.011750 -0.023633 0.885000
0.030574 0.005155 0.887000
-0.006999 -0.021762 0.883000
-0.011737 -0.013782 0.884000
0.002779 0.020500 0.872000
0.018444 0.032478 0.866000
0.019223 0.010773 0.869000
-0.016888 -0.028067 0.887000
-0.016176 -0.031022 0.888000
0.000267 0.028069 0.873000
0.029015 0.017872 0.884000
-0.005176 -0.016655 0.882000
-0.021561 -0.016329 0.884000
0.018593 -0.010018 0.873000
0.013655 -0.029623 0.879000
0.010761 -0.024919 0.879000
-0.002646 -0.045904 0.886000
-0.013556 -0.001048 0.884000
-0.001887 0.025166 0.872000
0.016343 0.018977 0.868000
0.013142 0.020072 0.869000
-0.009918 -0.013782 0.884000
-0.018608 -0.003950 0.882000
0.000265 -0.052770 0.867000
0.003134 0.025496 0.871000
0.023010 -0.036052 0.877000
0.017813 0.009711 0.870000
0.002429 0.015889 0.875000
-0.013163 0.008393 0.882000
0.010663 0.015458 0.871000
0.010003 0.000764 0.876000
-0.010537 0.023092 0.875000
0.008942 -0.018025 0.878000
0.005689 0.003296 0.878000
0.005364 -0.027608 0.884000
0.028917 -0.021350 0.881000
0.007151 -0.010460 0.880000
-0.000810 0.033062 0.872000
0.027766 -0.036496 0.879000
-0.008726 0.033497 0.874000
-0.000811 0.027710 0.873000
0.027435 0.017791 0.880000
-0.001182 -0.022826 0.882000
0.002087 -0.035572 0.883000
0.008256 -0.031902 0.882000
0.026650 -0.034287 0.878000
0.030175 -0.038246 0.886000
0.007257 0.047971 0.850000
-0.024334 -0.022749 0.879000
0.016114 -0.015082 0.875000
-0.020037 0.006570 0.881000
-0.022860 0.005103 0.878000
-0.010633 -0.018128 0.883000
-0.010247 0.010559 0.881000
-0.003008 -0.037110 0.885000
0.005748 -0.005432 0.887000
0.026980 -0.011507 0.877000
0.003905 -0.035209 0.883000
-0.018587 0.005483 0.881000
0.032546 -0.010224 0.891000
0.023596 0.001479 0.872000
-0.014582 0.012358 0.880000
0.009555 0.029695 0.868000
-0.004105 -0.047362 0.886000
-0.003703 0.015564 0.877000
0.001343 0.023372 0.872000
0.005358 -0.041387 0.883000
-0.002590 -0.052056 0.867000
-0.004829 -0.036017 0.885000
-0.023010 0.039789 0.870000
-0.003741 -0.039704 0.886000
-0.021801 -0.006107 0.879000
0.013922 -0.003191 0.873000
-0.015958 0.029247 0.876000
0.016681 0.023951 0.867000
-0.012046 0.013082 0.880000
0.015017 -0.007511 0.874000
0.015359 -0.004987 0.873000
0.014657 -0.006072 0.874000
0.004563 0.028689 0.870000
-0.029298 0.026724 0.876000
-0.023169 0.036098 0.876000
0.008079 0.047284 0.863000
-0.008826 -0.006142 0.884000
-0.018821 0.034616 0.875000
0.028223 0.017105 0.882000
0.010364 -0.002120 0.876000
0.005735 -0.003963 0.885000
0.000626 0.025166 0.872000
0.018465 0.024308 0.867000
-0.005855 0.030294 0.875000
-0.014910 0.016666 0.878000
-0.023248 0.015238 0.879000
-0.011777 -0.044495 0.887000
0.027404 0.005108 0.879000
0.006696 0.031838 0.868000
0.000627 0.030260 0.874000
0.024701 0.024476 0.873000
0.019334 -0.016144 0.874000
-0.000450 -0.051818 0.869000
0.016041 0.006854 0.871000
0.017535 -0.010029 0.874000
0.024730 0.033138 0.874000
0.027829 0.018536 0.881000
0.000618 0.048591 0.861000
0.026229 0.013023 0.876000
-0.016430 0.003311 0.882000
0.006673 0.045969 0.865000
0.027734 -0.015495 0.878000
-0.004082 -0.049271 0.881000
0.010984 0.028623 0.868000
0.020122 -0.031721 0.877000
-0.020037 -0.004670 0.881000
-0.012128 -0.044445 0.886000
0.003142 -0.050979 0.873000
0.003838 0.037197 0.868000
-0.009107 0.028526 0.876000
0.028191 -0.000682 0.881000
0.007768 0.032553 0.868000
0.012741 0.032478 0.866000
-0.012366 0.027476 0.877000
0.003138 0.028396 0.872000
-0.015376 -0.039979 0.884000
0.014948 0.011859 0.870000
-0.030362 -0.027306 0.886000
-0.015254 0.019174 0.877000
-0.026293 0.037010 0.872000
0.016873 -0.028111 0.877000
0.022313 -0.037539 0.878000
-0.014532 0.019535 0.877000
0.008483 0.031124 0.868000
0.016324 0.025379 0.867000
0.011860 -0.035451 0.880000
0.011472 -0.020916 0.878000
0.003170 -0.024976 0.881000
-0.001181 -0.021713 0.881000
0.018486 0.018263 0.868000
-0.028414 -0.031504 0.871000
0.024758 0.042539 0.875000
0.010026 -0.006461 0.878000
0.000632 -0.049271 0.881000
0.009698 -0.030053 0.881000
0.011498 -0.032554 0.880000
-0.005094 0.042913 0.868000
0.007777 0.028656 0.869000
0.002798 -0.054523 0.878000
0.025478 0.021291 0.875000
0.019201 0.018620 0.868000
-0.013133 0.012720 0.880000
0.025927 -0.037539 0.878000
0.007539 -0.044658 0.883000
0.012125 0.004355 0.873000
0.021369 0.013992 0.869000
-0.018714 -0.028797 0.887000
0.018087 0.029270 0.866000
-0.007396 -0.045955 0.887000
-0.006967 0.013791 0.879000
0.027373 -0.007907 0.878000
0.000627 0.030620 0.874000
0.008266 -0.045385 0.883000
-0.019422 -0.020013 0.886000
0.011085 -0.006807 0.876000
-0.012005 0.028198 0.877000
0.026229 -0.019426 0.876000
0.011328 0.032515 0.867000
0.008921 0.004730 0.876000
-0.018183 0.015600 0.879000
0.031304 -0.028797 0.887000
0.025118 -0.012201 0.875000
0.013097 0.032478 0.866000
-0.001889 0.025554 0.873000
-0.028152 0.030260 0.874000
-0.009543 -0.014857 0.883000
-0.008098 0.010231 0.884000
0.016133 -0.020147 0.876000
0.024065 -0.026637 0.876000
-0.010177 0.020931 0.875000
0.013082 0.038493 0.865000
0.033316 -0.032263 0.892000
-0.028872 0.028102 0.874000
-0.013103 0.015221 0.878000
0.020701 0.003269 0.871000
0.024148 -0.039029 0.879000
0.020389 -0.009658 0.873000
0.006456 -0.030155 0.884000
-0.001182 -0.014477 0.882000
-0.025029 -0.020916 0.878000
0.015790 -0.024863 0.877000
-0.014532 0.028198 0.877000
-0.005545 -0.022852 0.883000
-0.000452 0.021242 0.873000
-0.007752 -0.031682 0.886000
0.007496 -0.014411 0.878000
-0.022525 0.017771 0.879000
0.020630 0.020764 0.868000
-0.012352 0.021676 0.876000
0.026650 -0.028143 0.878000
-0.000456 -0.014477 0.882000
-0.015410 -0.026577 0.886000
0.005683 0.008345 0.877000
0.011685 0.032872 0.867000
-0.014532 0.018091 0.877000
0.025118 0.035336 0.875000
0.009176 0.039250 0.866000
-0.002646 -0.042622 0.886000
0.009621 0.007238 0.874000
0.006812 -0.040660 0.883000
0.001343 0.026243 0.872000
0.005261 0.040723 0.867000
0.028982 0.005858 0.883000
-0.026958 0.013475 0.882000
0.028554 -0.003220 0.881000
0.019961 0.010069 0.870000
0.022852 0.005420 0.871000
-0.004424 0.015925 0.877000
0.008200 0.007254 0.876000
0.000626 0.018009 0.873000
0.014590 0.014366 0.870000
0.007902 -0.028304 0.883000
0.001363 -0.041117 0.885000
-0.026713 -0.021180 0.874000
0.007062 0.029014 0.869000
-0.000449 0.043985 0.868000
0.009303 -0.006823 0.878000
0.014556 0.023622 0.868000
-0.013556 -0.043981 0.884000
-0.010235 0.012720 0.880000
-0.023945 0.024978 0.878000
0.011725 0.018305 0.870000
0.017455 0.007921 0.870000
-0.005902 -0.016655 0.882000
-0.008826 -0.013418 0.884000
-0.016158 -0.028067 0.887000
-0.000456 -0.011210 0.882000
0.003829 0.045666 0.866000
0.020606 0.033943 0.867000
0.001718 -0.019877 0.880000
-0.019225 0.024588 0.877000
-0.016140 -0.025483 0.886000
-0.007735 -0.023970 0.884000
0.030073 -0.030484 0.883000
0.011085 -0.007168 0.876000
0.032107 -0.024471 0.889000
0.013516 0.014724 0.870000
-0.008706 0.037010 0.872000
0.025838 -0.008960 0.875000
-0.003690 0.018749 0.874000
-0.002947 -0.053127 0.867000
-0.010984 0.007667 0.882000
0.012799 0.015082 0.870000
0.007505 -0.005383 0.879000
0.015017 -0.008950 0.874000
0.003545 -0.043981 0.884000
-0.019697 -0.000682 0.882000
-0.000458 -0.029858 0.886000
0.008512 0.016892 0.871000
0.005637 0.027257 0.870000
-0.022499 -0.001041 0.878000
-0.008472 -0.026182 0.885000
0.019061 -0.033564 0.878000
-0.020015 0.014169 0.880000
0.002817 -0.039251 0.884000
0.018066 0.039917 0.865000
0.010798 -0.048600 0.882000
0.030974 -0.002149 0.888000
-0.023610 0.021750 0.879000
0.003533 -0.012648 0.881000
0.022468 0.017231 0.870000
0.020296 0.017568 0.869000
0.003874 0.011941 0.876000
0.006696 0.035054 0.868000
-0.013449 0.030364 0.877000
-0.015739 -0.015601 0.884000
-0.012829 -0.008688 0.884000
0.028159 -0.037987 0.880000
0.027011 0.006548 0.878000
0.029379 0.004046 0.884000
0.032546 -0.014258 0.891000
0.010933 0.045916 0.864000
-0.020981 0.037137 0.875000
-0.008462 -0.008325 0.884000
0.013969 -0.016902 0.876000
-0.005158 0.012706 0.879000
-0.011059 -0.038697 0.888000
-0.015650 0.013791 0.879000
0.028522 -0.032554 0.880000
-0.006888 0.041532 0.869000
-0.012479 -0.025090 0.885000
-0.016121 -0.017805 0.885000
0.015447 -0.026698 0.878000
-0.018928 0.009460 0.880000
-0.005564 -0.036422 0.886000
0.009923 0.024722 0.869000
0.019536 0.026092 0.867000
0.010724 -0.003562 0.876000
0.019558 0.017191 0.868000
-0.006643 -0.011599 0.884000
0.028917 -0.024976 0.881000
-0.012101 -0.012691 0.884000
-0.004054 0.029934 0.875000
-0.000094 -0.041845 0.885000
-0.028872 0.030979 0.874000
-0.011750 -0.025454 0.885000
0.006058 -0.022025 0.879000
-0.015358 -0.006861 0.883000
0.019984 -0.000315 0.871000
0.030141 -0.006149 0.885000
0.015000 -0.003909 0.873000
-0.018971 0.002222 0.882000
0.014001 -0.026698 0.878000
-0.006215 0.028494 0.875000
-0.012087 -0.014857 0.883000
-0.012727 0.031086 0.877000
-0.013587 -0.042986 0.886000
-0.013967 -0.040479 0.887000
-0.014268 0.003314 0.883000
0.031741 -0.013128 0.889000
0.011698 0.027551 0.868000
0.022059 0.033982 0.868000
-0.021390 0.030725 0.877000
0.025537 -0.032082 0.877000
0.001722 -0.011210 0.882000
0.011779 -0.000317 0.874000
0.020749 -0.008580 0.873000
-0.007304 0.016989 0.876000
0.015930 0.036357 0.865000
0.024314 0.005785 0.872000
0.026680 0.038030 0.879000
0.029279 -0.035129 0.881000
0.026650 0.013414 0.878000
-0.008816 -0.003591 0.883000
0.020319 0.004698 0.870000
-0.013920 -0.017784 0.884000
-0.028120 0.035615 0.873000
0.001728 -0.030553 0.885000
0.003124 -0.053188 0.868000
-0.013952 -0.041528 0.886000
0.023184 0.019737 0.870000
-0.011059 -0.038332 0.888000
0.011406 0.003636 0.873000
0.011047 0.007229 0.873000
0.009878 0.044545 0.865000
-0.018266 -0.006861 0.883000
-0.014893 0.020979 0.877000
0.008972 -0.035854 0.881000
0.002814 -0.037026 0.883000
-0.009918 -0.005778 0.884000
-0.023222 0.023894 0.878000
0.021877 -0.022645 0.875000
-0.014499 0.032815 0.875000
-0.018587 0.006570 0.881000
0.006758 0.011220 0.876000
0.011085 -0.005365 0.876000
0.017731 0.032478 0.866000
0.011644 0.045560 0.864000
-0.019787 -0.032411 0.886000
-0.018307 -0.016712 0.885000
0.011472 -0.021639 0.878000
-0.010270 -0.015220 0.883000
-0.005915 -0.013418 0.884000
0.002092 -0.044759 0.885000
-0.023583 0.028230 0.878000
0.025868 0.017349 0.876000
0.030471 -0.036340 0.884000
-0.017078 0.018835 0.878000
0.029776 0.008786 0.885000
0.000985 0.023013 0.872000
-0.017519 0.000044 0.882000
-0.001551 -0.040752 0.885000
0.021877 -0.024446 0.875000
-0.026652 -0.025798 0.872000
-0.015811 -0.032484 0.888000
-0.008386 0.031411 0.876000
-0.000819 -0.011210 0.882000
-0.029232 0.032418 0.874000
-0.027665 -0.030393 0.870000
-0.003728 -0.012313 0.883000
0.025868 0.014826 0.876000
0.008492 0.023649 0.869000
0.006704 0.027583 0.869000
0.018678 -0.026307 0.877000
-0.013857 0.013445 0.880000
0.005255 0.045666 0.866000
0.019961 0.006130 0.870000
0.010234 0.041341 0.865000
0.022468 0.015798 0.870000
-0.025722 0.023145 0.877000
0.032143 -0.013509 0.890000
0.022237 -0.019404 0.875000
0.010376 -0.010424 0.877000
0.016758 0.005779 0.871000
-0.005835 0.034138 0.872000
0.029346 -0.007952 0.883000
-0.000092 0.026243 0.872000
-0.016616 -0.042910 0.892000
0.017374 0.027844 0.866000
0.007488 0.001487 0.877000
0.015359 -0.003191 0.873000
-0.019586 0.027837 0.877000
0.017175 -0.010749 0.874000
0.007135 -0.017664 0.878000
-0.002632 -0.017361 0.881000
-0.016679 0.028526 0.876000
-0.018842 0.030690 0.876000
0.028522 -0.027121 0.880000
0.030904 -0.016366 0.886000
-0.024306 0.022448 0.878000
0.008228 -0.007192 0.879000
-0.012115 -0.024361 0.885000
-0.004835 -0.032776 0.886000
-0.013222 -0.029129 0.886000
-0.013983 -0.034312 0.888000
0.006065 -0.009011 0.880000
0.029015 0.022965 0.884000
-0.021439 -0.006830 0.879000
0.006051 0.002212 0.878000
-0.013587 -0.025118 0.886000
0.010946 0.043833 0.865000
0.000635 -0.046580 0.885000
-0.009918 -0.022150 0.884000
-0.027464 0.029574 0.875000
-0.024639 0.014482 0.877000
-0.025390 0.023532 0.878000
0.008571 0.001848 0.877000
0.027404 0.004385 0.879000
-0.020470 -0.035976 0.884000
-0.008826 -0.009780 0.884000
-0.010282 -0.004686 0.884000
-0.015775 -0.025483 0.886000
0.001303 0.046004 0.846000
-0.021245 -0.022565 0.886000
0.025478 0.014449 0.875000
0.001359 -0.013751 0.882000
-0.022886 0.018494 0.879000
0.012873 -0.009680 0.875000
-0.015958 0.031771 0.876000
0.005728 -0.029063 0.884000
0.004253 -0.014082 0.880000
-0.018971 -0.005039 0.882000
-0.004835 -0.039704 0.886000
0.001303 0.045308 0.846000
-0.025332 0.014826 0.876000
0.002412 0.035809 0.869000
0.010060 -0.036942 0.881000
0.021566 -0.032082 0.877000
-0.010328 -0.042352 0.888000
-0.012872 -0.042305 0.887000
0.017374 0.032121 0.866000
-0.007271 -0.053074 0.872000
0.019245 0.004698 0.870000
0.001359 -0.025367 0.882000
0.016170 -0.030312 0.878000
-0.008736 0.025253 0.875000
0.025449 -0.000317 0.874000
-0.014631 0.004768 0.883000
0.023317 -0.018324 0.875000
0.020844 -0.030638 0.877000
0.028917 -0.027877 0.881000
-0.019586 0.028559 0.877000
-0.011335 0.008746 0.881000
0.001704 0.031662 0.873000
0.012527 -0.015460 0.876000
0.030379 -0.025288 0.892000
-0.012005 0.027476 0.877000
0.025061 0.009026 0.873000
-0.017195 -0.038887 0.884000
0.002085 -0.011573 0.882000
0.010447 -0.046838 0.883000
0.023955 0.004709 0.872000
-0.015526 0.039881 0.872000
-0.022550 -0.031105 0.880000
-0.011737 -0.011235 0.884000
0.026229 0.012662 0.876000
0.019671 -0.008221 0.873000
0.018317 -0.029916 0.877000
-0.005193 -0.048037 0.885000
0.016456 -0.011108 0.874000
-0.001523 0.041532 0.869000
0.027404 0.007279 0.879000
-0.016679 0.027445 0.876000
0.028191 0.005483 0.881000
0.002090 -0.031246 0.884000
0.022002 -0.039073 0.880000
-0.004017 -0.053127 0.867000
0.007530 -0.032265 0.882000
-0.010573 0.015582 0.878000
0.010083 -0.043931 0.883000
-0.025722 0.031808 0.877000
-0.004091 -0.014130 0.883000
-0.009906 -0.018855 0.883000
-0.013192 -0.045800 0.884000
0.004961 0.006901 0.877000
0.028159 -0.011909 0.880000
-0.026949 -0.031468 0.870000
-0.022808 0.036458 0.876000
-0.006279 -0.010508 0.884000
0.020506 -0.034287 0.878000
0.019017 -0.023392 0.876000
-0.003361 -0.015566 0.882000
0.026589 -0.012936 0.876000
-0.010305 -0.033505 0.886000
0.012917 -0.024891 0.878000
-0.023610 0.017771 0.879000
-0.018864 0.023506 0.877000
0.022416 0.038269 0.868000
0.025507 0.035016 0.876000
0.009935 0.020811 0.870000
0.004563 0.024392 0.870000
-0.013088 0.027837 0.877000
0.002811 -0.025367 0.882000
0.018150 0.015422 0.869000
0.025838 0.002564 0.875000
0.021902 -0.029521 0.876000
-0.019519 0.038533 0.874000
-0.001545 -0.023915 0.882000
0.013142 0.018999 0.869000
0.015700 -0.000316 0.872000
0.023623 -0.007862 0.873000
0.016456 -0.009669 0.874000
0.010340 0.004360 0.874000
0.012902 -0.021975 0.877000
0.028982 -0.000683 0.883000
-0.007396 -0.045590 0.887000
0.008871 0.014741 0.871000
0.001339 0.038313 0.869000
0.011445 -0.006086 0.876000
-0.020739 -0.004665 0.880000
0.010245 0.038537 0.866000
0.005715 -0.035532 0.882000
0.024342 0.028788 0.873000
-0.013618 -0.036870 0.888000
0.025898 -0.028472 0.877000
0.026229 0.007615 0.876000
-0.027464 0.024532 0.875000
0.018317 -0.027750 0.877000
-0.020763 0.003307 0.881000
0.003834 0.041793 0.867000
0.023291 -0.013626 0.874000
-0.020037 0.009109 0.881000
-0.022886 0.020665 0.879000
0.003847 0.032270 0.870000
0.030974 0.006623 0.888000
-0.009586 -0.039749 0.887000
-0.013587 -0.028764 0.886000
-0.011578 0.038086 0.872000
0.009698 -0.035854 0.881000
0.017116 0.003986 0.871000
0.029412 0.017892 0.885000
0.010614 0.032159 0.867000
0.025537 -0.031721 0.877000
-0.013920 -0.043981 0.884000
-0.008846 -0.034599 0.886000
0.021156 -0.021565 0.875000
-0.008025 0.016989 0.876000
0.016892 -0.031757 0.878000
-0.001902 -0.049520 0.879000
0.026288 -0.038262 0.878000
0.012499 -0.004633 0.874000
0.015934 -0.038931 0.885000
0.011173 -0.048292 0.883000
0.013233 -0.010401 0.875000
0.025478 0.020211 0.875000
-0.001906 -0.019537 0.881000
-0.013222 -0.027306 0.886000
-0.025274 -0.029094 0.874000
0.018317 -0.027028 0.877000
0.028982 0.001134 0.883000
0.000999 -0.041845 0.885000
-0.003008 -0.039660 0.885000
-0.015236 0.027084 0.876000
0.002782 0.018009 0.873000
0.002821 -0.030553 0.885000
0.001724 -0.025760 0.883000
0.010269 0.027909 0.868000
0.005989 0.031517 0.869000
-0.019079 -0.029162 0.887000
-0.003008 -0.036746 0.885000
-0.006943 0.028526 0.876000
0.006398 0.011220 0.876000
0.020273 0.021478 0.868000
0.008097 0.045969 0.865000
0.004989 -0.025730 0.882000
0.025118 -0.011841 0.875000
-0.006265 -0.019196 0.882000
-0.021415 0.023532 0.878000
-0.008089 -0.015584 0.883000
-0.011604 0.033857 0.874000
-0.014631 -0.002500 0.883000
-0.011373 -0.018512 0.884000
-0.013222 -0.026941 0.886000
-0.009221 -0.037194 0.887000
-0.001185 -0.026517 0.884000
0.021205 -0.032804 0.877000
-0.016281 0.036375 0.874000
0.022442 0.025079 0.869000
-0.005875 0.014498 0.878000
-0.022964 -0.023189 0.882000
-0.021950 -0.019990 0.885000
-0.022886 0.017047 0.879000
-0.005539 -0.017381 0.882000
0.012858 -0.003914 0.874000
-0.016869 -0.020377 0.886000
0.004224 0.015152 0.874000
-0.014300 -0.018533 0.885000
0.026620 -0.023419 0.877000
0.014166 0.034616 0.866000
-0.006208 0.021986 0.874000
-0.021826 0.011634 0.880000
-0.012451 0.004041 0.883000
-0.010258 0.006215 0.882000
0.030608 0.015029 0.888000
-0.009180 -0.015584 0.883000
0.020606 0.033586 0.867000
-0.013192 -0.005050 0.884000
-0.022550 0.011634 0.880000
0.021590 -0.036816 0.878000
-0.005135 0.017330 0.875000
0.028586 0.007304 0.882000
0.030904 -0.016001 0.886000
-0.008424 0.010909 0.880000
0.001730 0.010619 0.886000
0.023928 0.026930 0.871000
-0.005193 -0.026547 0.885000
-0.012829 -0.002867 0.884000
0.019870 0.034616 0.866000
0.012069 0.020430 0.869000
-0.004455 -0.013403 0.883000
-0.006583 0.029608 0.876000
-0.022289 -0.018148 0.884000
0.027404 0.002938 0.879000
0.007804 0.013681 0.872000
0.026711 0.026121 0.880000
0.025478 -0.008960 0.875000
-0.020493 -0.017805 0.885000
-0.014631 -0.001410 0.883000
-0.023275 -0.025672 0.880000
0.033316 -0.024921 0.892000
0.002061 0.022295 0.872000
0.022852 0.009005 0.871000
-0.005848 0.020188 0.874000
-0.011386 -0.007606 0.885000
-0.016698 0.024949 0.877000
0.003441 0.045950 0.858000
-0.001878 0.043985 0.868000
0.027797 0.006201 0.880000
0.007111 0.010847 0.875000
0.027073 0.040247 0.880000
-0.001188 -0.046998 0.886000
-0.022112 0.029642 0.877000
0.012028 0.034260 0.866000
0.019581 0.010415 0.869000
-0.018460 0.036777 0.875000
0.008219 -0.002125 0.878000
-0.001166 0.034776 0.870000
-0.019400 -0.037838 0.885000
0.029776 0.003322 0.885000
0.021156 -0.024086 0.875000
