0.003869 0.010487 0.875000
0.037853 -0.024891 0.878000
0.028980 -0.028310 0.872000
0.011986 0.032010 0.863000
0.025089 -0.029814 0.874000
0.028489 0.016685 0.879000
-0.018286 -0.029427 0.884000
0.008532 -0.050620 0.873000
-0.017499 0.016361 0.881000
-0.024752 0.027601 0.881000
-0.015358 0.012037 0.883000
0.001004 -0.033984 0.889000
-0.022473 0.035056 0.877000
-0.016448 0.012037 0.883000
-0.020128 0.009514 0.885000
-0.015429 0.043618 0.847000
-0.021801 -0.037220 0.879000
0.018508 0.025795 0.869000
-0.033129 0.020735 0.882000
0.005715 -0.049326 0.882000
0.021320 0.000043 0.867000
-0.027684 0.030537 0.882000
0.014556 0.002901 0.868000
0.003565 -0.039839 0.889000
0.007831 0.003284 0.875000
0.009324 -0.022412 0.880000
-0.017862 -0.039118 0.881000
0.002470 -0.040250 0.890000
-0.016067 0.012749 0.882000
0.012427 0.004335 0.869000
0.008219 -0.004293 0.878000
0.010810 -0.034118 0.883000
-0.011386 0.005872 0.885000
0.005947 0.030234 0.863000
0.013485 0.045771 0.868000
-0.009200 0.001501 0.885000
0.008962 -0.021326 0.880000
0.024946 -0.004249 0.869000
0.006735 0.008667 0.873000
-0.005482 0.028429 0.873000
-0.012142 0.001504 0.887000
0.004921 -0.052236 0.870000
0.004978 0.001854 0.880000
0.006106 -0.035328 0.886000
0.030451 -0.010736 0.873000
-0.010718 -0.019370 0.890000
-0.022188 0.027570 0.880000
0.008942 -0.015495 0.878000
0.019938 -0.009256 0.869000
0.000623 0.024336 0.868000
0.038345 -0.016274 0.881000
0.013562 -0.007502 0.873000
0.033685 -0.026546 0.873000
-0.018611 0.042673 0.849000
0.031673 -0.002844 0.877000
0.019851 -0.038392 0.881000
-0.031021 0.025148 0.884000
-0.016523 -0.001782 0.887000
-0.030157 0.033003 0.880000
0.022212 0.027022 0.874000
-0.022991 0.018578 0.883000
-0.017914 0.041389 0.866000
0.008424 0.042617 0.862000
-0.015903 0.035615 0.873000
0.001698 0.018305 0.870000
-0.007054 -0.026696 0.890000
0.012097 -0.001749 0.871000
-0.018566 0.022862 0.880000
0.036573 -0.005765 0.882000
0.002830 -0.034677 0.888000
0.001336 0.026092 0.867000
0.007351 0.041504 0.861000
-0.023069 0.003690 0.886000
-0.012969 0.042247 0.869000
0.015306 -0.002822 0.870000
0.014314 -0.015443 0.875000
0.022774 0.000400 0.868000
0.006789 -0.013358 0.880000
-0.017618 -0.017115 0.887000
0.002814 -0.011949 0.883000
-0.027856 0.036819 0.876000
0.004626 -0.007943 0.882000
0.023542 -0.016070 0.870000
-0.019575 -0.011717 0.893000
-0.013763 0.032058 0.874000
0.024617 -0.016787 0.870000
-0.010328 -0.013479 0.888000
0.033631 0.002582 0.881000
0.011341 0.008260 0.868000
-0.006329 -0.030027 0.891000
-0.009211 0.003326 0.886000
-0.000449 0.030731 0.867000
0.028588 -0.022542 0.871000
-0.012887 -0.007631 0.888000
0.021345 -0.002815 0.868000
0.015034 -0.016523 0.875000
0.005389 -0.047469 0.888000
0.015324 -0.006410 0.871000
0.004658 -0.039063 0.888000
-0.001157 0.041245 0.863000
0.004989 -0.012299 0.882000
-0.015306 0.017066 0.880000
0.019938 0.020430 0.869000
-0.005570 -0.016019 0.887000
0.031493 -0.032617 0.872000
0.021927 -0.032443 0.877000
-0.012019 0.017389 0.878000
-0.009242 -0.020080 0.889000
0.014914 0.038269 0.868000
-0.016736 0.021388 0.879000
-0.015480 -0.019004 0.890000
-0.011750 0.005872 0.885000
-0.015097 -0.017519 0.889000
-0.008846 0.002232 0.886000
-0.000803 0.037381 0.864000
-0.005211 -0.022251 0.888000
0.032432 -0.001763 0.878000
-0.016560 -0.024471 0.889000
-0.014383 0.043618 0.847000
0.028884 0.018153 0.880000
0.040613 -0.020308 0.883000
0.017415 -0.001386 0.868000
0.019378 -0.026637 0.876000
0.037748 -0.005778 0.884000
0.041339 -0.021762 0.883000
-0.015131 -0.021592 0.891000
-0.011335 0.013460 0.881000
-0.017193 0.042971 0.848000
-0.032766 0.029085 0.882000
0.012456 -0.001032 0.871000
0.026229 0.015907 0.876000
-0.000094 -0.026637 0.888000
-0.000808 0.022244 0.870000
0.034434 0.004405 0.883000
-0.004022 0.032910 0.868000
-0.025621 0.013536 0.886000
0.042526 -0.021083 0.885000
0.003098 0.041858 0.861000
-0.023010 0.038357 0.870000
0.007062 0.012561 0.869000
-0.011022 0.005872 0.885000
0.008932 -0.003927 0.877000
0.020249 0.006823 0.867000
0.020963 0.001470 0.867000
-0.020400 0.027239 0.881000
-0.016176 -0.009093 0.888000
0.032719 -0.010052 0.876000
0.004893 0.027100 0.865000
0.031852 -0.020055 0.872000
0.018129 0.026480 0.868000
-0.017340 0.037411 0.873000
-0.006322 -0.041715 0.890000
0.005383 -0.036463 0.887000
0.002052 0.022907 0.868000
0.022468 0.014724 0.870000
0.025362 0.004703 0.871000
-0.023852 -0.001784 0.888000
0.028262 -0.027951 0.872000
0.015068 -0.023419 0.877000
0.024645 -0.021466 0.871000
0.027042 0.022474 0.879000
0.036283 -0.026247 0.875000
-0.010351 -0.019370 0.890000
0.028198 -0.016070 0.870000
0.019267 -0.012504 0.871000
0.015700 -0.011083 0.872000
-0.015668 0.027932 0.880000
-0.004475 -0.007258 0.887000
-0.018245 0.014927 0.882000
0.009303 -0.014773 0.878000
0.011537 -0.031211 0.883000
-0.016504 0.006608 0.886000
0.011110 -0.020916 0.878000
-0.004040 0.020859 0.872000
0.034395 0.001859 0.882000
0.005579 0.037606 0.861000
0.013422 0.021023 0.864000
0.022468 0.012576 0.870000
-0.017638 -0.024809 0.888000
0.038795 -0.013767 0.883000
-0.020739 0.028657 0.880000
0.011986 0.033786 0.863000
-0.017234 0.003690 0.886000
0.032180 0.009109 0.881000
0.005395 -0.041668 0.889000
0.029664 -0.019315 0.871000
0.028947 -0.012863 0.871000
0.007706 0.038669 0.861000
-0.009273 -0.034466 0.892000
0.001362 -0.014510 0.884000
0.002811 -0.018470 0.882000
0.018763 -0.039480 0.881000
-0.028111 0.023693 0.884000
0.034044 -0.026905 0.873000
-0.013103 0.028591 0.878000
0.019892 0.004325 0.867000
0.013142 0.003262 0.869000
-0.005082 0.040676 0.866000
0.006797 -0.022075 0.881000
0.013858 0.002904 0.869000
0.015949 0.008241 0.866000
0.016243 -0.046422 0.882000
0.002789 0.012288 0.875000
-0.032804 0.022576 0.883000
-0.005094 0.035411 0.868000
0.010210 0.029524 0.863000
-0.028708 0.033727 0.880000
-0.016085 -0.038116 0.883000
0.024286 -0.021825 0.871000
0.011276 0.029524 0.863000
0.014134 0.019601 0.864000
0.008434 0.044442 0.863000
0.017394 0.025379 0.867000
0.007192 -0.048401 0.885000
-0.005117 0.025884 0.872000
-0.025506 0.026181 0.882000
-0.022938 0.024338 0.881000
0.016133 -0.022311 0.876000
0.013778 0.020668 0.864000
0.023371 0.033612 0.877000
0.009229 0.005062 0.871000
-0.017618 -0.006528 0.887000
0.032210 -0.029746 0.872000
0.017273 -0.032155 0.879000
0.013937 -0.013267 0.874000
0.040158 -0.023526 0.881000
-0.006343 -0.034137 0.893000
-0.024527 0.008796 0.886000
0.002090 -0.013055 0.884000
0.001004 -0.035448 0.889000
-0.014698 0.005155 0.887000
0.033993 0.001857 0.881000
-0.010247 0.013097 0.881000
0.017273 -0.033240 0.879000
0.012741 0.013231 0.866000
0.014166 0.010023 0.866000
0.008952 -0.011895 0.879000
0.002390 0.041150 0.861000
-0.018292 0.039652 0.867000
0.002451 -0.013767 0.883000
0.018058 -0.044970 0.882000
0.003124 0.020049 0.868000
-0.028142 0.018256 0.885000
-0.002590 0.032515 0.867000
-0.005520 0.013791 0.879000
-0.014764 -0.024526 0.891000
0.034278 -0.007554 0.879000
0.000272 -0.029960 0.889000
0.010553 -0.054658 0.892000
0.020296 0.020787 0.869000
0.016661 0.006815 0.866000
0.026407 -0.015354 0.870000
0.016912 -0.029623 0.879000
0.029664 -0.023617 0.871000
-0.021537 0.016034 0.883000
-0.030986 0.014581 0.883000
-0.012887 -0.009093 0.888000
0.018421 -0.042066 0.882000
0.018844 -0.002815 0.868000
0.006346 0.012919 0.869000
0.018338 -0.030673 0.878000
0.016835 -0.047855 0.875000
-0.005526 0.011634 0.880000
0.000268 0.012662 0.876000
0.018785 -0.043155 0.882000
0.015464 -0.047350 0.879000
0.020319 0.024034 0.870000
0.005395 -0.042034 0.889000
0.041656 -0.027546 0.882000
-0.001516 0.038137 0.865000
0.010920 0.031655 0.863000
0.029834 0.001485 0.876000
-0.005570 -0.005067 0.887000
-0.013983 -0.008362 0.888000
0.011941 -0.045539 0.886000
-0.013826 0.024255 0.878000
0.006642 0.037960 0.861000
0.008952 -0.009363 0.879000
0.020963 0.001827 0.867000
0.024701 -0.025468 0.873000
0.022957 0.029214 0.875000
0.005709 -0.009384 0.881000
-0.000094 -0.026241 0.887000
-0.019036 -0.026911 0.885000
-0.004008 0.041341 0.865000
-0.012669 0.033100 0.873000
0.038388 -0.014840 0.882000
-0.003741 -0.008708 0.886000
-0.003753 -0.043132 0.889000
0.000639 -0.045378 0.890000
-0.004500 -0.038872 0.892000
0.026827 0.002914 0.872000
0.040659 -0.016329 0.884000
0.012042 0.009678 0.867000
0.008649 -0.030553 0.885000
-0.023932 -0.002156 0.891000
0.020273 0.017191 0.868000
-0.032220 0.033251 0.877000
0.002395 0.036628 0.863000
0.015218 0.023896 0.865000
-0.015445 -0.015672 0.888000
-0.003757 -0.040982 0.890000
0.018087 0.016439 0.866000
-0.011830 -0.021959 0.891000
-0.016169 0.043270 0.868000
0.033685 -0.022593 0.873000
0.028947 -0.009995 0.871000
0.001330 0.038048 0.863000
0.037130 -0.022361 0.878000
0.017731 0.020003 0.866000
-0.027290 0.030502 0.881000
-0.011109 -0.027124 0.892000
0.015288 0.000401 0.869000
0.024231 -0.000315 0.869000
0.018444 0.011449 0.866000
0.010376 -0.013673 0.877000
-0.024500 0.015342 0.885000
0.017635 -0.033964 0.879000
-0.021586 -0.001778 0.885000
0.028198 -0.013206 0.870000
0.014134 0.022090 0.864000
-0.003345 0.013053 0.878000
0.006997 0.039023 0.861000
0.026281 -0.034755 0.890000
-0.002614 0.015889 0.875000
0.041022 -0.019604 0.884000
0.010364 -0.002841 0.876000
0.006743 0.007597 0.874000
-0.015341 0.012386 0.882000
-0.011009 0.008048 0.884000
-0.018004 -0.022616 0.888000
-0.030881 0.032641 0.880000
-0.004851 -0.025935 0.889000
-0.017618 -0.016750 0.887000
0.003199 -0.038741 0.889000
0.016758 -0.008919 0.871000
0.030022 -0.021108 0.871000
-0.004003 0.042360 0.864000
0.014982 -0.009647 0.872000
-0.016012 0.023921 0.879000
-0.011270 0.023839 0.876000
0.021181 0.037540 0.876000
-0.013103 0.018473 0.878000
0.025362 -0.022183 0.871000
0.026169 0.011914 0.874000
0.030160 -0.001397 0.875000
0.023873 -0.012118 0.869000
0.019536 0.015744 0.867000
0.011472 -0.019832 0.878000
0.017895 -0.017943 0.874000
-0.013237 -0.036098 0.887000
-0.028740 0.032315 0.881000
-0.013967 -0.035368 0.887000
0.011186 -0.038159 0.884000
0.018974 0.040692 0.874000
0.027839 -0.010699 0.870000
0.001368 -0.048566 0.888000
-0.017253 -0.009448 0.887000
0.010015 -0.015839 0.877000
-0.004485 -0.025569 0.889000
0.028914 -0.016429 0.870000
-0.014582 0.014893 0.880000
0.013624 -0.019809 0.877000
-0.017862 -0.037305 0.881000
0.013810 0.036399 0.866000
0.021345 -0.003172 0.868000
0.003882 -0.050548 0.878000
-0.010107 0.040101 0.869000
0.035444 -0.005396 0.881000
0.029664 -0.018598 0.871000
0.008850 0.010773 0.869000
0.034395 0.003311 0.882000
0.035162 -0.025497 0.874000
0.003565 -0.030325 0.889000
0.025537 0.024949 0.877000
0.023678 0.023452 0.875000
0.014330 -0.018345 0.876000
-0.032581 0.033612 0.877000
0.009511 0.023513 0.864000
-0.001559 -0.034755 0.890000
-0.009906 0.009856 0.883000
-0.001516 0.037425 0.865000
0.008424 0.041907 0.862000
0.003816 0.033786 0.863000
0.003565 -0.039473 0.889000
0.032793 -0.002486 0.878000
0.013810 0.036042 0.866000
0.013969 -0.017623 0.876000
0.007143 -0.003936 0.879000
0.028457 0.015221 0.878000
0.028785 0.008706 0.877000
0.043619 -0.026182 0.885000
0.022084 -0.011760 0.869000
-0.010798 0.044648 0.867000
0.007590 -0.045327 0.889000
0.008060 0.039732 0.861000
-0.033492 0.022914 0.882000
0.014065 -0.026094 0.882000
-0.006165 0.036483 0.868000
0.008125 -0.052116 0.868000
0.020076 0.032455 0.875000
0.005389 -0.030657 0.888000
0.014573 0.042963 0.869000
0.008069 0.034457 0.862000
0.025779 0.009026 0.873000
-0.002960 0.023345 0.871000
0.014412 -0.029690 0.881000
0.036241 -0.029094 0.874000
0.020844 -0.033526 0.877000
-0.020083 0.014217 0.883000
0.009555 -0.052116 0.868000
-0.009359 0.044953 0.866000
0.017156 0.044598 0.873000
-0.000091 0.041245 0.863000
0.027608 0.005079 0.874000
0.016437 0.047831 0.873000
0.018865 -0.006753 0.869000
0.029146 0.007623 0.877000
0.006071 -0.010472 0.881000
-0.017963 -0.013084 0.886000
-0.005451 0.034696 0.868000
0.013810 0.035686 0.866000
0.003565 -0.028130 0.889000
-0.019444 0.001869 0.887000
0.013842 0.004330 0.868000
0.016835 -0.019404 0.875000
-0.012210 -0.024921 0.892000
0.024588 -0.001745 0.869000
-0.011450 -0.035122 0.890000
-0.004124 -0.028894 0.890000
-0.020763 0.041380 0.881000
-0.012712 0.030329 0.876000
0.027999 0.006526 0.875000
-0.020037 -0.032228 0.881000
0.042162 -0.020719 0.885000
-0.022991 0.019669 0.883000
0.014489 0.023157 0.864000
-0.014090 0.035574 0.872000
-0.011843 -0.023085 0.892000
-0.017234 -0.015272 0.886000
-0.006703 -0.036669 0.892000
0.019783 -0.033203 0.878000
0.035847 -0.003224 0.882000
-0.030623 0.016034 0.883000
0.034122 -0.019044 0.875000
0.024758 0.019851 0.875000
0.020436 -0.025166 0.875000
0.005961 0.026032 0.865000
-0.016926 -0.020080 0.889000
-0.019143 -0.021568 0.890000
-0.012101 0.009140 0.884000
0.012069 -0.050745 0.869000
-0.033492 0.027270 0.882000
0.030022 -0.023976 0.871000
-0.030294 0.028059 0.884000
0.004553 0.019692 0.868000
0.021877 -0.027327 0.875000
-0.004124 -0.029627 0.890000
-0.015828 -0.027398 0.889000
0.011085 -0.010052 0.876000
0.008942 -0.017302 0.878000
-0.021925 -0.002503 0.884000
0.034679 -0.005389 0.880000
0.026019 -0.006037 0.869000
0.028947 -0.024334 0.871000
-0.004419 0.015907 0.876000
0.003473 0.025706 0.866000
0.015844 -0.031467 0.880000
0.007394 0.018934 0.866000
-0.003296 0.040273 0.865000
0.025720 -0.021108 0.871000
-0.013731 0.035215 0.872000
-0.002655 -0.044230 0.889000
0.006835 -0.036058 0.886000
-0.021801 -0.036858 0.879000
0.019671 0.036333 0.873000
0.012153 -0.011841 0.875000
0.012292 -0.042209 0.885000
-0.032804 0.025847 0.883000
0.025566 0.027146 0.878000
0.020145 -0.048019 0.878000
-0.024892 0.012442 0.886000
-0.011957 0.046113 0.848000
0.018800 0.007528 0.866000
-0.020904 0.002234 0.887000
-0.012887 -0.012383 0.888000
0.010015 -0.004649 0.877000
-0.007121 0.048899 0.854000
0.007513 -0.010098 0.880000
-0.014747 -0.019004 0.890000
-0.005583 -0.025203 0.889000
-0.015080 -0.012748 0.888000
0.024946 0.001474 0.869000
-0.011830 -0.033327 0.891000
-0.024306 0.034735 0.878000
0.023928 -0.020749 0.871000
0.012341 0.025972 0.863000
0.019581 0.023291 0.869000
0.011563 -0.040388 0.885000
-0.022163 0.030433 0.879000
0.006774 -0.001402 0.878000
-0.012169 -0.035814 0.889000
0.031852 -0.028669 0.872000
0.011793 -0.010041 0.875000
0.012499 -0.010029 0.874000
-0.006665 -0.014194 0.887000
-0.018608 -0.033717 0.882000
0.012000 0.019245 0.864000
0.010106 -0.026911 0.885000
0.041339 -0.023943 0.883000
0.028621 -0.006058 0.872000
-0.028507 0.014978 0.885000
0.002087 -0.019218 0.883000
-0.024163 0.010984 0.886000
-0.019356 0.012764 0.883000
-0.011096 -0.033327 0.891000
0.019039 -0.046881 0.877000
0.014879 0.032121 0.866000
0.010026 -0.010436 0.878000
-0.029235 0.019713 0.885000
0.000988 0.014088 0.875000
0.009303 -0.013327 0.878000
-0.029599 0.020806 0.885000
0.007411 -0.051759 0.868000
-0.012901 -0.014226 0.889000
-0.002623 0.010884 0.878000
-0.014349 -0.013845 0.888000
-0.020493 0.010971 0.885000
-0.005438 0.040319 0.866000
0.041293 -0.026457 0.882000
-0.005476 0.022654 0.872000
0.027544 0.000402 0.872000
-0.024026 0.027964 0.881000
0.022135 0.017609 0.871000
-0.005801 0.038582 0.867000
0.016587 -0.035854 0.881000
-0.023486 -0.002515 0.888000
-0.002658 -0.043547 0.890000
-0.006673 -0.019327 0.888000
0.011658 0.043121 0.865000
0.001370 -0.028130 0.889000
0.024588 -0.011045 0.869000
-0.008501 -0.012748 0.888000
-0.016812 0.012400 0.883000
-0.020037 0.026151 0.881000
-0.007638 0.024836 0.873000
-0.010200 0.017730 0.877000
-0.015650 0.018856 0.879000
0.016059 0.047777 0.872000
-0.012310 0.032740 0.873000
-0.022138 0.032205 0.878000
-0.009996 -0.022693 0.891000
0.040883 -0.027877 0.881000
0.013922 -0.010736 0.873000
-0.016213 -0.020469 0.890000
0.010614 0.011819 0.867000
0.011022 0.001118 0.871000
0.013842 0.003615 0.868000
-0.008163 -0.025260 0.891000
0.001350 0.011220 0.876000
0.000628 0.012302 0.876000
0.016059 -0.010365 0.872000
0.010095 -0.025789 0.884000
-0.025057 0.033327 0.879000
-0.007915 0.046627 0.864000
0.012014 0.017132 0.865000
-0.011059 -0.007266 0.888000
0.043619 -0.025454 0.885000
-0.013449 0.021701 0.877000
0.007496 -0.003932 0.878000
0.019716 0.034976 0.875000
0.004927 0.012949 0.871000
-0.015848 0.040864 0.870000
-0.019378 0.012050 0.884000
-0.001510 0.044390 0.862000
-0.009221 -0.003972 0.887000
0.038664 -0.020239 0.880000
-0.012611 0.043320 0.869000
0.037662 -0.013388 0.882000
-0.026351 0.015724 0.886000
-0.021851 -0.027514 0.881000
0.009488 0.041552 0.862000
0.008444 0.024935 0.864000
0.015949 0.007528 0.866000
0.012711 0.033825 0.864000
0.007385 0.023896 0.865000
0.017038 0.026449 0.867000
-0.005942 -0.012017 0.888000
0.016286 0.023896 0.865000
-0.016430 -0.038436 0.882000
-0.017499 0.027239 0.881000
0.013112 0.007180 0.867000
-0.000815 0.012316 0.877000
-0.000801 0.045455 0.862000
-0.005848 0.028821 0.874000
-0.000808 0.021886 0.870000
-0.006322 -0.039517 0.890000
-0.001523 0.024722 0.869000
0.019148 -0.042792 0.882000
-0.007961 0.035452 0.869000
-0.017499 0.017448 0.881000
0.014691 -0.018705 0.876000
0.017936 -0.025555 0.876000
-0.028111 0.009140 0.884000
0.011537 -0.034845 0.883000
-0.013841 0.016685 0.879000
0.040158 -0.024614 0.881000
-0.019519 0.037454 0.874000
0.011658 0.041697 0.865000
0.014412 -0.030053 0.881000
-0.031895 0.032567 0.878000
0.026796 -0.002466 0.871000
-0.004470 -0.017095 0.886000
-0.026291 0.008776 0.884000
0.019223 0.022933 0.869000
0.012356 0.023157 0.864000
0.003142 0.013697 0.873000
0.008668 -0.040844 0.887000
-0.008896 -0.025626 0.891000
-0.004031 0.029763 0.870000
0.009522 0.018556 0.865000
-0.016158 -0.003972 0.887000
-0.007933 0.044953 0.866000
0.027481 -0.020009 0.870000
0.016531 -0.027059 0.878000
0.028198 -0.009983 0.870000
-0.001526 0.019760 0.871000
-0.021173 -0.025760 0.883000
-0.014548 0.022810 0.878000
0.003851 0.013666 0.871000
0.041703 -0.025760 0.883000
-0.013449 0.023506 0.877000
-0.020106 0.010959 0.884000
-0.027321 0.028722 0.882000
-0.026113 0.034735 0.878000
0.032831 0.000405 0.879000
0.016456 -0.016504 0.874000
0.032793 -0.004293 0.878000
0.011085 -0.011494 0.876000
-0.025986 0.013536 0.886000
-0.009467 0.029608 0.876000
0.028127 0.018132 0.879000
0.023131 0.001829 0.868000
0.012278 -0.047255 0.884000
-0.021776 -0.035009 0.878000
0.010198 0.036585 0.862000
-0.003395 -0.032594 0.891000
-0.013088 0.019896 0.877000
-0.017479 0.020326 0.880000
-0.020668 0.033612 0.877000
0.018699 -0.030312 0.878000
0.007786 0.009711 0.870000
0.016531 -0.026337 0.878000
0.004234 0.005812 0.876000
-0.001176 0.011233 0.877000
-0.002217 0.049300 0.861000
0.012527 -0.016902 0.876000
0.031961 -0.009320 0.875000
0.003874 0.006533 0.876000
0.002754 0.032758 0.864000
0.023623 0.018009 0.873000
0.006434 -0.013010 0.881000
-0.018971 0.014927 0.882000
0.020249 0.003254 0.867000
-0.004764 0.020524 0.873000
0.008820 0.017508 0.866000
0.021640 -0.045231 0.880000
0.000621 0.033508 0.865000
-0.005589 -0.040250 0.890000
0.017156 -0.015407 0.873000
0.032928 -0.025798 0.872000
0.033593 -0.000681 0.880000
-0.022652 0.037999 0.870000
0.015646 -0.001030 0.869000
0.021517 -0.026247 0.875000
-0.008144 -0.020812 0.889000
0.026377 -0.009972 0.869000
-0.017862 0.026151 0.881000
-0.005217 -0.024837 0.889000
0.021036 0.020095 0.870000
0.008424 0.039424 0.862000
0.014428 -0.036984 0.882000
-0.021925 -0.002139 0.884000
0.014183 0.007536 0.867000
-0.017136 0.016723 0.881000
-0.002593 0.029695 0.868000
-0.030328 0.023356 0.885000
0.014346 -0.022336 0.877000
-0.010730 -0.034428 0.891000
0.010984 0.008617 0.868000
-0.018587 0.027239 0.881000
-0.009862 0.014876 0.879000
0.035444 -0.004670 0.881000
0.012384 0.012874 0.866000
0.028947 -0.025768 0.871000
0.000979 0.027163 0.867000
0.004263 -0.013025 0.882000
-0.011309 0.014876 0.879000
-0.018842 0.033213 0.876000
-0.003648 0.043071 0.864000
0.005644 0.011515 0.871000
-0.004110 -0.012369 0.887000
0.020436 0.033176 0.875000
0.005023 -0.037967 0.888000
-0.015167 0.037369 0.872000
0.025720 0.003986 0.871000
0.004595 0.005812 0.876000
0.017254 -0.028505 0.878000
0.006797 -0.010109 0.881000
-0.014515 0.031050 0.876000
-0.023222 -0.033925 0.878000
-0.004114 -0.025540 0.888000
0.015482 -0.031829 0.880000
-0.004835 -0.016731 0.886000
-0.001561 -0.039928 0.891000
-0.020174 -0.001416 0.887000
0.018887 -0.007835 0.870000
-0.013073 0.030690 0.876000
0.016606 -0.038436 0.882000
0.024673 0.011528 0.872000
-0.001552 -0.021471 0.886000
-0.004840 -0.010178 0.887000
-0.014565 0.018856 0.879000
0.019466 -0.037262 0.880000
0.005389 -0.039794 0.888000
-0.005438 0.038894 0.866000
-0.013312 -0.023819 0.892000
0.012711 0.021735 0.864000
0.001368 -0.047835 0.888000
0.007804 -0.050921 0.872000
0.018508 -0.004249 0.869000
-0.025033 0.000044 0.891000
0.022571 0.026303 0.874000
0.016059 -0.009288 0.872000
-0.011009 0.006957 0.884000
0.001726 -0.021423 0.884000
0.034044 -0.025109 0.873000
-0.014731 -0.016787 0.889000
0.014134 0.027780 0.864000
-0.020151 0.005149 0.886000
-0.025869 0.026907 0.882000
-0.008706 0.032703 0.872000
-0.023222 -0.034287 0.878000
0.025779 -0.027264 0.873000
0.010971 0.012175 0.867000
-0.017117 0.018515 0.880000
0.017352 -0.045021 0.883000
-0.006560 0.025554 0.873000
0.024231 -0.013906 0.869000
-0.024334 0.033327 0.879000
0.015535 -0.046112 0.883000
0.030057 -0.029387 0.872000
0.001736 -0.027764 0.889000
0.006471 -0.034599 0.886000
-0.020400 0.024338 0.881000
0.011914 -0.038159 0.884000
0.007394 0.021072 0.866000
-0.000458 -0.012705 0.885000
0.022983 -0.032766 0.876000
0.038475 -0.009052 0.884000
0.022774 -0.002101 0.868000
0.027248 0.005439 0.874000
-0.008300 0.042864 0.867000
-0.004520 -0.045315 0.896000
0.001337 0.022907 0.868000
-0.028905 0.034616 0.875000
-0.016158 0.001139 0.887000
-0.004105 -0.018919 0.886000
0.020145 -0.047296 0.878000
0.012976 -0.034806 0.882000
0.016475 -0.020124 0.875000
-0.007346 0.012009 0.881000
0.029732 -0.006065 0.873000
-0.018348 -0.005432 0.887000
0.007143 -0.014790 0.879000
0.004526 0.032010 0.863000
0.015574 0.024964 0.865000
-0.008906 -0.027124 0.892000
0.020939 -0.042381 0.881000
-0.008916 -0.032300 0.893000
-0.023354 0.021122 0.883000
0.018822 0.002898 0.867000
0.039159 -0.014130 0.883000
-0.016318 0.031050 0.876000
0.006412 -0.001041 0.878000
-0.008491 -0.004702 0.887000
0.010083 -0.047929 0.883000
-0.003376 -0.017095 0.886000
-0.007429 -0.038462 0.891000
0.014248 -0.049428 0.871000
-0.033856 0.023277 0.882000
0.014791 -0.027546 0.882000
0.021702 -0.002101 0.868000
0.010210 0.027037 0.863000
-0.024527 0.011348 0.886000
-0.015393 0.008057 0.885000
-0.010007 -0.035568 0.892000
0.025449 0.013713 0.874000
0.005023 -0.030657 0.888000
-0.022213 0.026876 0.881000
0.004166 0.036585 0.862000
0.003134 0.015099 0.871000
0.032928 -0.023285 0.872000
0.012250 -0.033354 0.882000
0.005273 -0.052891 0.869000
0.021156 0.034256 0.875000
-0.005935 -0.014559 0.887000
0.001360 -0.017037 0.883000
0.005767 -0.045378 0.890000
0.004870 0.040087 0.861000
0.000982 0.018663 0.870000
0.017535 -0.049239 0.874000
-0.017156 0.012749 0.882000
-0.016641 0.033857 0.874000
0.016873 -0.025585 0.877000
0.020987 -0.006388 0.868000
0.010234 0.017488 0.865000
0.012584 -0.023861 0.880000
0.038025 -0.015929 0.882000
-0.018566 0.029019 0.880000
0.037810 -0.026668 0.877000
0.017156 0.046394 0.873000
-0.021537 0.017852 0.883000
-0.007603 0.034736 0.869000
-0.000446 0.043681 0.862000
-0.003673 0.025824 0.870000
0.002827 -0.048146 0.887000
-0.016850 -0.032739 0.885000
0.016286 0.022116 0.865000
-0.013556 0.009867 0.884000
0.019938 -0.008183 0.869000
0.034758 0.002222 0.882000
-0.008686 0.035134 0.870000
-0.005888 0.011634 0.880000
-0.005234 -0.043645 0.892000
0.013067 0.023157 0.864000
0.026888 -0.033051 0.874000
0.033685 -0.031936 0.873000
-0.005035 0.048422 0.858000
0.010565 0.041600 0.863000
0.016041 -0.006410 0.871000
0.028556 -0.012132 0.870000
0.003106 0.036273 0.863000
0.011110 -0.020555 0.878000
-0.003698 0.015547 0.876000
0.012028 0.013587 0.866000
0.041386 -0.018876 0.884000
-0.025257 0.013901 0.886000
0.019513 0.008954 0.866000
0.009621 0.000043 0.874000
-0.010363 -0.023059 0.891000
-0.020539 0.001139 0.887000
0.018699 -0.031396 0.878000
-0.010537 0.023812 0.875000
-0.009232 -0.010190 0.888000
0.013733 -0.045800 0.884000
0.024398 0.022011 0.875000
0.006719 0.010439 0.871000
0.002083 0.009109 0.881000
-0.008309 0.039341 0.868000
0.011712 0.006123 0.869000
-0.010561 0.028198 0.877000
-0.007070 -0.029694 0.892000
0.013248 -0.017623 0.876000
-0.033017 0.034051 0.879000
-0.000094 -0.017057 0.884000
0.013702 -0.034806 0.882000
0.020987 -0.003887 0.868000
0.026765 -0.014638 0.870000
-0.008776 0.014515 0.879000
0.029339 -0.007135 0.872000
0.001695 0.024336 0.868000
0.018996 -0.022285 0.875000
-0.011923 0.037326 0.871000
-0.024804 -0.034252 0.896000
0.016022 0.039431 0.870000
0.038388 -0.015929 0.882000
-0.018993 -0.030484 0.883000
-0.032477 0.023693 0.884000
-0.002290 -0.030325 0.889000
-0.024361 -0.028570 0.880000
-0.004379 0.033625 0.868000
0.025691 -0.015354 0.870000
0.017731 0.017508 0.866000
0.002451 -0.014857 0.883000
0.027279 0.009407 0.875000
0.002057 0.017589 0.870000
-0.011909 0.039789 0.870000
0.032569 -0.025798 0.872000
0.000271 -0.022540 0.885000
-0.020151 0.004784 0.886000
0.008571 -0.049769 0.877000
-0.000092 0.033191 0.866000
0.039070 -0.019537 0.881000
0.000265 0.031765 0.866000
0.032756 -0.006093 0.877000
0.013127 0.046128 0.868000
0.013453 0.012874 0.866000
0.014134 0.021379 0.864000
0.007573 -0.038654 0.887000
0.004652 -0.035368 0.887000
0.026620 0.019174 0.877000
-0.006158 0.038939 0.867000
0.000989 0.011581 0.876000
0.011458 -0.017283 0.877000
0.041293 -0.025367 0.882000
0.027341 0.015564 0.877000
-0.002984 0.012330 0.878000
0.008424 0.041197 0.862000
0.020413 -0.021900 0.874000
0.014774 -0.025339 0.881000
0.022957 0.026693 0.875000
0.016096 -0.015785 0.874000
-0.004424 0.015204 0.877000
-0.003018 -0.025540 0.888000
0.008993 -0.025033 0.883000
0.009511 0.022090 0.864000
0.016324 0.029304 0.867000
-0.001160 0.037425 0.865000
0.008620 -0.024278 0.882000
0.030739 -0.022542 0.871000
-0.002646 -0.014178 0.886000
0.020249 0.007536 0.867000
0.021727 -0.010329 0.869000
0.014049 -0.024976 0.881000
0.028127 0.019218 0.879000
-0.023043 -0.001778 0.885000
0.000622 0.028947 0.867000
-0.007647 0.020188 0.874000
-0.012169 -0.013860 0.889000
0.014248 -0.050145 0.871000
-0.006928 0.028821 0.874000
-0.015650 0.028262 0.879000
-0.002578 0.045508 0.863000
-0.021107 0.041372 0.851000
-0.020354 0.029709 0.879000
0.023542 -0.017503 0.870000
0.015341 0.048136 0.872000
-0.022653 0.016053 0.884000
0.023131 0.000043 0.868000
-0.021975 0.005878 0.886000
0.002417 0.015816 0.871000
0.007054 0.014690 0.868000
-0.013602 -0.004337 0.887000
0.020076 -0.026607 0.875000
-0.016812 -0.038843 0.883000
0.006658 0.029879 0.863000
-0.005576 -0.010921 0.888000
-0.024527 0.000044 0.886000
-0.017214 -0.031646 0.885000
0.011315 0.012874 0.866000
-0.011578 0.033062 0.872000
0.007360 0.032328 0.862000
0.021902 -0.029882 0.876000
-0.001928 -0.036995 0.891000
-0.029964 0.023720 0.885000
-0.004394 0.029797 0.871000
0.031852 -0.021850 0.872000
-0.019720 -0.029031 0.883000
-0.024472 0.017872 0.884000
-0.012366 0.021340 0.877000
-0.017618 -0.003242 0.887000
0.002087 -0.019945 0.883000
0.030916 -0.001399 0.876000
-0.010561 0.017369 0.877000
-0.009839 0.017008 0.877000
-0.006508 0.042458 0.866000
0.017374 0.008241 0.866000
-0.004851 -0.024837 0.889000
-0.009716 0.044953 0.866000
0.000272 -0.029228 0.889000
0.003561 -0.036505 0.888000
0.001726 -0.013055 0.884000
0.006478 -0.036829 0.887000
0.016206 -0.032554 0.880000
-0.016158 -0.004702 0.887000
0.013702 -0.026094 0.882000
0.014412 -0.034041 0.881000
0.020987 -0.004244 0.868000
-0.016504 -0.014178 0.886000
0.026109 0.003991 0.872000
0.027839 -0.015354 0.870000
-0.018842 0.033935 0.876000
-0.020284 0.034656 0.876000
-0.021053 -0.036816 0.878000
0.004984 -0.014461 0.881000
0.023569 0.011873 0.871000
0.028753 0.006533 0.876000
0.032569 -0.026157 0.872000
0.028095 0.014498 0.878000
-0.010258 0.011660 0.882000
0.006106 -0.026577 0.886000
-0.001509 0.048591 0.861000
0.010724 -0.004644 0.876000
0.002451 -0.020308 0.883000
0.004302 -0.043180 0.890000
0.039886 -0.018128 0.883000
0.024588 -0.013906 0.869000
0.006858 -0.045327 0.889000
-0.007346 0.009834 0.881000
-0.000094 -0.036953 0.890000
0.006835 -0.026941 0.886000
-0.002593 0.030052 0.868000
-0.003387 -0.043498 0.889000
0.000998 -0.021787 0.884000
-0.004802 0.010909 0.880000
0.014297 -0.013626 0.874000
0.007127 0.000404 0.877000
-0.006523 0.035054 0.868000
0.004532 0.031336 0.864000
-0.028838 0.024421 0.884000
-0.019310 0.042673 0.849000
0.042162 -0.019626 0.885000
-0.014187 0.020280 0.878000
0.002770 0.019714 0.869000
0.002398 0.034537 0.864000
0.011631 0.035917 0.863000
0.004263 -0.013751 0.882000
-0.019378 -0.027608 0.884000
0.006858 -0.043864 0.889000
-0.006158 0.039652 0.867000
-0.013618 -0.009093 0.888000
0.008921 0.000043 0.876000
-0.021851 -0.028965 0.881000
-0.017618 -0.025876 0.887000
-0.025869 0.027996 0.882000
-0.026172 0.033727 0.880000
-0.030986 0.030208 0.883000
0.003509 0.010487 0.875000
-0.020106 0.013506 0.884000
-0.026321 0.009514 0.885000
0.024482 0.030398 0.878000
-0.022678 -0.002142 0.885000
-0.020786 -0.028272 0.882000
0.008285 -0.031282 0.885000
0.013778 0.027780 0.864000
0.019603 -0.009267 0.870000
0.031673 -0.002483 0.877000
-0.013679 -0.023819 0.892000
0.020319 -0.010341 0.870000
-0.011817 -0.017539 0.890000
0.010700 -0.049599 0.874000
-0.010694 -0.009459 0.888000
-0.022964 0.022914 0.882000
0.009665 -0.006100 0.878000
0.044033 -0.025118 0.886000
-0.014698 -0.000321 0.887000
-0.005205 -0.015289 0.887000
0.011085 -0.006447 0.876000
-0.016158 -0.001416 0.887000
0.008600 -0.048852 0.880000
-0.004480 -0.024444 0.888000
-0.000801 0.047938 0.862000
0.014808 -0.039570 0.883000
-0.029964 0.021170 0.885000
0.004589 -0.051096 0.875000
-0.024163 0.008796 0.886000
-0.015757 0.008786 0.885000
-0.011142 0.045309 0.866000
0.012341 0.026327 0.863000
0.022931 0.025943 0.874000
0.004516 0.041504 0.861000
-0.016486 -0.032739 0.885000
-0.011059 -0.009459 0.888000
-0.017914 0.041032 0.866000
-0.005962 -0.031127 0.891000
0.025661 -0.005322 0.869000
-0.011843 -0.027858 0.892000
0.010565 0.034497 0.863000
0.019536 0.002184 0.867000
0.022416 0.002186 0.868000
0.012627 -0.035572 0.883000
0.015189 -0.043253 0.884000
0.004239 -0.050852 0.877000
-0.010742 -0.028225 0.892000
0.032607 -0.017563 0.873000
0.003541 -0.012676 0.883000
-0.004693 0.048535 0.860000
0.020773 -0.024778 0.874000
-0.015410 0.006243 0.886000
0.041246 -0.028240 0.881000
-0.001165 0.024722 0.869000
-0.002243 0.021552 0.871000
0.037342 -0.006135 0.883000
0.037896 -0.020216 0.879000
0.008453 0.019980 0.865000
0.013020 -0.042209 0.885000
-0.018348 -0.022956 0.887000
-0.023744 0.000407 0.884000
0.008238 -0.010098 0.880000
-0.009974 -0.018983 0.889000
0.003834 0.024308 0.867000
0.006071 -0.010835 0.881000
-0.017175 -0.035209 0.883000
0.016758 -0.008561 0.871000
0.008088 0.026002 0.864000
0.003174 -0.018107 0.882000
0.001736 -0.035814 0.889000
0.005612 0.023211 0.866000
-0.032077 0.016761 0.883000
-0.012142 0.002599 0.887000
-0.000459 -0.028098 0.888000
-0.018993 0.014217 0.883000
0.011186 -0.047255 0.884000
0.003878 0.005819 0.877000
-0.011800 0.045100 0.862000
-0.030811 0.033289 0.878000
-0.016679 0.031050 0.876000
0.022416 -0.004601 0.868000
-0.009024 0.038983 0.868000
-0.008520 -0.039517 0.890000
-0.028507 0.021534 0.885000
-0.029533 0.014944 0.883000
-0.015063 0.005155 0.887000
0.014879 0.007528 0.866000
-0.017136 0.025063 0.881000
0.012083 0.002191 0.870000
0.000267 0.015493 0.873000
-0.012577 -0.027858 0.892000
-0.019444 -0.023686 0.887000
0.023596 -0.023285 0.872000
0.017515 -0.015048 0.873000
-0.016504 0.006243 0.886000
-0.009629 -0.036628 0.891000
-0.034503 0.028657 0.880000
-0.005520 0.013068 0.879000
0.013233 -0.013282 0.875000
0.006427 -0.013720 0.880000
0.016041 0.043420 0.871000
-0.017579 0.006964 0.885000
0.031637 -0.004644 0.876000
0.014489 0.022446 0.864000
0.004621 -0.008296 0.881000
-0.013684 0.042605 0.869000
0.013127 0.004687 0.868000
0.019179 0.005039 0.867000
-0.012521 -0.006900 0.888000
-0.019057 -0.007249 0.886000
-0.021975 0.002232 0.886000
0.016569 -0.033640 0.880000
0.001005 -0.038785 0.890000
0.027608 0.005439 0.874000
-0.016467 -0.034521 0.884000
-0.000091 0.041600 0.863000
-0.024500 0.015706 0.885000
0.027903 -0.003905 0.872000
0.009878 0.019624 0.865000
-0.010645 0.008412 0.884000
0.005352 -0.011936 0.882000
-0.016981 0.037771 0.873000
0.019157 0.007171 0.866000
0.006478 -0.029892 0.887000
0.008952 -0.011534 0.879000
0.004984 -0.009384 0.881000
0.021541 -0.031324 0.876000
-0.000459 -0.046738 0.888000
-0.005217 -0.042766 0.889000
-0.011843 -0.023819 0.892000
0.021443 0.023730 0.872000
0.002750 0.035207 0.863000
0.000635 -0.014162 0.885000
-0.030986 0.017488 0.883000
0.030381 -0.025768 0.871000
-0.001526 0.021194 0.871000
-0.019079 0.002964 0.887000
-0.002940 0.039561 0.865000
0.021369 -0.011045 0.869000
0.039203 -0.010508 0.884000
0.015862 -0.046732 0.881000
0.031098 -0.022542 0.871000
0.022059 0.005759 0.868000
0.000272 -0.045062 0.891000
0.039841 -0.021011 0.882000
-0.023433 0.005878 0.886000
-0.006665 -0.017480 0.887000
0.005579 0.041504 0.861000
0.039388 -0.024586 0.880000
0.026857 -0.030858 0.873000
-0.005949 -0.041302 0.889000
-0.012238 -0.038591 0.894000
0.013906 -0.006776 0.872000
-0.016012 0.020303 0.879000
-0.021390 0.033251 0.877000
-0.001887 0.018347 0.872000
0.014540 0.007536 0.867000
0.011671 0.045309 0.866000
0.034403 -0.031936 0.873000
0.001347 0.014432 0.874000
-0.016869 0.006608 0.886000
-0.011072 -0.016056 0.889000
-0.033129 0.028722 0.882000
-0.004731 0.035727 0.867000
0.018108 0.001113 0.867000
-0.013633 -0.013860 0.889000
0.016738 -0.006402 0.870000
0.002830 -0.035043 0.888000
0.013263 -0.019087 0.877000
0.006696 0.016119 0.868000
-0.021125 0.026514 0.881000
0.010470 -0.038203 0.885000
0.000975 0.034537 0.864000
0.031565 -0.010389 0.874000
-0.024723 0.030468 0.880000
0.000637 -0.027733 0.888000
0.005358 -0.023579 0.883000
-0.013088 0.022062 0.877000
-0.014698 -0.002147 0.887000
0.014573 0.042605 0.869000
0.041480 -0.015272 0.886000
-0.031749 0.027695 0.884000
-0.023407 -0.001413 0.885000
0.017854 0.038445 0.872000
0.021320 -0.000671 0.867000
-0.015463 -0.027764 0.889000
0.018952 -0.017922 0.873000
0.003203 -0.041349 0.890000
-0.001514 0.039515 0.864000
0.019536 0.006466 0.867000
0.013142 0.002189 0.869000
0.003927 -0.032484 0.888000
-0.016863 0.044070 0.849000
0.034763 -0.029061 0.873000
-0.016888 -0.005432 0.887000
0.010210 0.028458 0.863000
-0.027050 0.016799 0.885000
0.014199 0.042913 0.868000
0.000264 0.042617 0.862000
0.025003 0.007571 0.871000
-0.000810 0.017270 0.872000
0.022494 -0.018598 0.871000
0.022262 -0.031324 0.876000
0.018401 -0.039118 0.881000
-0.026685 0.019713 0.885000
-0.000446 0.045810 0.862000
-0.017039 0.032132 0.876000
-0.026655 0.022602 0.884000
0.016041 -0.006768 0.871000
-0.019122 -0.022276 0.889000
0.018108 0.021096 0.867000
0.020725 0.026602 0.872000
-0.012451 0.011310 0.883000
0.021541 0.038261 0.876000
-0.005438 0.039250 0.866000
0.005034 -0.045378 0.890000
-0.011657 0.017389 0.878000
-0.006688 -0.026330 0.890000
-0.013587 0.007337 0.886000
0.000638 -0.046425 0.889000
0.012356 0.019601 0.864000
0.007505 -0.014790 0.879000
0.000270 -0.018512 0.884000
-0.012521 -0.012383 0.888000
-0.006620 0.009834 0.881000
-0.019787 0.007337 0.886000
-0.035711 0.029118 0.883000
0.030416 -0.029746 0.872000
-0.006568 0.030620 0.874000
-0.009221 -0.002877 0.887000
-0.009608 -0.018983 0.889000
0.006774 -0.001763 0.878000
0.017057 -0.000314 0.868000
0.033117 -0.009342 0.877000
-0.027778 0.018620 0.885000
0.023705 -0.032406 0.876000
0.016059 -0.010006 0.872000
0.010210 0.028103 0.863000
0.012139 -0.008230 0.874000
-0.035873 0.024139 0.887000
0.004626 -0.019559 0.882000
-0.024500 0.016799 0.885000
0.013438 0.034220 0.865000
0.011380 0.001118 0.871000
0.017615 -0.029227 0.878000
-0.019809 0.001869 0.887000
-0.009817 0.023092 0.875000
-0.002655 -0.028496 0.889000
-0.014155 0.030329 0.876000
0.030005 0.016361 0.881000
-0.027042 0.036693 0.873000
-0.019014 -0.029063 0.884000
-0.018714 0.000774 0.887000
0.023873 0.005050 0.869000
0.009566 0.007196 0.869000
0.013842 0.003973 0.868000
0.007159 -0.020987 0.881000
0.010210 0.042311 0.863000
0.011276 0.025972 0.863000
-0.005583 -0.023739 0.889000
-0.015811 -0.028464 0.888000
-0.019488 -0.023008 0.889000
-0.015393 -0.035289 0.885000
0.006127 -0.043498 0.889000
-0.001512 0.043376 0.863000
-0.004359 0.043071 0.864000
-0.002602 0.021194 0.871000
0.014506 0.031372 0.865000
-0.000094 -0.039562 0.891000
-0.016926 -0.024105 0.889000
0.014113 -0.043302 0.885000
0.014412 -0.033679 0.881000
0.005996 -0.053668 0.870000
0.026528 0.011195 0.874000
0.021492 0.031699 0.874000
-0.014349 -0.007266 0.888000
0.032569 -0.022926 0.872000
0.006065 -0.015893 0.880000
0.004595 0.006173 0.876000
0.006797 -0.012648 0.881000
0.006673 0.023896 0.865000
-0.007638 0.031662 0.873000
-0.009211 0.000773 0.886000
0.021541 -0.029521 0.876000
0.011576 -0.041892 0.886000
-0.004399 0.021218 0.872000
-0.009467 0.017710 0.876000
0.008228 -0.007554 0.879000
0.029080 0.002924 0.875000
0.008942 -0.016580 0.878000
-0.015149 0.040194 0.871000
-0.028442 0.010583 0.883000
-0.015650 0.018132 0.879000
-0.019675 0.019624 0.881000
0.011793 -0.049295 0.875000
0.004961 -0.050491 0.877000
-0.013587 0.005149 0.886000
-0.020400 -0.038755 0.881000
0.015967 0.031445 0.867000
0.030022 -0.020391 0.871000
0.023291 0.023785 0.874000
-0.003311 0.030444 0.869000
-0.022289 -0.001412 0.884000
0.031493 -0.022209 0.872000
0.019179 0.016814 0.867000
0.002052 0.022550 0.868000
0.028947 -0.021825 0.871000
0.006789 -0.009736 0.880000
0.015482 -0.033278 0.880000
0.041022 -0.018148 0.884000
0.012711 0.024935 0.864000
0.027513 -0.023259 0.871000
-0.011882 0.043270 0.868000
-0.005842 0.021961 0.873000
-0.001863 0.048946 0.861000
-0.014316 0.005878 0.886000
0.006317 0.024964 0.865000
0.012541 -0.018365 0.877000
0.010447 -0.033755 0.883000
-0.004764 0.018727 0.873000
0.017038 0.028233 0.867000
0.005304 0.009756 0.874000
0.016225 -0.036579 0.881000
0.018996 -0.024446 0.875000
-0.015472 0.041890 0.869000
-0.000822 -0.011612 0.885000
0.000620 0.037381 0.864000
0.025304 -0.004607 0.869000
0.006346 0.013277 0.869000
0.031205 -0.010029 0.874000
0.018974 0.036375 0.874000
0.034032 0.005126 0.882000
0.002409 0.022907 0.868000
-0.018928 0.020688 0.880000
-0.017618 -0.007623 0.887000
0.017555 -0.020845 0.875000
-0.007229 0.038939 0.867000
0.020553 -0.048128 0.880000
0.026169 0.011195 0.874000
0.000638 -0.033253 0.889000
-0.007952 0.037554 0.868000
-0.012916 -0.018271 0.890000
0.005940 0.036940 0.862000
-0.013967 -0.005432 0.887000
-0.029930 0.028059 0.884000
0.025868 0.019513 0.876000
0.010117 -0.040798 0.886000
0.007885 -0.023163 0.881000
0.016004 0.036882 0.869000
0.002054 0.019357 0.869000
0.009969 0.000043 0.873000
-0.001928 -0.042862 0.891000
0.022084 -0.010329 0.869000
0.012711 0.023157 0.864000
0.025566 0.026785 0.878000
-0.010188 0.019152 0.876000
-0.021858 0.042172 0.853000
0.011631 0.024906 0.863000
0.027042 0.025006 0.879000
-0.006620 0.010559 0.881000
-0.015223 0.045438 0.855000
-0.014825 0.034896 0.873000
0.036615 -0.003954 0.883000
0.004995 0.001497 0.883000
0.010376 -0.004649 0.877000
-0.016299 0.031735 0.875000
0.007368 0.031300 0.863000
0.029373 -0.003909 0.873000
0.014896 0.037154 0.867000
-0.027019 0.009867 0.884000
-0.013282 -0.031092 0.890000
0.006434 -0.013373 0.881000
0.028588 -0.026485 0.871000
-0.013510 0.014185 0.881000
-0.016121 0.009150 0.885000
-0.020716 -0.037582 0.879000
0.024946 -0.008183 0.869000
-0.022886 -0.029984 0.879000
-0.002620 0.013760 0.877000
-0.003643 0.046573 0.863000
0.025566 0.025701 0.878000
-0.010188 0.028526 0.876000
0.016041 0.042703 0.871000
-0.011072 -0.017153 0.889000
0.019017 -0.026637 0.876000
-0.008501 -0.013479 0.888000
0.014791 -0.036984 0.882000
-0.015445 -0.010190 0.888000
0.007013 0.031300 0.863000
0.023131 0.004687 0.868000
-0.000092 0.032478 0.866000
0.027186 -0.028310 0.872000
0.015844 -0.032916 0.880000
-0.009749 0.039386 0.869000
-0.013088 0.023506 0.877000
0.013485 0.043985 0.868000
0.005709 -0.049633 0.881000
-0.005426 0.044849 0.864000
0.014674 -0.048575 0.875000
-0.001193 -0.044646 0.890000
0.026437 -0.023259 0.871000
0.017116 0.038401 0.871000
0.014791 -0.026457 0.882000
-0.012640 0.045361 0.847000
0.014489 0.022801 0.864000
0.021702 0.008617 0.868000
-0.006928 0.030260 0.874000
0.008840 0.013261 0.868000
-0.016140 -0.032411 0.886000
0.000272 -0.035854 0.890000
0.020678 -0.011415 0.870000
-0.013464 0.024978 0.878000
-0.007404 -0.011652 0.888000
0.014896 0.035370 0.867000
0.008779 0.043326 0.862000
0.020249 0.010034 0.867000
-0.016374 0.045349 0.860000
0.027935 -0.031217 0.873000
-0.016244 0.038445 0.872000
-0.023328 0.022914 0.882000
-0.006530 0.033663 0.869000
0.011793 -0.008600 0.875000
-0.017117 0.017791 0.880000
0.022084 0.012204 0.869000
0.019126 -0.040205 0.881000
-0.022678 0.013157 0.885000
0.010565 0.042666 0.863000
0.009843 0.033392 0.862000
-0.012983 0.041938 0.870000
0.009013 -0.030553 0.885000
0.003900 -0.018833 0.882000
0.023131 -0.006030 0.868000
0.013422 0.026358 0.864000
-0.010730 -0.023793 0.891000
-0.001161 0.034616 0.866000
0.028914 -0.016070 0.870000
0.017234 -0.025224 0.877000
-0.004017 0.034300 0.867000
-0.005583 -0.024105 0.889000
0.017374 0.016439 0.866000
-0.007039 -0.010190 0.888000
0.019829 -0.040160 0.880000
0.010470 -0.028368 0.885000
0.003553 -0.026212 0.886000
-0.012887 -0.011286 0.888000
0.000623 0.022933 0.869000
0.008492 0.009342 0.869000
0.040613 -0.018855 0.883000
0.032469 0.001491 0.879000
0.010614 0.012532 0.867000
0.020506 -0.046935 0.878000
0.013369 -0.041070 0.884000
-0.005457 0.032590 0.869000
0.018844 0.022550 0.868000
-0.004736 0.034696 0.868000
-0.021537 0.018215 0.883000
0.014281 -0.010018 0.873000
0.011098 -0.016561 0.877000
0.015574 0.012503 0.865000
0.008779 0.034811 0.862000
0.006434 -0.009747 0.881000
0.025661 -0.013906 0.869000
0.038068 -0.010496 0.883000
-0.000092 0.035645 0.865000
0.016531 -0.026698 0.878000
0.015500 -0.034041 0.881000
0.015218 0.025320 0.865000
0.016854 -0.023392 0.876000
0.008303 -0.041574 0.887000
0.025391 0.009374 0.872000
-0.005223 -0.029261 0.890000
-0.010561 0.018091 0.877000
0.013906 -0.007494 0.872000
0.023623 0.019087 0.873000
-0.013936 0.008421 0.885000
0.000975 0.036315 0.864000
0.024975 -0.017503 0.870000
-0.004758 0.027319 0.872000
0.009764 -0.044860 0.887000
0.005034 -0.045744 0.890000
0.010920 0.038048 0.863000
-0.021586 -0.001413 0.885000
-0.004105 -0.018554 0.886000
-0.004470 -0.017460 0.886000
-0.018993 0.012037 0.883000
0.030022 -0.025410 0.871000
0.025691 -0.018577 0.870000
-0.021221 -0.002142 0.885000
0.012741 0.012518 0.866000
-0.017679 0.038445 0.872000
-0.001192 -0.030325 0.889000
0.005940 0.034457 0.862000
-0.021464 -0.030743 0.880000
0.010688 -0.001035 0.873000
-0.009817 0.024172 0.875000
0.012125 -0.005347 0.873000
0.015517 -0.039162 0.882000
0.021084 -0.019696 0.872000
-0.023610 0.031518 0.879000
0.007200 -0.027306 0.886000
0.008659 -0.028400 0.886000
-0.006856 0.045257 0.865000
0.014845 0.023157 0.864000
-0.030328 0.024813 0.885000
-0.008376 0.029574 0.875000
-0.032077 0.018578 0.883000
-0.011059 -0.014210 0.888000
0.012726 0.017132 0.865000
0.011276 0.032721 0.863000
0.008079 0.030945 0.863000
0.009843 0.038004 0.862000
0.005023 -0.037236 0.888000
0.026437 -0.021108 0.871000
0.020796 -0.026247 0.875000
0.007216 -0.042352 0.888000
-0.004114 -0.023713 0.888000
0.012413 0.006831 0.868000
-0.003383 -0.025906 0.888000
0.044033 -0.024024 0.886000
0.013127 0.005402 0.868000
-0.004835 -0.018189 0.886000
0.002101 -0.028862 0.889000
0.021827 0.025554 0.873000
-0.030294 0.018963 0.884000
0.001006 -0.042862 0.891000
0.006665 0.028136 0.864000
-0.020857 0.011700 0.885000
0.017751 0.023238 0.867000
0.005754 -0.039063 0.888000
-0.005123 0.028788 0.873000
-0.012872 -0.006528 0.887000
-0.012101 0.009867 0.884000
0.027481 -0.009267 0.870000
0.006288 0.042922 0.861000
0.010565 0.035917 0.863000
0.018593 0.040645 0.873000
0.011793 -0.008240 0.875000
0.026950 0.013383 0.876000
-0.016411 0.015998 0.881000
0.010920 0.032721 0.863000
-0.020716 -0.035411 0.879000
0.024342 -0.026905 0.873000
-0.014449 0.038086 0.872000
0.028851 0.015962 0.879000
-0.010316 -0.002147 0.887000
-0.028142 0.014249 0.885000
0.032569 -0.024721 0.872000
-0.025592 0.017528 0.885000
0.002462 -0.026241 0.887000
0.014879 0.007884 0.866000
-0.006665 -0.008353 0.887000
-0.016755 0.027932 0.880000
-0.005942 -0.011652 0.888000
-0.015775 0.006243 0.886000
0.027544 -0.028669 0.872000
0.011186 -0.027608 0.884000
0.004181 0.027456 0.865000
-0.023771 0.016435 0.885000
0.013339 -0.030450 0.882000
0.023158 0.006123 0.869000
0.002776 0.015099 0.871000
0.016661 0.007171 0.866000
-0.021488 -0.028240 0.881000
0.031852 -0.031899 0.872000
0.020030 -0.019000 0.873000
-0.003380 -0.021495 0.887000
-0.024780 0.024729 0.882000
0.012888 -0.016181 0.876000
0.016912 -0.030708 0.879000
-0.015428 -0.001416 0.887000
-0.015081 0.044315 0.847000
-0.007813 -0.034505 0.893000
-0.016523 -0.016384 0.887000
0.016912 -0.032517 0.879000
-0.008290 0.044596 0.866000
0.028457 0.014137 0.878000
0.027871 -0.006768 0.871000
-0.004485 -0.026667 0.889000
0.027154 -0.024693 0.871000
0.041069 -0.014526 0.885000
-0.004490 -0.040616 0.890000
-0.008520 -0.021934 0.890000
0.020007 0.029832 0.872000
0.011793 -0.012922 0.875000
-0.007304 0.016628 0.876000
0.018017 -0.036538 0.880000
0.012991 -0.037026 0.883000
-0.023069 0.009525 0.886000
-0.023169 0.036098 0.876000
0.038301 -0.020601 0.880000
-0.018204 0.019602 0.880000
0.015574 0.025676 0.865000
-0.015561 0.032778 0.874000
0.008453 0.021048 0.865000
0.021108 -0.021875 0.873000
0.038475 -0.007597 0.884000
0.028687 -0.000317 0.874000
0.011302 0.017132 0.865000
-0.014015 -0.028162 0.890000
-0.015704 0.013475 0.882000
0.038025 -0.015203 0.882000
0.002059 0.015816 0.871000
-0.003762 -0.034428 0.891000
0.027123 -0.004254 0.870000
0.023651 -0.028375 0.874000
0.000974 0.038048 0.863000
0.029305 -0.018598 0.871000
-0.011991 0.023118 0.876000
-0.014349 -0.011286 0.888000
0.011085 -0.006086 0.876000
0.030057 -0.010365 0.872000
-0.018960 0.042323 0.849000
-0.001926 -0.043547 0.890000
-0.000093 0.014449 0.875000
-0.010188 0.018431 0.876000
-0.002261 0.010884 0.878000
0.014590 0.046593 0.870000
0.000264 0.037381 0.864000
0.037748 -0.006505 0.884000
0.003812 0.038004 0.862000
0.018275 -0.048215 0.875000
0.029305 -0.010712 0.871000
-0.011803 -0.036912 0.889000
0.015306 -0.003896 0.870000
0.012755 0.045718 0.867000
-0.002287 -0.025906 0.888000
-0.019764 -0.025090 0.885000
-0.014825 0.033818 0.873000
0.010984 0.009331 0.868000
0.007200 -0.026941 0.886000
0.022852 0.014383 0.871000
0.000618 0.044390 0.862000
0.005255 0.023924 0.866000
0.025204 0.027146 0.878000
-0.013826 0.024616 0.878000
-0.022163 -0.030346 0.879000
0.017956 -0.028472 0.877000
0.022084 -0.010687 0.869000
-0.021801 0.029348 0.879000
0.025478 0.016249 0.875000
-0.002287 -0.027367 0.888000
0.020099 0.042948 0.876000
-0.011096 -0.034428 0.891000
0.028295 -0.031576 0.873000
0.017435 -0.003176 0.869000
0.003829 0.025349 0.866000
-0.020037 0.025063 0.881000
0.010565 0.036273 0.863000
0.019626 -0.012504 0.871000
-0.010316 -0.001782 0.887000
0.023651 0.022346 0.874000
0.012656 -0.040752 0.885000
-0.017234 0.005149 0.886000
0.002833 -0.031423 0.889000
0.009250 -0.050260 0.873000
0.030022 -0.025051 0.871000
0.017874 0.042801 0.873000
0.032569 -0.025439 0.872000
-0.005029 0.048718 0.857000
0.020007 0.029473 0.872000
0.009499 0.028813 0.863000
0.001343 0.015835 0.872000
-0.003021 -0.046059 0.889000
-0.017740 0.033176 0.875000
-0.009403 0.035492 0.870000
-0.015497 -0.021592 0.891000
0.017273 -0.033602 0.879000
-0.007221 0.042458 0.866000
-0.026988 0.026937 0.883000
-0.006515 0.038939 0.867000
0.020273 -0.005673 0.868000
0.018058 -0.043155 0.882000
0.027871 -0.026485 0.871000
0.009377 -0.026182 0.885000
0.030057 -0.029028 0.872000
-0.004758 0.023730 0.872000
0.039203 -0.012327 0.884000
-0.009940 0.001502 0.886000
-0.014381 -0.019004 0.890000
-0.010177 0.022732 0.875000
-0.001154 0.046820 0.861000
-0.004374 0.035013 0.867000
-0.017499 0.024701 0.881000
-0.009619 -0.038785 0.890000
-0.006244 0.014153 0.879000
0.011779 -0.006072 0.874000
-0.012005 0.019174 0.877000
0.016380 0.039431 0.870000
0.018444 0.007884 0.866000
0.019761 -0.030277 0.877000
0.020606 0.004682 0.867000
