0.020328 -0.028400 0.886000
0.013278 -0.004654 0.878000
0.007911 0.015325 0.884000
-0.033443 -0.024083 0.862000
0.028050 -0.026637 0.888000
-0.014058 -0.027529 0.870000
-0.005808 -0.019249 0.868000
-0.037822 0.007948 0.873000
0.008871 -0.022183 0.871000
0.018572 -0.015748 0.872000
0.000633 0.011673 0.883000
-0.005170 0.014185 0.881000
-0.032172 -0.012076 0.866000
0.008932 -0.007537 0.877000
-0.013684 -0.012833 0.869000
0.006712 -0.021800 0.870000
0.013233 -0.024806 0.875000
0.019061 0.001127 0.878000
0.033055 0.028091 0.885000
-0.031895 -0.034287 0.878000
-0.029253 -0.025205 0.864000
-0.021652 0.001480 0.873000
-0.035503 -0.002818 0.869000
-0.017639 -0.028245 0.870000
-0.036763 -0.015622 0.865000
0.034473 0.010959 0.884000
0.034239 -0.022361 0.878000
-0.020551 -0.000675 0.872000
-0.021122 -0.016353 0.866000
0.016418 -0.014672 0.872000
-0.020215 0.001840 0.873000
-0.000451 -0.025051 0.871000
-0.020284 0.010499 0.876000
-0.017420 0.010511 0.877000
-0.024414 -0.008899 0.869000
0.028018 0.025599 0.887000
0.025682 0.008030 0.882000
-0.035307 0.009026 0.873000
0.002462 -0.032083 0.887000
0.037029 -0.028257 0.893000
0.026528 0.012442 0.886000
0.030834 0.002954 0.884000
0.022491 0.026270 0.885000
0.002415 -0.022874 0.870000
0.009218 -0.018935 0.870000
0.010663 -0.022183 0.871000
0.028383 0.012456 0.887000
-0.029298 0.019513 0.876000
0.009577 -0.020009 0.870000
0.022931 -0.021900 0.874000
-0.002256 -0.006807 0.876000
0.005285 -0.014655 0.871000
0.021802 -0.018979 0.872000
0.051710 -0.007511 0.874000
0.016299 0.021899 0.885000
-0.027862 -0.016690 0.865000
0.004921 -0.017503 0.870000
0.044197 0.001859 0.882000
0.034719 -0.000319 0.881000
-0.036468 0.015169 0.875000
-0.041131 -0.005667 0.867000
0.009335 0.023975 0.881000
-0.013652 -0.025293 0.867000
-0.043880 0.007580 0.872000
0.031854 -0.024641 0.882000
0.024701 -0.015407 0.873000
0.012097 -0.020032 0.871000
0.004967 -0.027782 0.878000
0.039159 0.023303 0.883000
-0.049282 -0.005660 0.866000
0.018635 -0.008960 0.875000
0.038804 -0.017603 0.875000
-0.032135 -0.028795 0.865000
-0.025663 0.008686 0.875000
0.029406 -0.020101 0.874000
0.033532 0.022704 0.888000
-0.041131 -0.005310 0.867000
0.023584 -0.027275 0.885000
-0.006880 -0.016391 0.868000
-0.019049 -0.010329 0.869000
-0.034627 -0.015978 0.865000
0.028619 0.003314 0.883000
0.026139 -0.017922 0.873000
0.007437 -0.023617 0.871000
-0.027830 -0.019160 0.864000
0.028095 -0.004654 0.878000
0.039886 0.019669 0.883000
0.037146 0.019393 0.887000
0.026857 -0.016126 0.873000
-0.028577 0.015186 0.876000
0.038068 0.006222 0.883000
0.034148 0.015342 0.885000
-0.035421 -0.007451 0.867000
-0.029625 0.002204 0.875000
-0.013088 0.000404 0.877000
0.013937 -0.009669 0.874000
0.009367 0.012414 0.884000
0.011498 -0.000681 0.880000
-0.043679 -0.003172 0.868000
-0.021603 -0.003900 0.871000
-0.007682 -0.029950 0.878000
0.029810 0.019735 0.886000
-0.040727 -0.008868 0.866000
-0.000092 -0.019963 0.868000
-0.034072 -0.002818 0.869000
0.011537 0.022939 0.883000
-0.014025 -0.013890 0.868000
0.026711 0.000406 0.880000
-0.025014 -0.025235 0.865000
0.010003 -0.008610 0.876000
-0.031386 -0.019160 0.864000
-0.045465 0.012904 0.868000
0.007135 -0.005016 0.878000
0.034161 -0.011855 0.876000
0.012932 -0.002127 0.879000
-0.037822 0.015853 0.873000
0.007786 -0.018219 0.870000
-0.014203 0.016685 0.879000
-0.032061 -0.024466 0.863000
-0.022626 -0.028570 0.869000
0.037088 -0.020892 0.877000
-0.032923 0.023951 0.867000
-0.035067 -0.033848 0.876000
-0.006236 0.022448 0.878000
0.005696 -0.027814 0.879000
-0.015921 0.001122 0.874000
-0.037735 0.018326 0.871000
-0.026384 0.009047 0.875000
-0.031750 0.009396 0.874000
-0.038094 0.017967 0.871000
-0.030054 -0.033526 0.877000
0.025537 -0.003927 0.877000
-0.002241 -0.025380 0.870000
0.027576 -0.015767 0.873000
0.028687 -0.015785 0.874000
-0.014910 0.009800 0.878000
-0.042607 -0.003530 0.868000
0.019126 0.007658 0.881000
-0.040245 0.004345 0.871000
-0.021677 0.005799 0.874000
0.000989 -0.006807 0.876000
-0.037692 0.000401 0.870000
0.037130 -0.007184 0.878000
-0.004791 0.022810 0.878000
0.046579 -0.007916 0.879000
0.006449 0.010946 0.883000
0.027576 -0.018641 0.873000
-0.028545 0.008686 0.875000
0.024340 0.021559 0.886000
0.040744 -0.007184 0.878000
0.017675 0.007296 0.881000
0.021541 -0.023753 0.876000
-0.027307 0.022960 0.870000
0.008219 -0.005016 0.878000
-0.014449 -0.005340 0.872000
-0.013763 -0.029454 0.874000
0.034629 -0.026637 0.888000
0.036415 0.022313 0.887000
0.036292 0.009867 0.884000
0.035440 -0.027429 0.890000
-0.018864 0.014121 0.877000
0.021108 -0.021156 0.873000
-0.036365 -0.028761 0.864000
0.046217 0.005832 0.879000
-0.030172 -0.030393 0.870000
0.052011 -0.007143 0.873000
-0.007296 -0.028767 0.875000
0.039477 0.004763 0.882000
-0.009783 -0.009647 0.872000
-0.018292 -0.014588 0.867000
-0.029557 -0.002831 0.873000
0.014875 -0.029892 0.887000
0.036210 0.005126 0.882000
0.030881 -0.020124 0.875000
0.051891 -0.004259 0.871000
-0.004077 0.019964 0.880000
0.001696 -0.018198 0.869000
0.016418 -0.016466 0.872000
-0.021454 -0.019894 0.865000
0.012097 -0.015013 0.871000
0.024398 -0.022285 0.875000
-0.005170 0.009834 0.881000
-0.029198 -0.004628 0.873000
0.040475 -0.001405 0.880000
0.008522 -0.024003 0.872000
-0.031423 -0.015978 0.865000
-0.047784 0.006705 0.852000
0.043585 -0.012590 0.877000
0.035645 0.015724 0.886000
0.030539 0.017912 0.886000
0.019783 -0.000318 0.878000
0.002417 -0.025051 0.871000
0.026919 -0.011841 0.875000
0.026802 0.006222 0.883000
-0.003319 -0.011787 0.871000
0.036852 -0.001405 0.880000
0.038488 -0.011855 0.876000
-0.037562 -0.006737 0.867000
0.031269 0.012078 0.886000
0.006712 -0.022158 0.870000
0.009621 -0.025137 0.874000
-0.017380 0.005085 0.875000
0.000270 0.011660 0.882000
0.013702 0.005126 0.882000
0.018233 -0.013251 0.873000
-0.017380 0.005445 0.875000
-0.028864 -0.024111 0.863000
0.041608 0.013460 0.881000
-0.007346 0.013460 0.881000
0.038848 -0.012936 0.876000
0.028095 -0.003570 0.878000
0.011148 0.002219 0.881000
0.019126 0.008746 0.881000
-0.015866 -0.006768 0.871000
-0.019385 -0.013175 0.868000
0.022364 0.005114 0.880000
-0.019674 -0.022742 0.865000
-0.026561 -0.009972 0.869000
-0.027166 0.018452 0.877000
-0.019340 -0.025977 0.866000
0.026558 0.024139 0.887000
0.013686 0.001494 0.881000
0.005358 0.020395 0.883000
0.034512 0.013521 0.885000
-0.037549 -0.016163 0.875000
0.028295 -0.017922 0.873000
0.038488 -0.019787 0.876000
-0.040199 0.000401 0.870000
0.019693 -0.022619 0.874000
0.022931 -0.013626 0.874000
0.017332 -0.027183 0.882000
-0.030207 -0.006051 0.871000
-0.044751 -0.001029 0.868000
0.015464 -0.002127 0.879000
0.020389 -0.015407 0.873000
-0.046622 0.006339 0.850000
-0.026474 0.018835 0.878000
-0.021077 0.018856 0.879000
0.021398 -0.027639 0.885000
0.037876 0.020123 0.887000
0.039567 0.020782 0.884000
-0.021603 -0.002108 0.871000
-0.032416 -0.020203 0.863000
0.003131 -0.014996 0.870000
0.036333 0.013157 0.885000
-0.003724 0.012386 0.882000
-0.040060 -0.006380 0.867000
0.054194 0.000752 0.862000
0.011110 -0.004293 0.878000
0.034186 0.017548 0.886000
-0.029265 0.011928 0.875000
-0.031426 0.012648 0.875000
-0.036010 -0.015960 0.864000
-0.032073 0.001840 0.873000
-0.042014 -0.011520 0.878000
-0.007708 0.011284 0.881000
0.032681 -0.018684 0.875000
0.010822 0.011686 0.884000
-0.047840 -0.003118 0.853000
0.004220 -0.010736 0.873000
0.026139 -0.017563 0.873000
-0.013668 -0.014962 0.868000
-0.032999 -0.005680 0.869000
0.032071 -0.006100 0.878000
-0.014825 -0.029061 0.873000
-0.015455 -0.013890 0.868000
0.034707 -0.027429 0.890000
-0.045868 0.003536 0.849000
0.047101 0.002948 0.882000
0.013890 -0.019674 0.871000
-0.047840 -0.001011 0.853000
0.029346 0.000770 0.883000
-0.012727 0.002570 0.877000
-0.032961 0.022193 0.868000
-0.025575 0.023013 0.872000
-0.022782 0.007606 0.875000
-0.005533 0.009471 0.881000
-0.012211 -0.022056 0.866000
-0.039978 0.010822 0.873000
-0.022772 0.028747 0.861000
0.023344 -0.007889 0.876000
-0.007943 -0.019227 0.867000
0.023246 0.024841 0.886000
0.017008 0.024785 0.884000
0.025898 -0.004649 0.877000
-0.015615 0.007984 0.877000
-0.012338 -0.004999 0.875000
0.000266 -0.021059 0.869000
0.046738 0.001133 0.882000
0.008942 -0.005016 0.878000
-0.015994 0.020280 0.878000
0.041012 -0.012936 0.876000
0.018806 0.025847 0.883000
0.016114 -0.007520 0.875000
-0.033915 -0.016334 0.865000
-0.023617 -0.016353 0.866000
0.025013 0.015325 0.884000
0.038927 0.019735 0.886000
0.027892 0.003678 0.883000
0.019039 -0.002483 0.877000
-0.003665 -0.018892 0.868000
0.034186 0.018277 0.886000
-0.010597 0.010909 0.880000
-0.005828 -0.026485 0.871000
-0.027135 0.012662 0.876000
-0.002970 -0.009669 0.874000
-0.027506 -0.026659 0.865000
-0.005451 -0.019249 0.868000
-0.020122 -0.009972 0.869000
-0.026293 -0.004623 0.872000
0.029114 0.026329 0.887000
-0.029298 0.004730 0.876000
0.015916 0.019691 0.884000
0.019783 -0.024891 0.878000
-0.015994 0.015582 0.878000
-0.019651 0.029202 0.864000
0.032719 -0.010773 0.876000
-0.026836 0.017750 0.878000
0.024730 -0.012547 0.874000
0.037299 0.004400 0.882000
-0.034907 0.003632 0.872000
0.031198 0.003682 0.884000
0.032399 0.020853 0.887000
0.023557 0.016780 0.884000
0.012470 -0.023285 0.872000
0.049112 -0.001042 0.879000
0.046579 -0.008278 0.879000
-0.015490 -0.009625 0.870000
0.012250 0.005852 0.882000
0.021181 -0.005725 0.876000
0.048081 -0.004665 0.880000
-0.011854 -0.022412 0.866000
0.040067 -0.005022 0.879000
0.019289 -0.015390 0.872000
0.030904 0.010984 0.886000
0.016606 0.013475 0.882000
0.027373 -0.023807 0.878000
-0.041244 -0.011507 0.877000
0.015412 -0.006807 0.876000
-0.012005 -0.030277 0.877000
0.052367 -0.002455 0.867000
0.029445 0.011713 0.886000
0.019126 0.009834 0.881000
0.021132 -0.012547 0.874000
-0.019203 0.008696 0.876000
-0.026262 -0.035209 0.883000
0.035283 -0.008620 0.877000
0.018952 -0.013970 0.873000
0.002417 -0.013938 0.871000
-0.009817 -0.006439 0.875000
0.033783 0.028455 0.885000
0.024398 -0.008960 0.875000
-0.029490 -0.007844 0.871000
-0.037205 -0.007094 0.867000
0.048750 -0.007554 0.879000
0.041733 -0.013297 0.876000
-0.016374 0.017047 0.879000
-0.023222 0.019196 0.878000
-0.021404 0.029879 0.863000
0.025549 -0.029261 0.890000
-0.030345 0.012288 0.875000
0.004995 0.011673 0.883000
-0.009159 0.012009 0.881000
-0.033637 -0.009235 0.867000
0.039931 0.023329 0.884000
0.013578 -0.010389 0.874000
0.016225 0.025788 0.881000
0.008629 0.016034 0.883000
-0.015271 0.014137 0.878000
0.017756 0.022991 0.885000
-0.014876 0.021676 0.876000
-0.030746 -0.013502 0.866000
0.015324 -0.018240 0.871000
0.003127 -0.018913 0.869000
0.052189 -0.010413 0.876000
-0.045518 0.001831 0.869000
0.034512 0.026998 0.885000
0.003905 0.012400 0.883000
0.035161 0.009129 0.883000
-0.014139 -0.001757 0.875000
-0.036176 -0.030681 0.868000
0.004938 -0.011096 0.873000
0.031890 -0.025033 0.883000
-0.006620 0.014185 0.881000
-0.034667 -0.011007 0.866000
0.012222 -0.027121 0.880000
-0.008726 -0.008590 0.874000
-0.009500 -0.030708 0.879000
0.022364 0.003665 0.880000
0.014808 0.016398 0.883000
-0.026499 -0.012447 0.867000
-0.038855 0.007580 0.872000
-0.026323 0.002558 0.873000
0.051533 -0.003183 0.871000
-0.029253 -0.026983 0.864000
-0.021810 -0.023454 0.865000
0.028748 0.023043 0.887000
-0.024251 0.012662 0.876000
-0.005882 0.019941 0.879000
-0.045664 -0.010282 0.865000
0.002451 0.013854 0.883000
-0.033779 -0.035451 0.880000
-0.001521 -0.021750 0.868000
-0.033241 -0.012076 0.866000
0.016096 -0.008950 0.874000
0.029776 0.007329 0.885000
-0.013118 0.006917 0.879000
-0.026744 0.009407 0.875000
0.039931 0.009867 0.884000
0.015154 0.011297 0.882000
-0.008319 -0.025351 0.869000
0.035685 0.019758 0.887000
-0.025934 -0.001393 0.872000
-0.043521 0.011528 0.872000
-0.044854 0.002550 0.870000
-0.002269 -0.030415 0.881000
-0.009521 -0.031503 0.881000
0.034473 0.010231 0.884000
0.032363 0.019006 0.886000
-0.025029 0.017028 0.878000
-0.031786 0.011928 0.875000
-0.022448 0.011941 0.876000
0.034837 0.010595 0.884000
-0.012225 -0.016729 0.867000
-0.045623 0.010081 0.871000
-0.025341 0.026002 0.864000
0.007428 -0.021442 0.870000
-0.036281 -0.023018 0.862000
0.046888 -0.009352 0.878000
-0.034907 0.005068 0.872000
0.012456 -0.018957 0.871000
-0.016225 -0.006410 0.871000
-0.035380 -0.010294 0.866000
-0.016717 0.014137 0.878000
0.031705 0.024166 0.888000
-0.006880 -0.023179 0.868000
0.002448 0.020372 0.882000
-0.008016 -0.007159 0.875000
-0.025667 0.029524 0.863000
0.027622 0.011348 0.886000
0.011419 -0.024778 0.874000
0.036532 0.002219 0.881000
-0.034667 0.013728 0.875000
-0.028382 -0.030035 0.870000
0.037172 -0.003936 0.879000
-0.001184 0.012764 0.883000
0.015324 -0.017164 0.871000
0.038198 0.018641 0.886000
0.002811 0.009845 0.882000
-0.012046 0.009823 0.880000
0.020773 -0.010749 0.874000
-0.010549 0.020234 0.876000
-0.019362 -0.016015 0.867000
-0.031318 -0.002828 0.872000
0.017615 0.000043 0.878000
-0.019810 -0.003900 0.871000
0.035041 -0.002130 0.880000
0.000996 0.019283 0.882000
-0.028610 0.016286 0.877000
0.038475 0.023693 0.884000
-0.019452 -0.028994 0.871000
0.007086 -0.024362 0.872000
-0.024915 0.007238 0.874000
0.013203 -0.011814 0.873000
-0.029320 -0.014214 0.866000
-0.045922 0.005989 0.850000
0.028327 -0.013626 0.874000
0.017854 -0.020773 0.872000
-0.006904 -0.011070 0.871000
-0.004758 -0.011083 0.872000
-0.033520 -0.018093 0.864000
-0.045928 0.010427 0.870000
-0.027747 -0.035612 0.884000
-0.047433 -0.005218 0.852000
0.034122 -0.012922 0.875000
0.023921 0.014961 0.884000
-0.032491 0.024252 0.865000
-0.014740 -0.026751 0.868000
0.028255 0.003314 0.883000
-0.019992 0.018856 0.879000
-0.011895 -0.011402 0.869000
0.010376 -0.006815 0.877000
0.039746 -0.025906 0.888000
-0.020551 -0.000316 0.872000
0.015517 -0.027546 0.882000
-0.013311 -0.015319 0.868000
0.019422 -0.000679 0.878000
-0.030345 0.007246 0.875000
0.026953 -0.026637 0.888000
-0.046980 -0.009903 0.863000
-0.047524 0.012619 0.873000
-0.034231 -0.018804 0.864000
-0.039573 0.014399 0.872000
0.000270 0.015653 0.882000
-0.005888 -0.030381 0.880000
-0.031669 0.026297 0.862000
0.027288 0.021948 0.887000
-0.004742 -0.024636 0.869000
0.017254 -0.000318 0.878000
-0.015739 -0.033793 0.884000
-0.008696 -0.010712 0.871000
-0.015080 -0.025650 0.867000
0.033042 -0.019404 0.875000
-0.047266 -0.000657 0.849000
-0.029524 -0.004623 0.872000
0.011110 -0.005016 0.878000
0.052011 -0.007862 0.873000
-0.031101 0.018792 0.876000
-0.026474 0.018473 0.878000
0.049417 0.000043 0.878000
-0.019586 0.012677 0.877000
0.025290 0.006208 0.881000
0.030175 0.018277 0.886000
0.050805 -0.005732 0.877000
0.027134 0.004400 0.882000
-0.033433 0.000402 0.871000
0.052541 0.000398 0.864000
-0.018313 -0.012461 0.868000
-0.032999 -0.004249 0.869000
-0.040060 -0.007808 0.867000
-0.026408 -0.024139 0.864000
0.040429 -0.003936 0.879000
-0.029471 0.027297 0.860000
0.047410 0.000406 0.881000
-0.008319 -0.013191 0.869000
0.034109 0.011686 0.884000
0.023623 -0.016126 0.873000
0.007454 -0.025109 0.873000
-0.024112 0.023703 0.871000
0.036769 -0.007545 0.878000
0.048333 -0.012243 0.878000
-0.014155 0.022037 0.876000
0.035202 -0.019044 0.875000
0.036407 -0.021639 0.878000
0.028415 -0.027002 0.888000
-0.016903 -0.011045 0.869000
0.035034 -0.027032 0.889000
0.019289 -0.017543 0.872000
0.020623 0.014217 0.883000
0.003485 -0.019629 0.869000
-0.013311 -0.013533 0.868000
0.026528 -0.019742 0.874000
0.012627 0.013490 0.883000
0.007428 -0.017503 0.870000
-0.038408 0.000759 0.870000
-0.021801 -0.031431 0.879000
-0.017098 0.017047 0.879000
0.013749 -0.029096 0.885000
-0.018670 -0.013175 0.868000
-0.034509 0.000402 0.871000
0.030126 -0.017224 0.874000
-0.010084 -0.022795 0.867000
-0.011591 -0.028342 0.873000
-0.041893 -0.003887 0.868000
0.018213 -0.015390 0.872000
-0.004736 -0.020321 0.868000
0.022440 0.027301 0.883000
-0.010107 -0.014621 0.869000
-0.013684 -0.012118 0.869000
-0.043172 -0.010282 0.865000
0.023867 0.008393 0.882000
0.025898 -0.005371 0.877000
0.023220 0.028819 0.885000
0.025147 -0.006447 0.876000
0.041971 0.011284 0.881000
0.001359 0.010208 0.882000
0.009720 0.022576 0.883000
-0.038722 -0.001030 0.869000
0.027924 0.028787 0.884000
-0.006888 -0.014264 0.869000
-0.003311 -0.016767 0.869000
0.045132 -0.008278 0.879000
0.047357 -0.003578 0.880000
-0.015597 0.022037 0.876000
0.011367 -0.019293 0.870000
0.023451 0.004752 0.880000
-0.010441 -0.023152 0.867000
-0.035421 -0.008878 0.867000
-0.014859 -0.000317 0.875000
0.008163 -0.023644 0.872000
0.037939 -0.001405 0.880000
0.035320 0.024869 0.887000
0.037790 0.013885 0.885000
0.041781 -0.010063 0.877000
-0.017821 0.019580 0.879000
-0.034627 -0.014198 0.865000
0.015588 -0.029129 0.886000
0.030695 -0.023861 0.880000
0.041797 -0.023997 0.885000
0.015880 0.026907 0.882000
0.038444 -0.014722 0.875000
0.038488 -0.018705 0.876000
0.006354 -0.022158 0.870000
-0.004736 -0.018534 0.868000
0.022152 0.021194 0.886000
0.017816 -0.029560 0.888000
0.030436 0.000770 0.883000
0.042574 -0.024024 0.886000
0.045029 -0.011146 0.877000
-0.025964 0.002199 0.873000
0.017313 0.007296 0.881000
-0.021454 -0.019182 0.865000
-0.034667 -0.011363 0.866000
-0.033189 0.019468 0.874000
-0.018059 -0.029780 0.873000
-0.028056 -0.008561 0.871000
0.022545 -0.019000 0.873000
-0.026414 0.011941 0.876000
-0.006880 -0.016748 0.868000
-0.018017 -0.004976 0.871000
0.017495 -0.018979 0.872000
-0.046020 -0.009214 0.865000
0.042142 -0.011146 0.877000
0.033631 -0.000319 0.881000
-0.034867 0.021911 0.871000
-0.033280 -0.009949 0.867000
-0.026173 -0.011032 0.868000
-0.011309 0.017409 0.879000
-0.042396 0.005062 0.871000
0.046685 -0.002495 0.881000
-0.009403 -0.026455 0.870000
0.034379 -0.027827 0.891000
-0.005451 -0.023536 0.868000
0.015552 0.018236 0.884000
0.019082 0.001852 0.879000
-0.030276 -0.031936 0.873000
-0.033481 -0.019493 0.863000
-0.019810 -0.003542 0.871000
-0.044445 0.001474 0.869000
-0.024611 0.021315 0.876000
0.025770 0.018985 0.885000
-0.015921 0.000403 0.874000
-0.044547 0.005062 0.871000
-0.015615 0.005819 0.877000
-0.031210 -0.008183 0.869000
0.002061 -0.011801 0.872000
0.043059 0.006570 0.881000
0.010423 0.002582 0.881000
-0.023010 0.024392 0.870000
0.054194 -0.002441 0.862000
-0.029117 0.027651 0.860000
0.020237 0.012386 0.882000
0.029709 0.001497 0.883000
-0.032604 -0.008174 0.868000
-0.000456 0.016742 0.882000
-0.010835 -0.010341 0.870000
0.006812 0.019669 0.883000
0.022161 -0.018620 0.872000
0.018275 -0.006799 0.875000
-0.033908 0.009396 0.874000
0.015189 0.019691 0.884000
0.007539 -0.029394 0.883000
0.036005 -0.008981 0.877000
-0.041941 0.014349 0.869000
0.015826 -0.001042 0.879000
0.017675 0.008383 0.881000
-0.013326 -0.011760 0.869000
0.018614 -0.023339 0.874000
-0.036407 -0.029507 0.865000
-0.009169 -0.031902 0.882000
-0.043063 0.002908 0.870000
0.016399 -0.018240 0.871000
0.019693 -0.009669 0.874000
-0.025458 -0.028895 0.868000
-0.022062 0.009047 0.875000
-0.024001 -0.013160 0.867000
0.033478 -0.008259 0.877000
0.039567 0.020419 0.884000
-0.011296 0.018835 0.878000
-0.025014 -0.025947 0.865000
0.019466 0.006201 0.880000
-0.020433 -0.016015 0.867000
-0.015615 0.005097 0.877000
0.052784 -0.004959 0.868000
-0.006888 -0.024994 0.869000
0.006766 -0.006454 0.877000
-0.040557 0.000401 0.870000
0.014265 -0.015748 0.872000
-0.033753 0.022960 0.870000
0.044047 0.006917 0.879000
0.010447 0.008766 0.883000
-0.030495 0.022576 0.869000
-0.006523 -0.017463 0.868000
0.053608 -0.004936 0.864000
-0.023422 0.000402 0.872000
0.009720 0.009129 0.883000
0.051534 0.003247 0.865000
0.013079 -0.031057 0.889000
-0.020099 -0.012818 0.868000
-0.029232 -0.000317 0.874000
0.020366 -0.020055 0.872000
-0.006258 0.012735 0.881000
0.008561 -0.008970 0.876000
0.024871 0.001491 0.879000
0.034551 0.017183 0.886000
-0.009024 -0.015319 0.868000
-0.016132 -0.022412 0.866000
-0.037822 -0.033013 0.873000
-0.028414 -0.008202 0.871000
0.013354 0.009856 0.883000
0.024701 -0.015767 0.873000
0.026771 0.005489 0.882000
-0.039214 0.017988 0.872000
-0.034667 -0.012789 0.866000
0.031925 -0.018303 0.874000
-0.030320 -0.019516 0.864000
0.024649 0.014961 0.884000
0.035605 0.028091 0.885000
-0.032809 -0.026983 0.864000
0.025290 0.004757 0.881000
0.031961 -0.019404 0.875000
0.000981 -0.018198 0.869000
0.029877 0.025628 0.888000
0.017313 0.006933 0.881000
0.020460 -0.004283 0.876000
0.034842 -0.016523 0.875000
-0.046871 -0.008462 0.861000
0.014248 -0.020032 0.871000
0.025061 -0.019000 0.873000
0.014791 0.010571 0.882000
0.041339 0.008039 0.883000
-0.024687 -0.027402 0.866000
0.041199 -0.002854 0.880000
-0.008786 0.007649 0.880000
0.050904 -0.012341 0.885000
-0.000450 -0.016767 0.869000
0.026559 -0.012201 0.875000
0.042502 -0.012951 0.877000
-0.004036 -0.012146 0.871000
0.036822 -0.026271 0.888000
0.040976 0.012764 0.883000
-0.019696 -0.025620 0.866000
-0.013841 0.011259 0.879000
-0.031386 -0.026983 0.864000
-0.008319 -0.012833 0.869000
-0.009478 0.021701 0.877000
-0.035217 -0.022309 0.862000
0.025595 0.000043 0.879000
-0.021146 -0.013517 0.867000
0.006774 -0.005016 0.878000
0.052845 -0.006395 0.869000
-0.031031 -0.027339 0.864000
0.001354 -0.028899 0.879000
-0.016469 -0.021674 0.865000
0.009356 0.021849 0.883000
-0.032566 -0.009235 0.867000
0.013460 -0.031092 0.890000
0.041420 -0.020170 0.877000
0.011380 -0.020032 0.871000
-0.004409 -0.008950 0.874000
-0.043014 -0.001388 0.869000
0.003856 -0.025080 0.872000
0.023623 -0.015767 0.873000
-0.033357 -0.004964 0.869000
-0.027150 -0.018470 0.865000
-0.024306 0.016666 0.878000
0.038475 0.024057 0.884000
-0.018627 -0.018492 0.866000
-0.020331 0.016666 0.878000
0.023272 0.023774 0.887000
0.032326 0.014978 0.885000
-0.016299 0.003284 0.875000
-0.015419 -0.022412 0.866000
0.016777 -0.015748 0.872000
0.012278 0.019327 0.884000
-0.003724 0.013112 0.882000
-0.027475 0.025646 0.864000
-0.046622 0.006689 0.850000
-0.026980 -0.008561 0.871000
0.021763 0.020442 0.885000
0.032326 0.027727 0.885000
-0.029332 0.015925 0.877000
-0.033520 -0.027695 0.864000
0.025211 -0.029660 0.891000
0.039795 -0.022800 0.881000
0.034719 0.000044 0.881000
0.008629 0.022213 0.883000
-0.029574 -0.021624 0.863000
0.003918 0.009525 0.886000
-0.036176 -0.005316 0.868000
-0.019181 0.005805 0.875000
-0.013434 0.000043 0.876000
-0.002596 -0.016052 0.869000
0.028319 0.029548 0.885000
0.012627 0.010946 0.883000
0.036615 0.008402 0.883000
-0.004026 -0.024278 0.869000
0.041420 -0.019448 0.877000
0.008144 -0.021800 0.870000
0.053129 -0.000667 0.862000
-0.045814 0.000740 0.848000
0.020122 -0.001761 0.877000
0.026588 -0.027002 0.888000
0.040067 -0.003936 0.879000
0.046941 -0.008639 0.879000
-0.015544 -0.002831 0.873000
0.016969 0.012749 0.882000
-0.049054 -0.000312 0.862000
-0.038232 -0.010650 0.866000
-0.028905 -0.032369 0.875000
-0.027862 -0.017758 0.865000
0.023397 -0.001041 0.878000
0.015171 0.017488 0.883000
-0.031604 -0.004612 0.870000
-0.028217 0.020594 0.876000
0.005358 0.017488 0.883000
-0.010177 -0.004639 0.875000
-0.049168 -0.003513 0.864000
-0.021122 -0.018492 0.866000
-0.021479 -0.025977 0.866000
0.024677 0.018985 0.885000
0.029081 0.010619 0.886000
0.006085 0.020032 0.883000
-0.016698 0.011594 0.877000
0.020099 -0.006807 0.876000
-0.041415 0.011182 0.873000
0.034161 -0.009691 0.876000
-0.038541 0.009026 0.873000
0.015517 0.013112 0.882000
0.025828 0.025234 0.887000
0.034278 -0.022749 0.879000
0.009377 0.003686 0.885000
0.006456 0.014233 0.884000
-0.037377 0.002194 0.871000
-0.040337 0.010104 0.873000
-0.009403 -0.012132 0.870000
-0.046408 0.007820 0.859000
-0.008676 -0.013191 0.869000
0.002087 0.012400 0.883000
0.025770 0.012792 0.885000
-0.012005 0.019896 0.877000
0.050758 0.002550 0.870000
-0.025634 0.004720 0.874000
-0.010810 -0.016748 0.868000
0.031998 -0.021229 0.876000
-0.029985 0.012288 0.875000
0.016758 -0.018598 0.871000
0.028392 -0.007889 0.876000
0.039976 0.015706 0.885000
0.008871 -0.022542 0.871000
-0.029265 0.003645 0.875000
0.016512 -0.004288 0.877000
-0.004785 0.021340 0.877000
-0.004082 0.016361 0.881000
0.023531 0.012037 0.883000
-0.012924 -0.022056 0.866000
0.000623 -0.016410 0.869000
-0.012654 -0.007135 0.872000
0.016456 -0.023699 0.874000
0.038707 0.000406 0.881000
-0.030380 0.013744 0.876000
0.014825 -0.028336 0.884000
0.010423 0.002944 0.881000
-0.002998 0.010571 0.882000
-0.013810 0.001126 0.877000
0.021541 -0.004644 0.876000
0.007176 0.010946 0.883000
-0.019765 -0.028213 0.869000
0.042019 -0.022826 0.882000
0.048026 0.004385 0.879000
0.024230 0.008030 0.882000
0.011148 0.004395 0.881000
-0.024544 0.029455 0.861000
0.044147 0.005483 0.881000
-0.003719 0.014548 0.881000
-0.023918 -0.020938 0.864000
0.015517 0.013475 0.882000
0.018359 0.001129 0.879000
0.029081 0.019371 0.886000
0.035360 0.022338 0.888000
-0.021171 -0.010317 0.868000
0.001698 -0.014996 0.870000
-0.043322 -0.003887 0.868000
0.035685 0.019393 0.887000
-0.031066 0.008686 0.875000
-0.000093 0.014581 0.883000
0.003145 -0.010029 0.874000
0.024010 -0.021180 0.874000
0.050214 0.001121 0.873000
0.033478 -0.021614 0.877000
0.016777 -0.016825 0.872000
0.012222 0.000768 0.880000
0.035565 0.026968 0.884000
-0.006180 -0.026097 0.870000
-0.041083 -0.009224 0.866000
-0.046484 0.011462 0.867000
0.009293 -0.026668 0.877000
-0.036744 0.008307 0.873000
-0.024829 -0.003183 0.871000
0.014965 -0.020749 0.871000
-0.011868 -0.019227 0.867000
0.022881 0.021559 0.886000
-0.012338 -0.003198 0.875000
0.030916 -0.011134 0.876000
-0.010200 0.019535 0.877000
-0.019268 0.019941 0.879000
0.030175 0.010984 0.886000
-0.020716 0.019218 0.879000
-0.006530 -0.014264 0.869000
0.047410 0.004032 0.881000
-0.012211 -0.021699 0.866000
0.032654 0.009867 0.884000
-0.010959 0.011996 0.880000
-0.016188 -0.010329 0.869000
0.011380 -0.022183 0.871000
0.019356 -0.008240 0.875000
0.024203 0.006933 0.881000
0.037833 0.015360 0.886000
0.009356 0.010220 0.883000
-0.020814 -0.010675 0.868000
-0.005507 0.022062 0.877000
-0.023946 -0.019538 0.865000
0.015700 -0.020773 0.872000
0.024093 -0.004288 0.877000
-0.021503 -0.014588 0.867000
-0.003307 -0.019606 0.868000
-0.018605 -0.022386 0.865000
-0.041488 -0.004953 0.867000
-0.013073 -0.000317 0.876000
-0.027119 -0.023072 0.864000
0.036283 -0.015082 0.875000
-0.036763 -0.015978 0.865000
-0.004087 0.013475 0.882000
0.026134 0.012792 0.885000
-0.030888 -0.006402 0.870000
0.028018 0.012821 0.887000
0.023477 -0.025701 0.881000
0.007548 0.013142 0.884000
-0.001908 0.012023 0.882000
-0.030355 -0.016690 0.865000
-0.040199 0.000759 0.870000
0.004563 -0.022516 0.870000
0.045081 0.008716 0.878000
-0.022626 0.025079 0.869000
0.009346 0.006578 0.882000
-0.038094 0.004703 0.871000
0.038519 0.022263 0.885000
-0.034628 0.018749 0.874000
-0.004753 -0.011787 0.871000
0.034186 0.026299 0.886000
-0.029298 0.006533 0.876000
0.033839 -0.021975 0.877000
0.006812 0.016034 0.883000
-0.046217 -0.003103 0.849000
-0.027135 0.011941 0.876000
0.044509 -0.002132 0.881000
-0.036426 0.010475 0.874000
0.032395 -0.008259 0.877000
0.030436 0.001134 0.883000
-0.024112 -0.004617 0.871000
0.020328 0.024111 0.886000
-0.031963 -0.030752 0.870000
0.043059 0.000769 0.881000
-0.027761 -0.002831 0.873000
0.031998 -0.011494 0.876000
-0.024870 0.028359 0.860000
-0.047911 0.010748 0.867000
0.028949 0.000044 0.882000
0.002811 0.010571 0.882000
-0.036806 -0.019561 0.866000
0.034797 0.008039 0.883000
-0.025756 -0.014927 0.866000
0.023193 0.016053 0.884000
-0.017181 -0.023098 0.865000
-0.033126 -0.021624 0.863000
-0.029608 -0.019516 0.864000
-0.003307 -0.019249 0.868000
0.029902 -0.004654 0.878000
-0.048417 0.003570 0.857000
0.038839 -0.024333 0.884000
0.041733 -0.017263 0.876000
-0.015994 0.013775 0.878000
-0.000450 -0.018198 0.869000
0.023840 0.005845 0.881000
-0.023583 0.018112 0.878000
0.040295 0.012414 0.884000
0.025449 -0.014346 0.874000
0.037020 0.009867 0.884000
0.042551 -0.007907 0.878000
-0.049111 -0.002089 0.863000
0.004263 0.021461 0.882000
-0.008062 0.017429 0.880000
-0.045814 0.001438 0.848000
0.010072 -0.028635 0.882000
-0.018162 -0.031757 0.878000
0.042815 -0.017984 0.876000
-0.025810 -0.034003 0.880000
-0.038212 -0.035532 0.882000
0.036698 0.026998 0.885000
-0.005895 0.015273 0.881000
-0.025159 -0.008193 0.870000
0.037577 -0.001405 0.880000
-0.002974 -0.008240 0.875000
0.043274 -0.008991 0.878000
-0.031779 -0.016334 0.865000
-0.007346 -0.031140 0.881000
-0.031532 -0.008531 0.868000
0.038388 0.003674 0.882000
0.031565 -0.018303 0.874000
0.015120 0.002217 0.880000
0.027987 0.019371 0.886000
-0.018545 -0.032517 0.879000
-0.020692 0.020641 0.878000
-0.015419 -0.021343 0.866000
-0.001182 0.014201 0.882000
0.032756 -0.007176 0.877000
-0.023563 -0.022361 0.864000
0.008275 0.015325 0.884000
0.012613 0.005852 0.882000
0.048805 0.000043 0.880000
0.024342 -0.015767 0.873000
0.029844 0.021583 0.887000
0.000997 0.013490 0.883000
-0.020053 -0.018135 0.866000
0.028351 0.011713 0.886000
0.044923 0.002222 0.882000
0.037896 -0.022025 0.879000
0.034916 0.016818 0.886000
0.042238 -0.006107 0.879000
0.029810 0.016818 0.886000
-0.029591 0.000043 0.874000
-0.012324 -0.005353 0.874000
0.036978 0.008766 0.883000
-0.026805 0.015564 0.877000
0.037104 0.023747 0.886000
0.035969 0.013521 0.885000
0.021350 0.014217 0.883000
-0.025667 0.026327 0.863000
0.013702 0.005489 0.882000
0.034629 0.022338 0.888000
0.038198 0.022288 0.886000
-0.009159 0.012372 0.881000
-0.014927 0.017771 0.879000
0.018338 -0.000318 0.878000
-0.042754 0.005062 0.871000
-0.012939 -0.017442 0.867000
0.040567 -0.023189 0.882000
0.021205 -0.003927 0.877000
0.010447 0.007676 0.883000
-0.026713 0.004720 0.874000
0.023651 -0.012907 0.874000
0.021082 -0.028797 0.887000
-0.020433 -0.014945 0.867000
-0.013747 -0.005706 0.873000
0.042286 0.010909 0.880000
0.010447 0.018215 0.883000
-0.013684 -0.011045 0.869000
-0.026438 -0.017402 0.865000
0.022545 -0.015407 0.873000
-0.027073 0.003281 0.874000
0.017175 -0.010029 0.874000
0.004210 -0.012504 0.871000
0.050457 0.002194 0.871000
0.013702 0.024729 0.882000
-0.031101 0.015186 0.876000
0.015189 0.024057 0.884000
0.020670 0.018620 0.885000
0.017615 -0.000679 0.878000
-0.027042 -0.002113 0.873000
-0.016845 -0.024194 0.866000
-0.016698 0.010511 0.877000
-0.036365 -0.016671 0.864000
-0.003719 0.017448 0.881000
-0.041775 0.011900 0.873000
-0.021751 0.012677 0.877000
-0.027464 0.010487 0.875000
0.032728 0.016818 0.886000
0.044872 0.005120 0.881000
-0.022878 -0.018470 0.865000
0.000633 0.012764 0.883000
0.031269 0.027393 0.886000
0.028392 -0.022311 0.876000
0.015517 0.009482 0.882000
0.014982 -0.014672 0.872000
0.005298 -0.010736 0.873000
-0.013841 0.018494 0.879000
-0.030706 0.009047 0.875000
-0.008686 -0.011774 0.870000
-0.000813 -0.009320 0.875000
-0.005808 -0.018534 0.868000
0.000267 -0.010736 0.873000
-0.013480 0.010173 0.879000
-0.046599 -0.006652 0.856000
0.016550 0.000767 0.879000
-0.014706 -0.022056 0.866000
0.014395 -0.001043 0.880000
0.006449 0.017852 0.883000
-0.028349 -0.029643 0.869000
-0.022931 0.025735 0.867000
-0.014723 -0.015658 0.867000
-0.012380 0.004741 0.878000
-0.023918 -0.022361 0.864000
-0.019719 -0.027077 0.867000
-0.021885 -0.011389 0.868000
0.031269 0.013536 0.886000
-0.048997 0.005358 0.861000
0.026016 0.004032 0.881000
0.032801 0.025262 0.888000
-0.008666 -0.016748 0.868000
0.015189 -0.028336 0.884000
-0.010119 -0.011415 0.870000
-0.011882 -0.026037 0.868000
-0.023672 -0.011389 0.868000
-0.003694 -0.008600 0.875000
-0.018545 0.018856 0.879000
0.005285 -0.023976 0.871000
-0.034588 0.006151 0.873000
0.001714 0.023171 0.878000
0.012991 0.016398 0.883000
-0.006935 -0.006799 0.875000
-0.012394 0.013429 0.879000
0.028392 -0.009691 0.876000
-0.050211 -0.002481 0.876000
0.027473 -0.029727 0.893000
0.008983 0.022914 0.882000
0.020366 -0.017902 0.872000
-0.016736 0.017409 0.879000
0.034758 -0.023915 0.882000
0.037961 -0.026667 0.889000
0.006099 0.009514 0.885000
-0.018885 0.017028 0.878000
0.004234 -0.007528 0.876000
-0.031669 0.026651 0.862000
0.022517 0.021194 0.886000
0.014428 0.006941 0.882000
-0.042804 0.009374 0.872000
-0.014366 -0.017086 0.867000
-0.030924 -0.004617 0.871000
0.012139 -0.024418 0.874000
-0.033837 -0.025531 0.863000
0.028785 -0.006815 0.877000
0.007127 -0.006454 0.877000
-0.009873 0.013807 0.880000
0.038198 0.021194 0.886000
0.022339 0.002214 0.879000
0.010305 -0.017164 0.871000
-0.028541 -0.019871 0.864000
-0.016641 0.001482 0.874000
0.018930 -0.016107 0.872000
0.030939 0.027059 0.887000
-0.004796 0.019941 0.879000
0.025069 0.019371 0.886000
0.042019 0.008030 0.882000
0.013686 0.025788 0.881000
-0.025188 -0.003900 0.871000
0.011873 -0.027877 0.881000
0.021010 0.015689 0.884000
-0.019901 0.023452 0.875000
0.033004 -0.018303 0.874000
-0.043272 -0.005667 0.867000
-0.033625 0.016268 0.876000
0.048639 0.004375 0.877000
0.014081 0.016398 0.883000
0.020670 0.025541 0.885000
-0.033433 0.020835 0.871000
0.019334 -0.022619 0.874000
0.010015 -0.006815 0.877000
-0.020307 0.022423 0.877000
0.034032 0.003311 0.882000
0.013354 0.015671 0.883000
-0.037875 -0.009937 0.866000
0.014412 0.002944 0.881000
0.045494 -0.012981 0.879000
-0.000093 -0.007889 0.876000
0.050386 -0.002841 0.876000
-0.020742 -0.020606 0.865000
-0.026652 -0.003187 0.872000
0.025828 -0.026972 0.887000
0.035645 0.015360 0.886000
-0.012310 -0.006784 0.873000
0.017391 0.023720 0.885000
-0.001544 0.018174 0.881000
-0.029165 -0.006776 0.872000
-0.018121 0.010499 0.876000
0.027373 -0.003209 0.878000
0.022984 -0.029627 0.890000
-0.038094 0.017250 0.871000
-0.006173 -0.024994 0.869000
0.053999 -0.010484 0.882000
-0.043629 -0.006023 0.867000
-0.023781 0.023372 0.872000
0.052250 -0.006768 0.871000
0.036010 -0.025483 0.886000
0.032253 0.001497 0.883000
0.039886 0.021486 0.883000
0.032980 0.005132 0.883000
-0.036218 -0.003891 0.869000
-0.019093 -0.005334 0.871000
-0.017618 -0.009972 0.869000
-0.036534 -0.004959 0.868000
-0.036385 0.009385 0.873000
-0.014350 -0.020630 0.866000
-0.012019 0.003296 0.878000
0.037853 -0.006100 0.878000
-0.004082 0.015998 0.881000
0.024120 -0.000318 0.878000
-0.037119 -0.013130 0.865000
0.023036 -0.002125 0.878000
-0.009873 0.012358 0.880000
0.000994 -0.029294 0.880000
0.015412 -0.024834 0.876000
0.011860 0.000406 0.880000
0.040930 0.015290 0.882000
0.049112 0.000405 0.879000
-0.010223 0.016685 0.879000
-0.018313 -0.027466 0.868000
-0.019159 0.005439 0.874000
-0.039259 0.009385 0.873000
0.029776 0.008057 0.885000
-0.031742 -0.018449 0.864000
0.028145 -0.024893 0.891000
0.023894 0.011310 0.883000
-0.023234 -0.018470 0.865000
-0.042299 0.014349 0.869000
-0.035695 -0.029507 0.865000
0.018974 -0.011108 0.874000
-0.010597 0.009823 0.880000
0.030039 -0.001408 0.882000
0.024705 0.026299 0.886000
-0.003694 -0.028047 0.875000
-0.042493 0.010104 0.873000
0.031339 0.023069 0.888000
-0.000092 -0.026157 0.872000
0.006441 0.022550 0.882000
0.030471 0.002954 0.884000
-0.008424 0.015980 0.880000
0.010293 -0.018935 0.870000
-0.015976 0.011955 0.877000
0.008144 -0.017861 0.870000
-0.032183 0.014105 0.876000
0.031601 -0.020484 0.875000
0.035243 -0.012215 0.876000
0.021467 -0.013251 0.873000
-0.007346 0.009834 0.881000
-0.015254 0.005097 0.877000
0.029766 -0.013986 0.874000
0.050140 -0.006823 0.878000
0.030243 0.023435 0.888000
0.013733 0.018963 0.884000
0.012642 -0.029063 0.884000
-0.025341 -0.022005 0.864000
-0.006975 0.015618 0.880000
0.020787 -0.029993 0.890000
0.026980 -0.023058 0.877000
-0.036385 0.009745 0.873000
0.048223 0.006173 0.876000
0.007094 -0.010736 0.873000
-0.043780 0.012576 0.870000
-0.008746 0.020955 0.876000
0.001359 0.016016 0.882000
0.022052 0.009482 0.882000
0.020214 0.007296 0.881000
-0.032109 0.003640 0.874000
0.016059 -0.020773 0.872000
-0.010107 -0.013191 0.869000
0.003541 0.013127 0.883000
-0.031423 -0.016690 0.865000
-0.036933 -0.002461 0.869000
0.039433 0.000769 0.881000
0.017915 -0.006439 0.875000
0.005358 0.019305 0.883000
0.033092 0.027029 0.886000
0.026923 0.023774 0.887000
-0.034707 -0.010306 0.867000
0.006727 -0.011801 0.872000
0.024900 0.002217 0.880000
0.049835 -0.006830 0.879000
-0.017300 -0.005334 0.871000
0.026888 -0.014705 0.874000
-0.016374 0.017409 0.879000
-0.022704 0.001479 0.872000
0.023264 -0.016844 0.873000
-0.020386 -0.020962 0.865000
0.002054 -0.022132 0.869000
-0.018691 -0.008541 0.869000
-0.026143 -0.028504 0.867000
-0.030741 0.019513 0.876000
-0.029219 0.028458 0.863000
-0.030924 -0.005334 0.871000
0.007176 0.011673 0.883000
-0.005495 -0.007520 0.875000
-0.035654 -0.017026 0.864000
0.011135 -0.027483 0.880000
0.014281 -0.012173 0.873000
-0.028447 -0.006417 0.872000
0.021615 0.001129 0.879000
-0.020957 0.005799 0.874000
-0.028442 -0.035572 0.883000
-0.028447 -0.006776 0.872000
0.028360 -0.012201 0.875000
-0.011283 0.001126 0.877000
-0.020598 0.004720 0.874000
-0.029557 -0.004269 0.873000
-0.019268 0.017409 0.879000
0.040659 0.014961 0.884000
-0.036786 0.011195 0.874000
-0.045823 0.011832 0.868000
-0.013637 -0.022769 0.866000
-0.011671 0.016685 0.879000
-0.025399 -0.014927 0.866000
0.004916 -0.020702 0.869000
0.017372 0.017872 0.884000
-0.016622 -0.000676 0.873000
-0.018670 -0.013533 0.868000
0.023264 -0.014329 0.873000
0.040659 0.012778 0.884000
-0.025361 0.015564 0.877000
-0.033481 -0.024821 0.863000
-0.042656 0.014349 0.869000
-0.020957 0.005079 0.874000
-0.035968 -0.020914 0.863000
0.014395 0.000043 0.880000
-0.014859 -0.000677 0.875000
0.020328 0.023017 0.886000
-0.000820 0.008766 0.883000
-0.038320 -0.005673 0.868000
-0.035707 0.021986 0.874000
0.021084 -0.016107 0.872000
0.032071 -0.004654 0.878000
-0.030746 -0.014214 0.866000
0.016024 -0.030726 0.890000
0.011135 0.025035 0.880000
-0.023222 0.018473 0.878000
-0.010959 0.009098 0.880000
0.039209 -0.019066 0.876000
0.046165 -0.012605 0.878000
-0.034943 -0.017382 0.864000
0.046323 0.004395 0.881000
-0.029117 0.028005 0.860000
0.013369 0.023329 0.884000
-0.023037 -0.003183 0.871000
-0.015097 -0.013890 0.868000
-0.029659 0.014105 0.876000
-0.044699 -0.004239 0.867000
0.000626 -0.011442 0.872000
0.036283 -0.019044 0.875000
-0.022499 0.016305 0.878000
-0.033227 0.013368 0.875000
0.053028 -0.008571 0.872000
-0.041083 -0.008868 0.866000
-0.028475 0.026297 0.862000
0.038171 -0.020892 0.877000
-0.021986 -0.000675 0.872000
0.030073 0.001861 0.883000
-0.036323 -0.018428 0.863000
0.030765 -0.001772 0.882000
0.027734 -0.023446 0.878000
-0.030706 0.012288 0.875000
0.026919 -0.021925 0.875000
-0.021049 0.028103 0.863000
0.008590 -0.027452 0.879000
-0.023617 -0.014927 0.866000
-0.004077 0.019602 0.880000
0.053839 0.002526 0.862000
-0.026713 0.021627 0.874000
0.025653 0.005483 0.881000
-0.031031 -0.019871 0.864000
0.008512 -0.022542 0.871000
-0.001526 -0.012146 0.871000
-0.029625 0.020571 0.875000
-0.034192 -0.020559 0.863000
-0.032183 0.016989 0.876000
0.038848 -0.013657 0.876000
-0.033559 -0.015622 0.865000
0.037020 0.010231 0.884000
0.039524 -0.016883 0.875000
-0.030355 -0.017046 0.865000
-0.012924 -0.021699 0.866000
-0.031426 0.005085 0.875000
0.020868 0.000043 0.878000
-0.026083 0.016647 0.877000
-0.020574 0.023758 0.873000
0.014428 0.010934 0.882000
0.022623 -0.006086 0.876000
0.002770 -0.018556 0.869000
-0.039437 -0.002818 0.869000
-0.004064 0.022062 0.877000
-0.002251 -0.009669 0.874000
0.015376 -0.024058 0.874000
-0.034192 -0.019138 0.863000
0.036852 -0.001043 0.880000
0.043175 -0.017984 0.876000
0.029440 -0.011841 0.875000
-0.033954 -0.011363 0.866000
0.000628 -0.008600 0.875000
-0.047784 0.001445 0.852000
-0.014631 -0.033392 0.883000
0.008993 0.010946 0.883000
0.006727 -0.012518 0.872000
-0.035503 -0.002461 0.869000
0.025013 0.027332 0.884000
0.025740 0.029151 0.884000
-0.046732 -0.011706 0.865000
0.049248 0.007606 0.875000
0.049112 -0.008278 0.879000
0.045960 -0.002857 0.881000
-0.037919 -0.007808 0.867000
-0.019071 -0.007119 0.870000
-0.038633 -0.007808 0.867000
-0.032566 -0.029575 0.867000
0.051057 0.001831 0.869000
0.024786 -0.008249 0.876000
0.040291 -0.016181 0.876000
-0.028382 -0.009267 0.870000
-0.011657 0.005103 0.878000
-0.011309 0.006194 0.879000
-0.005158 0.019941 0.879000
-0.018983 -0.018848 0.866000
0.035644 -0.008981 0.877000
-0.036870 -0.034209 0.876000
-0.029466 -0.035129 0.881000
-0.018670 -0.027108 0.868000
0.036333 0.014249 0.885000
-0.021439 0.019941 0.879000
-0.034667 0.014449 0.875000
-0.025693 0.013744 0.876000
0.010083 0.009856 0.883000
0.010095 0.021510 0.884000
-0.005457 -0.013906 0.869000
-0.033357 -0.004607 0.869000
-0.017221 -0.026007 0.867000
0.023948 -0.027275 0.885000
0.054194 -0.001377 0.862000
-0.037506 0.011914 0.874000
0.027653 0.022678 0.887000
0.030107 0.028423 0.884000
0.039976 0.016071 0.885000
-0.029320 -0.028472 0.866000
0.035806 0.003307 0.881000
-0.033876 -0.017382 0.864000
-0.035968 -0.026597 0.863000
0.030939 -0.025146 0.887000
0.000266 -0.023590 0.870000
-0.018249 -0.023098 0.865000
0.041246 0.016723 0.881000
0.042019 0.007304 0.882000
-0.018885 0.020641 0.878000
-0.033831 0.002196 0.872000
0.030005 -0.002495 0.881000
0.030505 0.027727 0.885000
-0.017020 0.005445 0.875000
-0.010549 -0.002841 0.876000
-0.023835 0.005799 0.874000
-0.025605 0.001840 0.873000
-0.006229 0.020979 0.877000
-0.024972 -0.030243 0.876000
-0.043986 -0.011376 0.867000
-0.016603 -0.002469 0.872000
0.002097 -0.032083 0.887000
0.014575 -0.031127 0.891000
0.032681 -0.019044 0.875000
0.012991 0.011310 0.883000
-0.028023 -0.009267 0.870000
-0.022860 0.018112 0.878000
-0.035104 -0.004959 0.868000
-0.033126 -0.026597 0.863000
-0.007970 -0.012132 0.870000
-0.034707 -0.009949 0.867000
0.022339 0.003299 0.879000
0.037363 -0.015082 0.875000
0.025868 -0.007889 0.876000
0.039209 -0.012936 0.876000
-0.020456 -0.011746 0.868000
-0.030675 0.024580 0.864000
0.038893 -0.011146 0.877000
0.022983 -0.023392 0.876000
0.026950 -0.006807 0.876000
0.032321 -0.013282 0.875000
0.041876 -0.005745 0.879000
0.001339 -0.018198 0.869000
-0.012394 0.013068 0.879000
0.007795 -0.022542 0.871000
0.042745 0.002585 0.882000
0.023584 0.018985 0.885000
0.045751 -0.011507 0.877000
-0.043578 -0.008868 0.866000
0.018848 0.024448 0.885000
0.048443 0.002941 0.880000
-0.030495 -0.008899 0.869000
-0.027761 -0.001753 0.873000
0.000269 -0.029294 0.880000
-0.028541 -0.025205 0.864000
0.006037 -0.008249 0.876000
-0.043729 0.013277 0.869000
-0.000092 -0.025798 0.872000
0.043323 -0.020940 0.879000
-0.035226 0.021911 0.871000
0.008942 -0.004293 0.878000
0.026919 -0.010401 0.875000
-0.009500 0.018856 0.879000
-0.023918 -0.023783 0.864000
-0.035217 -0.024792 0.862000
-0.019878 0.005439 0.874000
0.024649 0.028787 0.884000
-0.033357 -0.005322 0.869000
0.033839 -0.021614 0.877000
0.032363 0.018277 0.886000
-0.034430 -0.031074 0.869000
0.053129 0.002526 0.862000
0.001339 -0.018913 0.869000
-0.009413 -0.027202 0.871000
0.042912 -0.009714 0.878000
-0.007952 -0.015676 0.868000
-0.012954 -0.026037 0.868000
0.000267 -0.010377 0.873000
0.037215 -0.002130 0.880000
0.015500 0.004032 0.881000
-0.010501 -0.027951 0.872000
-0.002632 0.008746 0.881000
-0.032061 -0.025531 0.863000
-0.018142 0.011594 0.877000
0.010822 0.022238 0.884000
0.004263 0.020735 0.882000
-0.047082 0.007757 0.852000
0.038562 0.021194 0.886000
0.012470 -0.013954 0.872000
0.046473 0.006541 0.877000
-0.018842 -0.030964 0.876000
-0.005451 -0.019606 0.868000
-0.013810 0.002209 0.877000
-0.033227 0.012648 0.875000
0.020725 -0.019337 0.872000
-0.030888 -0.007835 0.870000
0.001698 -0.016429 0.870000
0.011123 -0.003213 0.879000
-0.024985 -0.021649 0.864000
-0.012969 -0.011402 0.869000
-0.017598 -0.012818 0.868000
-0.011644 0.002209 0.877000
0.050939 0.005039 0.867000
-0.022499 0.020641 0.878000
-0.030706 0.003284 0.875000
0.010095 0.020419 0.884000
-0.020145 -0.007119 0.870000
0.009599 -0.023644 0.872000
-0.019674 -0.023098 0.865000
-0.021810 0.026744 0.865000
-0.041796 -0.008155 0.866000
0.019061 -0.025252 0.878000
-0.029608 -0.020583 0.864000
0.020366 -0.016466 0.872000
0.045286 0.002948 0.882000
0.047972 0.005464 0.878000
0.030939 0.020488 0.887000
0.033306 0.001859 0.882000
0.052130 -0.003534 0.869000
0.041971 0.012009 0.881000
0.038532 -0.011146 0.877000
0.000624 -0.013922 0.870000
-0.028284 -0.028861 0.867000
0.028383 0.025599 0.887000
-0.035737 -0.010650 0.866000
0.017027 0.022263 0.885000
-0.001168 -0.011787 0.871000
-0.007304 -0.029161 0.876000
0.014674 -0.024806 0.875000
0.031961 -0.013642 0.875000
-0.001180 0.020688 0.880000
0.043784 0.005483 0.881000
0.020168 0.002576 0.879000
0.018275 -0.007880 0.875000
-0.015115 -0.027140 0.869000
-0.038766 0.001475 0.870000
-0.030640 -0.022335 0.863000
0.029080 -0.020484 0.875000
-0.013993 -0.021343 0.866000
0.037003 -0.018684 0.875000
0.041467 -0.007184 0.878000
0.024312 0.017528 0.885000
-0.007647 -0.008590 0.874000
-0.026414 0.013744 0.876000
-0.049111 -0.003865 0.863000
-0.005539 0.011660 0.882000
0.003847 -0.022874 0.870000
-0.039886 0.005420 0.871000
-0.017380 0.023452 0.875000
0.005631 -0.018556 0.869000
-0.009024 -0.017463 0.868000
-0.011270 0.021315 0.876000
-0.016355 -0.031396 0.878000
-0.032061 -0.023755 0.863000
0.046012 0.000044 0.882000
-0.011525 -0.014962 0.868000
0.052070 -0.002458 0.868000
0.043996 0.008355 0.878000
-0.025130 -0.009614 0.869000
0.026498 -0.019000 0.873000
0.031205 -0.015785 0.874000
0.004200 -0.017840 0.869000
-0.033075 -0.000315 0.871000
-0.004087 0.012749 0.882000
0.014461 0.024057 0.884000
0.003860 -0.010736 0.873000
-0.027590 -0.033964 0.879000
0.005663 -0.025857 0.874000
0.002814 0.014581 0.883000
0.007070 -0.019651 0.870000
-0.001540 0.021388 0.879000
-0.014893 0.003292 0.877000
-0.014548 0.008355 0.878000
0.022237 -0.023365 0.875000
0.027435 -0.000319 0.880000
0.019941 -0.028004 0.885000
0.020963 0.009845 0.882000
0.029081 0.018641 0.886000
-0.017420 0.022423 0.877000
0.040883 0.001131 0.881000
-0.002596 -0.014979 0.869000
0.043685 -0.005022 0.879000
0.047357 -0.004665 0.880000
-0.034786 -0.035009 0.878000
0.013531 -0.020391 0.871000
-0.033637 -0.008878 0.867000
0.049552 0.003640 0.874000
-0.026763 -0.021294 0.864000
0.025868 -0.023032 0.876000
-0.000811 -0.010736 0.873000
-0.029219 -0.024111 0.863000
-0.031350 -0.021624 0.863000
0.019191 0.016780 0.884000
0.031234 0.029548 0.885000
0.054548 -0.001377 0.862000
0.031269 0.027029 0.886000
0.027999 -0.021565 0.875000
0.041733 -0.016542 0.876000
0.013969 -0.007168 0.876000
0.042648 -0.021688 0.880000
-0.013342 -0.010341 0.870000
0.012125 -0.023671 0.873000
-0.033227 0.013728 0.875000
0.029080 -0.011481 0.875000
0.047665 -0.009001 0.879000
-0.023945 0.017028 0.878000
0.018017 0.007287 0.880000
0.013890 -0.015730 0.871000
-0.048417 0.003217 0.857000
-0.015202 -0.001755 0.874000
-0.029917 0.021242 0.873000
0.020576 0.009834 0.881000
-0.030020 0.006173 0.876000
-0.041844 -0.006737 0.867000
-0.016067 -0.033354 0.882000
-0.023395 -0.002466 0.871000
0.016625 0.014581 0.883000
0.021229 -0.024891 0.878000
-0.047266 -0.000308 0.849000
-0.038181 0.009026 0.873000
-0.038497 0.005427 0.872000
-0.011270 -0.029882 0.876000
-0.034707 -0.009235 0.867000
-0.001523 -0.022848 0.869000
0.011022 -0.020391 0.871000
-0.009772 -0.027202 0.871000
0.031079 -0.028560 0.891000
0.031998 0.019371 0.886000
0.003541 0.016034 0.883000
0.034395 0.005852 0.882000
0.046217 -0.007916 0.879000
0.029048 0.007693 0.885000
0.038981 -0.005022 0.879000
0.036685 -0.019787 0.876000
0.039298 -0.008629 0.878000
0.025204 -0.002848 0.878000
-0.007691 0.018856 0.879000
0.037595 -0.026667 0.889000
0.015341 -0.020773 0.872000
-0.001521 -0.018534 0.868000
0.029512 -0.026637 0.888000
0.030229 -0.022697 0.877000
0.033306 0.003674 0.882000
-0.015994 0.013414 0.878000
-0.024886 0.003636 0.873000
0.011900 0.009129 0.883000
0.025779 -0.018282 0.873000
0.023813 0.004390 0.880000
-0.032432 0.020165 0.873000
-0.031350 -0.022335 0.863000
0.033707 0.008039 0.883000
0.029776 0.006600 0.885000
-0.025390 -0.031757 0.878000
0.004637 -0.030519 0.884000
0.009654 -0.007176 0.877000
-0.033625 0.018071 0.876000
-0.009096 -0.004999 0.875000
-0.013652 -0.016372 0.867000
0.026923 0.024139 0.887000
0.000626 -0.010736 0.873000
0.035121 -0.023915 0.882000
-0.045922 -0.003806 0.850000
0.012097 -0.016089 0.871000
-0.031495 -0.029575 0.867000
0.030229 -0.007898 0.877000
0.019234 0.023017 0.886000
-0.035307 0.019087 0.873000
0.025377 0.028787 0.884000
0.024340 0.021923 0.886000
0.015359 -0.011096 0.873000
0.021467 -0.015048 0.873000
0.027684 -0.027367 0.888000
-0.016526 -0.014247 0.868000
0.014129 -0.029494 0.886000
-0.035421 -0.008521 0.867000
-0.049867 0.003624 0.870000
-0.044906 0.008647 0.871000
-0.032904 0.015547 0.876000
0.034071 0.007676 0.883000
0.050699 0.002904 0.869000
-0.033280 -0.010662 0.867000
-0.022600 -0.012104 0.868000
-0.036365 -0.017382 0.864000
-0.019674 -0.021318 0.865000
