-0.012582 -0.022081 0.867000
0.034161 0.001485 0.876000
-0.016660 -0.002118 0.875000
-0.022931 -0.040994 0.867000
-0.021195 -0.018556 0.869000
0.037449 0.004736 0.877000
-0.028281 0.008716 0.878000
-0.038990 -0.020654 0.867000
0.024537 -0.019153 0.880000
0.010737 -0.004288 0.877000
-0.008089 0.005132 0.883000
-0.008686 -0.013206 0.870000
0.019334 -0.003194 0.874000
-0.012983 -0.012848 0.870000
-0.007970 -0.013922 0.870000
-0.036385 -0.003550 0.873000
-0.018713 -0.013206 0.870000
0.015700 -0.007853 0.872000
0.035162 -0.006072 0.874000
0.016280 0.022602 0.884000
-0.023116 -0.001396 0.874000
0.036169 0.015635 0.881000
0.011472 0.000043 0.878000
0.003865 -0.028375 0.874000
0.026648 -0.022667 0.890000
0.022804 -0.021762 0.883000
0.003891 -0.031467 0.880000
-0.005182 0.012764 0.883000
-0.014399 -0.016410 0.869000
0.031854 0.017831 0.882000
0.034629 -0.017134 0.888000
-0.011882 -0.018534 0.868000
-0.017221 -0.020297 0.867000
0.047393 0.017310 0.874000
-0.012394 0.001491 0.879000
-0.026980 -0.016447 0.871000
-0.039795 -0.013906 0.869000
0.007176 0.010946 0.883000
-0.036870 0.003288 0.876000
0.015880 0.017468 0.882000
0.008492 -0.021417 0.869000
0.019126 0.015635 0.881000
-0.026173 -0.019249 0.868000
-0.031426 -0.000677 0.875000
0.038488 0.001485 0.876000
0.039164 -0.006439 0.875000
0.025770 0.017892 0.885000
0.025405 0.022627 0.885000
-0.032544 0.001846 0.876000
-0.030345 -0.007159 0.875000
0.051770 0.018158 0.863000
0.021105 0.035130 0.888000
0.035888 0.023303 0.883000
-0.022730 -0.006424 0.873000
0.005352 0.028722 0.882000
0.003124 -0.019606 0.868000
0.007893 0.032352 0.882000
-0.029332 0.006541 0.877000
0.021229 0.007271 0.878000
0.031888 -0.005706 0.873000
0.014494 0.027758 0.886000
0.010798 0.017831 0.882000
0.032906 0.014910 0.881000
-0.006258 0.018899 0.881000
-0.038765 0.014234 0.862000
-0.033189 -0.003554 0.874000
0.040751 -0.012719 0.886000
0.016225 0.013822 0.881000
-0.015848 -0.012132 0.870000
-0.027135 0.003649 0.876000
0.036811 0.023921 0.879000
-0.015437 -0.036355 0.867000
0.007062 -0.016767 0.869000
0.027924 0.018236 0.884000
-0.043729 -0.000315 0.869000
0.000622 -0.022795 0.867000
0.019671 -0.006065 0.873000
-0.016150 -0.021368 0.867000
0.019806 0.009088 0.879000
-0.013810 -0.039301 0.877000
0.035161 0.023666 0.883000
-0.033664 0.006541 0.877000
-0.032581 0.007262 0.877000
0.029246 0.007649 0.880000
-0.020668 0.005819 0.877000
0.049665 0.012662 0.876000
-0.011684 0.014169 0.880000
-0.030706 -0.006799 0.875000
0.017535 -0.004274 0.874000
0.016854 -0.021589 0.876000
0.003127 -0.015337 0.869000
0.027622 0.027393 0.886000
-0.002238 -0.015337 0.869000
-0.012408 0.014169 0.880000
0.053622 0.012218 0.870000
0.040651 -0.006086 0.876000
0.007911 0.022602 0.884000
-0.027433 -0.008950 0.874000
-0.048288 -0.010589 0.861000
0.044358 0.006909 0.878000
-0.003715 -0.035814 0.880000
0.020553 0.013082 0.880000
0.009923 -0.019271 0.869000
0.032217 0.031263 0.882000
-0.039978 -0.004269 0.873000
0.029776 0.025541 0.885000
0.026134 0.025541 0.885000
-0.040384 -0.001755 0.874000
-0.037334 -0.013206 0.870000
0.028651 0.020782 0.884000
-0.005451 -0.017463 0.868000
0.043175 0.022397 0.876000
-0.027464 -0.001757 0.875000
-0.043261 0.003281 0.874000
0.013640 -0.000318 0.878000
-0.047499 -0.008155 0.866000
0.005722 0.028754 0.883000
-0.030776 0.010511 0.877000
0.022466 0.017144 0.884000
0.013969 -0.023392 0.876000
0.020328 0.024111 0.886000
-0.006201 -0.034091 0.873000
-0.033318 0.013618 0.868000
-0.012611 -0.014979 0.869000
0.019356 0.000043 0.875000
0.004631 0.027301 0.883000
0.031128 0.031989 0.882000
-0.012197 -0.026659 0.865000
0.024029 0.032572 0.888000
0.052488 0.011488 0.869000
-0.021860 -0.021368 0.867000
0.037215 0.011634 0.880000
0.038804 -0.001037 0.875000
0.000990 -0.031360 0.877000
-0.002611 -0.011108 0.874000
-0.012983 -0.012132 0.870000
-0.041812 -0.025413 0.859000
-0.014961 -0.043106 0.881000
-0.036763 0.012503 0.865000
-0.035789 0.004009 0.876000
0.015257 -0.028464 0.888000
-0.004017 -0.027434 0.867000
0.007102 -0.008230 0.874000
-0.000821 0.014597 0.884000
-0.017420 0.014482 0.877000
-0.043075 -0.022506 0.856000
-0.009521 0.014910 0.881000
0.021422 0.029217 0.886000
0.004916 -0.023921 0.869000
0.034797 0.024030 0.883000
0.043126 -0.001397 0.875000
-0.017997 -0.013206 0.870000
0.032980 0.020759 0.883000
-0.044189 -0.009636 0.871000
0.011432 -0.005359 0.875000
0.035725 -0.015306 0.888000
-0.034781 0.017387 0.860000
-0.034987 -0.001755 0.874000
0.045797 0.020835 0.871000
-0.044138 0.000759 0.870000
-0.018460 -0.000677 0.875000
-0.004440 -0.036176 0.880000
0.007556 0.028455 0.885000
0.018442 0.019305 0.883000
-0.012625 -0.013206 0.870000
0.044257 -0.001399 0.876000
0.038388 0.020372 0.882000
-0.012046 0.011996 0.880000
-0.029388 -0.017820 0.868000
-0.038269 0.002924 0.875000
0.002773 -0.013564 0.870000
-0.002272 -0.035895 0.882000
-0.034667 0.000043 0.875000
0.013309 0.006201 0.880000
-0.005902 0.013475 0.882000
-0.028643 0.008716 0.878000
-0.024167 -0.003909 0.873000
0.036046 0.006548 0.878000
0.050501 0.008355 0.878000
-0.017821 0.013068 0.879000
-0.024985 -0.028406 0.864000
-0.040650 -0.006058 0.872000
0.040659 -0.015743 0.892000
0.021058 -0.024389 0.886000
-0.038945 -0.002115 0.874000
0.016663 0.026634 0.885000
-0.028905 -0.002478 0.875000
-0.035067 0.003288 0.876000
0.000980 -0.024965 0.868000
-0.002987 0.023921 0.879000
0.037724 -0.000317 0.875000
0.034356 0.026876 0.881000
0.033440 0.001125 0.876000
0.050559 0.005832 0.879000
0.003545 0.017144 0.884000
-0.027729 0.015476 0.872000
0.035882 -0.005353 0.874000
0.023291 -0.003554 0.874000
0.016188 0.006555 0.879000
0.009335 0.006208 0.881000
-0.036870 0.005451 0.876000
0.013655 -0.024919 0.879000
0.012180 -0.003205 0.877000
-0.017059 0.014843 0.877000
-0.037919 -0.021368 0.867000
0.007539 0.013490 0.883000
0.025391 -0.007494 0.872000
0.002773 -0.013922 0.870000
0.038488 0.002567 0.876000
0.004916 -0.024278 0.869000
-0.010935 -0.001402 0.878000
-0.045623 -0.008919 0.871000
-0.039214 -0.007135 0.872000
-0.014808 -0.038359 0.872000
-0.022808 0.002928 0.876000
0.008932 -0.002844 0.877000
0.025262 -0.018791 0.880000
0.015552 0.023693 0.884000
-0.028251 -0.022412 0.866000
0.030073 0.020032 0.883000
-0.038629 0.001124 0.875000
0.046638 -0.009448 0.887000
-0.014582 0.009823 0.880000
-0.001878 -0.019606 0.868000
0.016317 0.028123 0.886000
0.017555 -0.001757 0.875000
-0.020934 -0.003909 0.873000
-0.039749 -0.018534 0.868000
-0.026053 0.002928 0.876000
-0.042473 -0.020973 0.851000
-0.037549 0.001484 0.875000
-0.015650 0.014153 0.879000
-0.028971 0.005097 0.877000
0.003131 -0.013206 0.870000
-0.023234 -0.026659 0.865000
0.042190 -0.007545 0.878000
-0.038408 -0.011415 0.870000
0.043422 0.013460 0.881000
-0.020169 -0.009995 0.871000
0.049192 0.014072 0.874000
0.038981 -0.010086 0.879000
0.030039 0.009119 0.882000
0.007530 0.031626 0.882000
0.021802 -0.014672 0.872000
0.008275 -0.030883 0.884000
0.046496 0.022446 0.864000
-0.019273 -0.032635 0.863000
-0.032341 0.018115 0.861000
-0.009055 -0.012504 0.871000
-0.027602 -0.018892 0.868000
-0.001162 -0.022795 0.867000
0.014097 -0.027244 0.884000
-0.033126 0.016026 0.863000
-0.003361 0.008393 0.882000
0.024367 0.035456 0.887000
0.029844 -0.019305 0.887000
-0.018355 -0.011774 0.870000
0.020122 0.004375 0.877000
-0.041775 -0.001035 0.873000
0.044047 0.008003 0.879000
0.018099 0.036791 0.884000
0.042478 -0.010508 0.884000
0.006828 -0.032010 0.885000
0.031854 0.016742 0.882000
-0.044906 -0.010353 0.871000
-0.005176 0.018920 0.882000
-0.013449 0.018813 0.877000
-0.011322 0.013082 0.880000
-0.017781 0.003653 0.877000
-0.020692 -0.044766 0.878000
-0.018228 -0.034096 0.864000
0.031348 0.005825 0.878000
0.046112 -0.000318 0.877000
-0.009478 0.019896 0.877000
-0.045116 -0.013919 0.848000
-0.027824 -0.005359 0.875000
0.009742 0.029548 0.885000
-0.021220 -0.016429 0.870000
-0.007287 -0.034850 0.874000
0.019738 0.000764 0.876000
-0.012741 0.000043 0.878000
0.024760 -0.022982 0.888000
0.044821 0.024636 0.866000
-0.043880 -0.006058 0.872000
-0.008796 0.012735 0.881000
-0.022984 -0.041804 0.869000
-0.003319 -0.013221 0.871000
-0.019696 -0.022412 0.866000
0.052125 0.016026 0.863000
-0.028185 -0.003558 0.875000
-0.030530 -0.013206 0.870000
0.026288 -0.017302 0.878000
0.013702 0.018920 0.882000
0.016391 -0.028162 0.890000
-0.015848 -0.013564 0.870000
-0.041009 0.004350 0.872000
0.034882 0.001846 0.876000
-0.001182 0.010208 0.882000
-0.007321 -0.036816 0.878000
0.025770 0.025905 0.885000
0.043735 0.011271 0.880000
-0.040014 -0.023125 0.866000
0.000627 -0.009669 0.874000
0.021418 -0.012146 0.871000
0.019466 0.013082 0.880000
0.017495 -0.008571 0.872000
0.025118 -0.002118 0.875000
0.030451 -0.010018 0.873000
0.036573 0.016379 0.882000
0.026498 0.026270 0.885000
-0.028905 -0.007159 0.875000
-0.013311 -0.018892 0.868000
0.012236 0.007296 0.881000
0.030209 -0.019305 0.887000
-0.041320 0.003986 0.871000
-0.037061 -0.007494 0.872000
0.008182 -0.007871 0.874000
0.024900 0.010185 0.880000
0.016644 0.021874 0.884000
-0.035226 -0.010353 0.871000
0.019267 -0.015013 0.871000
0.026378 -0.018449 0.881000
0.016512 0.001487 0.877000
-0.028447 0.015117 0.872000
0.016950 0.015273 0.881000
-0.004394 -0.012863 0.871000
0.012902 -0.003205 0.877000
0.010651 -0.012490 0.870000
-0.027042 -0.013611 0.873000
-0.011604 -0.008950 0.874000
0.030141 0.024448 0.885000
0.029936 -0.015513 0.879000
-0.006258 0.007658 0.881000
0.013906 -0.021132 0.872000
0.010129 -0.030987 0.887000
0.021787 0.026664 0.886000
0.035923 -0.009320 0.875000
-0.010997 -0.041387 0.883000
-0.042116 -0.025030 0.858000
0.030073 0.034206 0.883000
0.023975 0.021923 0.886000
0.050052 0.017112 0.864000
-0.022522 -0.027015 0.865000
0.021952 0.005825 0.878000
0.049439 0.014758 0.872000
0.017313 0.013822 0.881000
0.035484 0.018557 0.882000
0.000633 0.012764 0.883000
0.040837 0.011271 0.880000
0.008983 0.009845 0.882000
0.030845 -0.004274 0.874000
0.038576 0.006548 0.878000
-0.045623 -0.005334 0.871000
0.041059 -0.007537 0.877000
-0.047938 -0.002475 0.874000
0.027935 -0.004987 0.873000
0.045546 0.016704 0.880000
0.039070 0.013460 0.881000
-0.001181 0.024338 0.881000
0.002071 -0.030243 0.876000
0.021034 0.020077 0.885000
0.018870 0.036145 0.886000
0.002054 -0.016052 0.869000
-0.005176 0.014927 0.882000
-0.036218 -0.013906 0.869000
-0.036660 -0.009636 0.871000
-0.014842 -0.006072 0.874000
-0.023222 0.008716 0.878000
-0.018292 -0.021368 0.867000
0.018909 -0.010712 0.871000
0.029373 -0.006424 0.873000
0.029732 -0.008580 0.873000
-0.002248 -0.031576 0.873000
-0.031641 -0.010712 0.871000
-0.005815 -0.017125 0.869000
0.000997 0.024030 0.883000
0.011173 0.021486 0.883000
-0.022525 0.010897 0.879000
-0.037334 -0.012132 0.870000
-0.003660 -0.026720 0.867000
-0.027991 0.016853 0.869000
0.040477 -0.013479 0.888000
0.019256 0.031075 0.887000
-0.021268 -0.006417 0.872000
0.038804 -0.005359 0.875000
-0.019273 -0.031215 0.863000
-0.002957 -0.014638 0.870000
-0.024915 -0.002835 0.874000
-0.006991 0.011297 0.882000
0.042863 -0.006093 0.877000
-0.022782 -0.001037 0.875000
0.047610 0.015221 0.878000
0.049056 0.007993 0.878000
-0.017320 -0.007494 0.872000
-0.010441 -0.032787 0.867000
0.036128 0.010909 0.880000
0.026528 -0.003194 0.874000
0.040067 -0.009363 0.879000
0.006085 0.018215 0.883000
-0.011671 0.017047 0.879000
0.042454 0.022758 0.876000
0.016280 0.021874 0.884000
-0.010609 -0.040205 0.881000
-0.000805 -0.023866 0.867000
-0.016736 0.009088 0.879000
0.015718 -0.006065 0.873000
-0.023590 -0.026659 0.865000
0.017293 0.012720 0.880000
-0.028872 -0.010749 0.874000
-0.034390 -0.018177 0.868000
-0.016679 0.015186 0.876000
0.011819 -0.003566 0.877000
0.013354 0.034206 0.883000
-0.020763 -0.046007 0.881000
0.038444 -0.004639 0.875000
0.025770 0.022263 0.885000
0.010822 0.023329 0.884000
0.015017 -0.004633 0.874000
0.020670 0.038654 0.885000
0.016380 -0.015712 0.870000
-0.015994 0.000043 0.878000
0.025653 0.010559 0.881000
-0.005129 -0.011108 0.874000
0.009346 0.018194 0.882000
0.037172 0.023197 0.879000
0.000996 0.028359 0.882000
0.023477 0.012372 0.881000
-0.006515 -0.022081 0.867000
-0.013857 0.004028 0.880000
0.017635 -0.022749 0.879000
-0.029422 -0.016052 0.869000
-0.003001 0.016398 0.883000
-0.009138 -0.038305 0.879000
-0.021911 -0.018913 0.869000
-0.019203 -0.043222 0.876000
0.033745 0.026240 0.884000
0.022389 0.012735 0.881000
0.036283 -0.000677 0.875000
0.043059 0.019261 0.881000
0.043946 0.021340 0.877000
-0.025546 -0.017523 0.871000
-0.014582 0.007649 0.880000
0.014001 -0.001402 0.878000
0.023062 0.010173 0.879000
-0.020122 -0.040015 0.869000
-0.017781 0.002209 0.877000
-0.001878 -0.028537 0.868000
-0.028545 0.013368 0.875000
0.015137 0.013822 0.881000
-0.027182 -0.023482 0.866000
-0.033520 0.015334 0.864000
-0.026836 -0.035371 0.878000
-0.021860 -0.040280 0.867000
-0.003724 0.010934 0.882000
-0.022294 -0.041852 0.870000
0.011927 -0.029096 0.885000
0.013578 -0.005712 0.874000
0.010798 0.016379 0.882000
0.010688 -0.007143 0.873000
0.039795 0.013822 0.881000
0.028287 0.036427 0.884000
0.026163 0.028123 0.886000
-0.002235 -0.017820 0.868000
0.024705 0.028123 0.886000
-0.035843 0.017033 0.860000
-0.000820 0.011310 0.883000
-0.019628 -0.033701 0.863000
0.030402 0.013112 0.882000
-0.047469 -0.011978 0.859000
-0.004445 -0.036942 0.881000
-0.027135 0.001846 0.876000
-0.042086 -0.007135 0.872000
0.041733 0.001485 0.876000
0.017595 0.003292 0.877000
0.006449 0.020032 0.883000
-0.044802 -0.012118 0.869000
-0.015289 0.012344 0.879000
0.042019 0.016379 0.882000
0.003181 0.025148 0.884000
-0.030088 0.009078 0.878000
0.023786 0.009811 0.879000
-0.041871 -0.019267 0.853000
-0.020886 -0.012504 0.871000
0.015120 0.010547 0.880000
0.026134 0.025177 0.885000
-0.046340 -0.007127 0.871000
-0.031786 -0.002118 0.875000
0.034032 0.017105 0.882000
0.025069 0.019371 0.886000
-0.026293 -0.015748 0.872000
-0.034627 0.013927 0.865000
-0.001547 0.017125 0.883000
0.037620 0.015635 0.881000
-0.025419 -0.040114 0.879000
-0.025905 -0.017523 0.871000
-0.010084 -0.020297 0.867000
-0.030020 -0.005004 0.876000
-0.028608 0.017864 0.866000
-0.006628 0.012749 0.882000
-0.033869 -0.006424 0.873000
-0.005105 -0.014638 0.870000
-0.022112 0.006541 0.877000
-0.040024 0.001122 0.874000
-0.015775 -0.023125 0.866000
-0.002590 -0.026363 0.867000
0.042766 -0.013143 0.890000
0.033381 0.026240 0.884000
-0.022470 -0.030859 0.863000
0.042696 0.014185 0.881000
0.006812 0.019669 0.883000
-0.019563 0.014465 0.876000
-0.000809 -0.012504 0.871000
0.038620 0.008726 0.879000
-0.026469 -0.022056 0.866000
0.038171 0.004014 0.877000
0.029709 0.035296 0.883000
0.027560 0.018599 0.884000
0.036087 -0.011895 0.879000
0.027196 0.021146 0.884000
-0.000449 -0.025650 0.867000
0.000979 -0.020654 0.867000
-0.001521 -0.019249 0.868000
0.047475 -0.009835 0.889000
-0.000449 -0.019940 0.867000
0.004995 0.012037 0.883000
-0.026052 -0.028406 0.864000
-0.019268 -0.044456 0.879000
0.001730 -0.035328 0.886000
-0.035819 -0.018892 0.868000
-0.036407 -0.024879 0.865000
-0.005795 -0.023482 0.866000
-0.006864 -0.028472 0.866000
-0.011644 -0.003205 0.877000
0.051879 0.006222 0.883000
-0.047003 -0.001747 0.870000
0.024705 0.028487 0.886000
-0.022345 -0.042666 0.872000
-0.020409 -0.023482 0.866000
-0.001184 0.019305 0.883000
0.033993 0.027964 0.881000
-0.002960 -0.013221 0.871000
-0.037231 0.002207 0.876000
-0.030776 0.009789 0.877000
0.002054 -0.016767 0.869000
0.039343 0.021750 0.879000
-0.029354 -0.021368 0.867000
0.010060 -0.028240 0.881000
-0.025964 -0.013970 0.873000
0.025377 -0.020695 0.884000
-0.006620 0.017086 0.881000
-0.032923 -0.019227 0.867000
-0.017400 0.015907 0.876000
0.023678 -0.017243 0.875000
-0.009884 -0.036942 0.881000
0.015588 0.028487 0.886000
-0.009013 -0.021368 0.867000
-0.042371 -0.023915 0.856000
-0.032716 -0.011070 0.871000
0.013516 -0.017145 0.870000
0.007840 -0.006447 0.876000
-0.021366 0.001846 0.876000
0.037939 0.011634 0.880000
0.016114 -0.002478 0.875000
-0.030782 -0.021724 0.867000
0.022881 0.025570 0.886000
-0.004450 0.016379 0.882000
0.020646 0.018963 0.884000
-0.009003 -0.022412 0.866000
0.026558 0.029615 0.887000
0.025491 0.033303 0.888000
0.005328 -0.003570 0.878000
0.026193 0.030710 0.887000
0.015826 0.005832 0.879000
0.009709 0.014927 0.882000
-0.010972 -0.040568 0.881000
-0.004455 -0.037753 0.883000
-0.021146 -0.039923 0.867000
-0.015254 -0.041106 0.877000
0.042382 0.019283 0.882000
-0.017873 -0.029828 0.864000
0.009621 -0.006792 0.874000
-0.004073 -0.035773 0.879000
0.008993 0.013127 0.883000
0.046526 0.017028 0.878000
0.030869 0.030641 0.885000
0.041293 0.018194 0.882000
0.022649 0.003653 0.877000
0.039164 -0.001757 0.875000
-0.019407 -0.016052 0.869000
-0.043113 0.002552 0.871000
0.028031 0.001846 0.876000
-0.012422 0.007296 0.881000
-0.025726 -0.026659 0.865000
-0.015045 -0.027015 0.865000
0.039070 0.013822 0.881000
0.023557 0.037519 0.884000
-0.025781 0.010897 0.879000
0.012470 -0.008571 0.872000
0.006085 0.010946 0.883000
-0.033510 -0.007143 0.873000
-0.048212 -0.012432 0.866000
0.020915 -0.021326 0.880000
-0.003660 -0.020297 0.867000
-0.005463 -0.014638 0.870000
-0.014187 0.000405 0.878000
0.030402 0.010571 0.882000
0.009992 -0.025166 0.875000
0.035360 -0.016037 0.888000
0.039524 -0.003918 0.875000
0.027288 0.032535 0.887000
0.022881 0.029217 0.886000
0.016644 0.036791 0.884000
0.015306 -0.015712 0.870000
-0.039664 -0.001755 0.874000
-0.022730 -0.004628 0.873000
0.043635 0.021364 0.878000
0.040015 -0.016514 0.894000
0.008561 -0.005365 0.876000
-0.030054 0.005097 0.877000
-0.015650 0.008003 0.879000
-0.013857 0.013082 0.880000
-0.012380 -0.038984 0.878000
-0.004374 -0.019940 0.867000
0.012961 0.014548 0.881000
-0.004013 -0.023125 0.866000
0.019851 0.014548 0.881000
-0.031066 0.011928 0.875000
-0.003665 -0.029609 0.868000
-0.044189 -0.008561 0.871000
0.023246 0.024111 0.886000
0.023596 -0.011442 0.872000
-0.000457 0.017488 0.883000
0.024395 0.034034 0.888000
0.022907 0.021948 0.887000
-0.031532 -0.017105 0.868000
-0.034588 -0.005706 0.873000
-0.037146 -0.001755 0.874000
0.023220 0.017163 0.885000
-0.011710 -0.041703 0.882000
-0.032581 0.009428 0.877000
0.019488 -0.022800 0.881000
0.004234 -0.007168 0.876000
-0.033189 -0.004274 0.874000
0.012208 0.002576 0.879000
-0.029332 0.006901 0.877000
-0.018885 0.007271 0.878000
0.018038 -0.023526 0.881000
0.006820 -0.031610 0.884000
-0.025634 -0.002475 0.874000
0.043229 -0.013907 0.892000
0.016299 0.025541 0.885000
-0.036551 0.015971 0.860000
-0.026713 -0.005712 0.874000
0.031234 0.029184 0.885000
0.013158 -0.013922 0.870000
0.040521 0.014185 0.881000
-0.001876 -0.022795 0.867000
0.032284 -0.002475 0.874000
0.005285 -0.011070 0.871000
0.003181 -0.033793 0.884000
-0.013841 -0.041200 0.879000
-0.030033 -0.022412 0.866000
-0.023835 -0.003194 0.874000
0.033800 0.001125 0.876000
0.043010 -0.008287 0.880000
-0.029574 0.018868 0.863000
0.017391 0.037926 0.885000
0.026893 0.027758 0.886000
-0.006880 -0.019249 0.868000
0.017736 -0.025061 0.884000
-0.023116 -0.002475 0.874000
0.019213 0.023356 0.885000
-0.001164 -0.027823 0.868000
0.025126 0.032937 0.888000
-0.015597 -0.002481 0.876000
0.012670 0.027393 0.886000
0.015154 0.018557 0.882000
0.042863 -0.005732 0.877000
0.023678 -0.001757 0.875000
0.052065 0.017072 0.862000
-0.013103 -0.000679 0.878000
0.020413 -0.004274 0.874000
-0.032109 -0.006792 0.874000
-0.015579 -0.003558 0.875000
-0.010573 0.018473 0.878000
0.036407 0.005464 0.878000
-0.039749 -0.018177 0.868000
-0.030249 0.019910 0.862000
0.009293 -0.004649 0.877000
0.001360 -0.034118 0.883000
-0.039657 -0.023838 0.866000
-0.023422 -0.012518 0.872000
0.039522 -0.011586 0.883000
0.006456 0.013870 0.884000
-0.000805 -0.021011 0.867000
-0.015650 0.005470 0.879000
-0.019496 -0.004987 0.873000
-0.012225 -0.033857 0.867000
0.022517 0.019371 0.886000
0.027042 -0.016960 0.879000
0.019984 -0.011787 0.871000
0.009720 -0.029394 0.883000
0.006398 -0.027719 0.876000
0.022675 -0.019109 0.878000
-0.042607 -0.017463 0.868000
-0.000808 -0.028961 0.870000
-0.024527 -0.042715 0.873000
0.003513 -0.006807 0.876000
-0.000092 -0.029353 0.871000
-0.012909 -0.026303 0.865000
0.044548 0.025291 0.889000
-0.007237 -0.018892 0.868000
-0.013495 0.011271 0.880000
0.018192 -0.014296 0.871000
0.023611 0.028487 0.886000
0.031854 0.016379 0.882000
0.014461 0.023693 0.884000
0.009731 0.022602 0.884000
0.026348 -0.018066 0.880000
0.007840 -0.005004 0.876000
0.019267 -0.010353 0.871000
0.002087 0.021122 0.883000
-0.012239 -0.019249 0.868000
0.025420 -0.014329 0.873000
-0.031786 -0.004278 0.875000
-0.022422 0.000763 0.875000
0.000622 -0.021724 0.867000
0.000265 -0.025679 0.868000
-0.038408 0.008637 0.870000
-0.040115 0.010499 0.876000
-0.034025 0.006901 0.877000
0.017977 0.005103 0.878000
0.038751 0.018557 0.882000
-0.017440 0.014137 0.878000
0.004229 -0.008600 0.875000
-0.010084 -0.021724 0.867000
0.016835 -0.001757 0.875000
0.047665 0.009811 0.879000
0.035081 0.025788 0.881000
0.027653 0.032900 0.887000
0.021060 -0.010712 0.871000
0.003493 -0.012504 0.871000
-0.020574 -0.004269 0.873000
0.035603 -0.010052 0.876000
-0.033675 -0.017463 0.868000
0.000623 -0.016052 0.869000
0.025624 0.009098 0.880000
-0.027073 -0.010749 0.874000
0.043896 -0.001038 0.876000
0.012670 0.027029 0.886000
0.044358 0.007271 0.878000
0.021467 -0.017204 0.873000
0.031601 -0.001757 0.875000
0.017915 -0.020484 0.875000
0.026408 0.010208 0.882000
-0.004374 -0.028861 0.867000
0.009654 -0.026307 0.877000
0.043996 0.006909 0.878000
-0.036135 -0.020654 0.867000
0.009324 0.005114 0.880000
-0.034311 -0.024194 0.866000
-0.043322 -0.016034 0.868000
-0.022860 0.006909 0.878000
-0.019159 -0.003554 0.874000
-0.004374 -0.021724 0.867000
0.002792 -0.030243 0.876000
-0.005795 -0.025264 0.866000
0.016738 -0.013564 0.870000
-0.018940 -0.027695 0.864000
0.027248 -0.004633 0.874000
-0.014876 0.016628 0.876000
0.012111 -0.008929 0.872000
0.012236 0.005845 0.881000
0.040337 0.022423 0.877000
0.001696 -0.014979 0.869000
0.020670 0.037197 0.885000
-0.001911 0.012764 0.883000
-0.036260 0.010069 0.870000
0.025828 0.034726 0.887000
-0.033037 -0.013206 0.870000
0.014097 0.036427 0.884000
0.019082 0.009088 0.879000
-0.003656 -0.024551 0.866000
0.004584 -0.008590 0.874000
-0.001908 -0.035895 0.882000
-0.010822 -0.015337 0.869000
-0.022473 -0.045437 0.877000
0.003913 0.010971 0.885000
-0.027213 -0.021011 0.867000
-0.033675 -0.018892 0.868000
0.022597 -0.001037 0.875000
0.028392 0.002928 0.876000
0.012991 0.021122 0.883000
0.047249 0.005464 0.878000
-0.006575 -0.008960 0.875000
0.028383 0.029615 0.887000
0.031818 0.010922 0.881000
-0.006258 0.019261 0.881000
-0.011498 -0.032036 0.866000
0.044257 0.002567 0.876000
-0.033548 -0.005712 0.874000
0.021802 -0.008929 0.872000
-0.007933 -0.024907 0.866000
-0.008280 -0.027015 0.865000
0.029346 0.013490 0.883000
-0.035104 0.012189 0.868000
-0.035943 -0.010712 0.871000
-0.003656 -0.022769 0.866000
-0.020006 -0.028761 0.864000
-0.026354 -0.008590 0.874000
-0.012060 0.007658 0.881000
-0.029365 0.007993 0.878000
0.043175 -0.002841 0.876000
0.042045 -0.000677 0.875000
0.020553 0.012358 0.880000
0.012799 -0.018935 0.870000
-0.016355 0.002212 0.878000
0.011806 -0.004644 0.876000
0.038127 0.001485 0.876000
-0.001889 -0.011814 0.873000
0.039930 0.001846 0.876000
0.044872 0.014910 0.881000
0.022597 -0.017603 0.875000
0.021492 -0.002475 0.874000
0.019422 0.006187 0.878000
0.013035 0.029946 0.886000
-0.019719 -0.021011 0.867000
-0.032885 -0.024194 0.866000
0.008972 0.006570 0.881000
-0.013357 -0.010353 0.871000
0.003905 0.012037 0.883000
-0.034427 0.017387 0.860000
-0.013133 0.013082 0.880000
-0.046272 -0.011503 0.850000
0.037313 -0.016825 0.891000
-0.015597 0.017349 0.876000
0.044978 0.000043 0.876000
0.003181 0.025512 0.884000
-0.000808 -0.013922 0.870000
-0.039165 0.012830 0.863000
0.014808 0.019669 0.883000
-0.002943 -0.024907 0.866000
-0.013857 0.006201 0.880000
0.010095 0.000044 0.884000
0.022339 0.008726 0.879000
0.005364 0.026240 0.884000
0.002801 -0.031431 0.879000
0.037215 0.012720 0.880000
-0.024886 -0.009658 0.873000
-0.023946 -0.025947 0.865000
-0.025994 -0.002835 0.874000
-0.006265 0.009482 0.882000
-0.015921 -0.005353 0.874000
-0.033719 0.017740 0.860000
0.011766 -0.006784 0.873000
0.024649 0.037155 0.884000
-0.022470 -0.034766 0.863000
0.033402 -0.001037 0.875000
-0.011511 -0.020654 0.867000
0.020076 -0.001757 0.875000
0.023531 -0.021035 0.883000
0.018421 0.017468 0.882000
0.035002 0.008364 0.879000
0.012656 0.025541 0.885000
0.045494 0.008364 0.879000
0.050646 0.017782 0.862000
-0.023449 -0.006065 0.873000
0.034797 0.023666 0.883000
-0.034628 -0.003914 0.874000
-0.045981 -0.005693 0.871000
-0.042705 0.001117 0.870000
-0.041535 -0.016748 0.868000
0.045908 0.016342 0.880000
-0.019628 -0.031215 0.863000
0.010037 -0.027452 0.879000
0.025147 0.002567 0.876000
0.002409 -0.019249 0.868000
0.007539 0.014944 0.883000
0.028619 0.016034 0.883000
0.018952 -0.004987 0.873000
0.019896 0.018215 0.883000
-0.020480 -0.017483 0.869000
-0.010773 -0.025947 0.865000
-0.005514 0.022448 0.878000
0.020305 -0.023997 0.885000
0.022700 0.009088 0.879000
-0.033395 -0.012848 0.870000
0.047368 -0.009083 0.887000
0.022152 -0.023659 0.886000
0.012799 -0.015712 0.870000
-0.001880 -0.016767 0.869000
0.001357 -0.033316 0.881000
-0.009884 0.016723 0.881000
0.023975 0.036510 0.886000
-0.030020 0.011941 0.876000
-0.014187 0.015582 0.878000
-0.030460 0.015762 0.868000
0.007556 0.026998 0.885000
0.027560 0.036427 0.884000
-0.009511 -0.039435 0.880000
0.016133 -0.001399 0.876000
-0.021759 -0.034766 0.863000
0.049417 0.007271 0.878000
0.003493 -0.026844 0.871000
0.014724 -0.000318 0.878000
-0.024601 -0.031215 0.863000
-0.035707 -0.003554 0.874000
0.013937 -0.022619 0.874000
-0.024985 -0.029473 0.864000
0.041514 0.008726 0.879000
-0.013265 -0.027371 0.865000
0.003131 -0.013564 0.870000
-0.009884 0.016361 0.881000
-0.022371 -0.005706 0.873000
-0.045316 -0.005699 0.872000
0.007094 -0.008580 0.873000
-0.010247 0.009834 0.881000
0.048026 0.008364 0.879000
0.016969 0.016742 0.882000
0.011135 -0.027121 0.880000
0.035081 0.015635 0.881000
0.004616 -0.030743 0.880000
-0.023863 -0.000317 0.875000
-0.044069 -0.014966 0.848000
0.028360 -0.000677 0.875000
-0.000092 -0.011096 0.873000
0.003485 -0.016767 0.869000
0.013562 -0.022234 0.873000
-0.013480 0.001491 0.879000
0.013309 0.006925 0.880000
0.029507 0.003653 0.877000
-0.030345 -0.003558 0.875000
-0.005094 -0.029966 0.868000
-0.010525 -0.008950 0.874000
-0.032146 -0.004999 0.875000
0.022905 -0.006065 0.873000
0.030869 0.025177 0.885000
0.006828 0.027727 0.885000
0.025566 0.005825 0.878000
-0.007717 0.012386 0.882000
-0.032581 0.005819 0.877000
0.018233 -0.006424 0.873000
0.026134 0.016071 0.885000
0.029080 -0.001397 0.875000
0.003188 0.010984 0.886000
-0.009169 0.009482 0.882000
-0.022652 -0.042210 0.870000
-0.019630 0.010897 0.879000
0.046165 -0.004654 0.878000
-0.013652 -0.022081 0.867000
-0.010798 -0.021724 0.867000
-0.029814 0.015082 0.870000
0.028949 0.009845 0.882000
0.021105 0.034399 0.888000
0.004631 0.021122 0.883000
0.001357 0.028327 0.881000
-0.001185 0.009503 0.884000
0.007143 -0.028899 0.879000
-0.024499 -0.016107 0.872000
0.016606 0.016742 0.882000
-0.022878 -0.039831 0.865000
-0.010573 0.018835 0.878000
-0.001547 0.022213 0.883000
0.016188 0.008003 0.879000
0.037130 0.005825 0.878000
0.021827 -0.016485 0.873000
-0.004435 0.023559 0.879000
0.044509 0.018174 0.881000
0.019941 0.025905 0.885000
0.022517 0.026299 0.886000
-0.036343 -0.007494 0.872000
0.002789 -0.007880 0.875000
-0.000813 -0.008960 0.875000
-0.040586 -0.025531 0.863000
-0.014399 -0.015337 0.869000
-0.001165 -0.016410 0.869000
0.007167 0.031263 0.882000
-0.018821 -0.001757 0.875000
0.018213 -0.018620 0.872000
0.007849 -0.002844 0.877000
0.023451 -0.019877 0.880000
0.045442 0.006187 0.878000
0.010822 0.024057 0.884000
0.020693 0.027029 0.886000
0.033042 -0.002118 0.875000
-0.013434 0.017349 0.876000
0.036978 0.019669 0.883000
-0.009716 -0.031323 0.866000
0.035923 -0.008600 0.875000
0.013324 0.014910 0.881000
0.032253 0.029481 0.883000
-0.018503 -0.043272 0.877000
0.026589 -0.016181 0.876000
-0.011841 -0.029507 0.865000
-0.019901 0.000403 0.875000
0.008266 0.010946 0.883000
-0.016583 -0.039032 0.871000
-0.037735 0.008647 0.871000
0.018213 -0.008929 0.872000
0.024065 0.000764 0.876000
-0.022115 -0.031215 0.863000
0.003149 -0.008240 0.875000
0.048721 0.015835 0.872000
-0.028316 -0.019249 0.868000
0.040965 -0.002118 0.875000
-0.029456 0.015082 0.870000
-0.031386 0.016756 0.864000
0.027702 0.004375 0.877000
-0.000818 0.026483 0.880000
0.019626 -0.013938 0.871000
-0.044138 0.000043 0.870000
0.007054 -0.018177 0.868000
-0.006173 -0.015337 0.869000
-0.026474 0.008355 0.878000
0.012570 0.001129 0.879000
-0.035380 -0.022412 0.866000
0.043010 0.011271 0.880000
0.015154 0.016742 0.882000
-0.020339 -0.032280 0.863000
0.013671 0.004028 0.880000
-0.028382 -0.014996 0.870000
0.013702 0.017105 0.882000
0.007565 -0.032046 0.886000
-0.001883 -0.014280 0.870000
0.017515 -0.005706 0.873000
0.032395 0.002931 0.877000
0.011072 -0.006079 0.875000
-0.023781 -0.015031 0.872000
0.007849 -0.004288 0.877000
0.032943 0.030900 0.882000
0.017635 0.009088 0.879000
0.030160 -0.000317 0.875000
0.050646 0.019556 0.862000
0.008285 -0.031282 0.885000
0.035162 -0.003194 0.874000
-0.048268 -0.006023 0.867000
0.025405 0.037926 0.885000
-0.020957 -0.001396 0.874000
-0.003326 -0.032295 0.873000
0.010072 0.018557 0.882000
-0.042086 -0.000316 0.872000
-0.023863 0.000763 0.875000
-0.011644 0.019896 0.877000
-0.010061 -0.028439 0.865000
0.047502 0.015907 0.876000
0.027608 -0.013986 0.874000
-0.013857 0.012720 0.880000
0.013384 0.024813 0.885000
0.011712 -0.016052 0.869000
0.044358 0.020280 0.878000
0.033364 -0.007871 0.874000
-0.004050 -0.033051 0.874000
-0.021439 0.011259 0.879000
-0.030776 0.006180 0.877000
-0.024223 -0.000677 0.875000
-0.018670 -0.038898 0.868000
-0.037302 0.014926 0.861000
0.023246 0.029217 0.886000
-0.024927 -0.033307 0.862000
-0.012669 -0.008221 0.873000
0.033631 0.015635 0.881000
0.038532 0.004375 0.877000
0.028360 -0.001757 0.875000
-0.037061 -0.008212 0.872000
-0.021860 -0.020654 0.867000
0.012829 -0.021850 0.872000
-0.028964 -0.023838 0.866000
-0.000456 0.010571 0.882000
-0.018207 -0.030859 0.863000
0.004553 -0.020321 0.868000
0.019191 0.021146 0.884000
0.015682 -0.010712 0.871000
0.029113 0.002567 0.876000
0.028479 -0.021568 0.890000
0.016299 0.025905 0.885000
-0.039034 -0.018177 0.868000
-0.021627 -0.008929 0.872000
0.015341 -0.008212 0.872000
-0.012553 -0.025235 0.865000
0.048026 0.012344 0.879000
0.032868 0.009460 0.880000
0.004215 -0.010724 0.872000
-0.017181 -0.025947 0.865000
-0.029131 -0.013221 0.871000
-0.025072 -0.020654 0.867000
0.021105 0.033303 0.888000
-0.012909 -0.031287 0.865000
-0.016717 0.001489 0.878000
-0.017201 -0.022412 0.866000
0.008983 0.004400 0.882000
0.012656 0.025905 0.885000
0.006456 0.016053 0.884000
0.027248 -0.004274 0.874000
0.035766 0.011271 0.880000
-0.004409 -0.033411 0.874000
-0.025517 -0.018219 0.870000
0.033402 -0.010761 0.875000
-0.025994 -0.002475 0.874000
-0.025303 0.001124 0.875000
-0.022191 -0.024551 0.866000
0.021181 0.001846 0.876000
0.024010 -0.004274 0.874000
0.043059 0.015635 0.881000
0.050933 0.011900 0.873000
0.017431 0.034361 0.887000
-0.019742 -0.018892 0.868000
-0.008007 -0.010029 0.874000
-0.017400 0.000404 0.876000
-0.009884 0.010922 0.881000
-0.019385 -0.018177 0.868000
-0.006265 0.010934 0.882000
0.011022 -0.011787 0.871000
-0.008766 -0.036816 0.878000
-0.017517 -0.030539 0.864000
-0.018038 -0.008929 0.872000
-0.032544 0.002567 0.876000
-0.025637 -0.034371 0.862000
-0.000092 -0.024222 0.867000
0.010700 -0.006432 0.874000
-0.006236 -0.036455 0.878000
0.023088 0.011271 0.880000
-0.008300 -0.020297 0.867000
0.039569 0.002207 0.876000
-0.019340 -0.024551 0.866000
0.011161 0.013475 0.882000
-0.036426 -0.002115 0.874000
0.006354 -0.013564 0.870000
-0.001531 -0.031612 0.874000
-0.027073 -0.011108 0.874000
0.004579 -0.009658 0.873000
-0.029165 0.014399 0.872000
-0.022626 -0.041804 0.869000
-0.006967 0.020665 0.879000
-0.039703 -0.019583 0.867000
-0.040915 -0.013564 0.870000
0.030730 -0.015911 0.881000
0.042551 -0.007545 0.878000
0.005683 -0.003566 0.877000
-0.025274 -0.004633 0.874000
-0.002950 -0.018892 0.868000
-0.018842 0.000404 0.876000
0.010688 -0.024031 0.873000
0.013531 -0.012146 0.871000
-0.035625 -0.007494 0.872000
-0.018691 -0.015694 0.869000
-0.010188 -0.005365 0.876000
0.016418 -0.007853 0.872000
-0.010537 -0.007520 0.875000
0.035484 0.017468 0.882000
0.022881 -0.022930 0.886000
0.030869 0.026634 0.885000
-0.011937 -0.010724 0.872000
-0.028608 0.018221 0.866000
0.016280 0.036791 0.884000
0.003509 -0.007880 0.875000
0.042599 0.009088 0.879000
0.014724 -0.023807 0.878000
0.039615 0.004014 0.877000
-0.004753 -0.032221 0.871000
-0.019719 -0.038853 0.867000
-0.019992 0.012344 0.879000
0.021034 0.019713 0.885000
0.036407 0.006909 0.878000
-0.027228 0.009811 0.879000
0.002087 0.025483 0.883000
0.013749 0.024813 0.885000
-0.037692 -0.011415 0.870000
-0.015903 -0.006065 0.873000
0.016873 0.001848 0.877000
0.038214 0.023171 0.878000
-0.034033 -0.018892 0.868000
-0.006983 0.017086 0.881000
-0.033404 0.016698 0.861000
-0.006545 -0.032938 0.871000
-0.005539 0.010208 0.882000
0.016335 0.032535 0.887000
0.017391 0.025905 0.885000
0.045337 -0.008315 0.883000
0.032943 0.018194 0.882000
0.015754 -0.003558 0.875000
0.044097 0.011634 0.880000
0.018742 0.013082 0.880000
0.003541 0.026937 0.883000
-0.015812 -0.017820 0.868000
-0.001184 0.019669 0.883000
0.010798 0.013475 0.882000
-0.040650 -0.007853 0.872000
-0.007221 -0.024551 0.866000
-0.022525 0.011982 0.879000
-0.011335 0.007296 0.881000
-0.003677 -0.031504 0.871000
-0.022470 -0.036187 0.863000
-0.034072 -0.014979 0.869000
0.014461 0.035700 0.884000
0.022161 -0.010006 0.872000
0.028753 0.002567 0.876000
-0.039886 -0.010712 0.871000
0.003124 -0.018534 0.868000
0.019738 0.001846 0.876000
0.043896 -0.003562 0.876000
-0.002614 -0.008600 0.875000
-0.027570 -0.021368 0.867000
-0.033664 0.008345 0.877000
-0.032209 -0.020654 0.867000
0.002409 -0.022821 0.868000
-0.033954 -0.023482 0.866000
-0.017517 -0.028050 0.864000
0.029212 -0.021202 0.890000
-0.017039 0.015186 0.876000
-0.018142 0.002931 0.877000
0.019941 0.026270 0.885000
-0.037291 -0.014979 0.869000
0.008266 0.014581 0.883000
0.036241 -0.005712 0.874000
0.013890 -0.009995 0.871000
0.000265 -0.018177 0.868000
-0.001893 -0.008240 0.875000
-0.000805 -0.022795 0.867000
0.002431 -0.005365 0.876000
0.050291 0.018846 0.862000
-0.016488 -0.023482 0.866000
0.029445 0.026664 0.886000
-0.043014 -0.015694 0.869000
0.031128 0.033078 0.882000
-0.036891 0.010760 0.868000
0.011009 -0.013922 0.870000
0.034122 -0.009320 0.875000
0.003838 -0.019963 0.868000
-0.035185 -0.011415 0.870000
-0.033189 -0.004633 0.874000
0.027165 0.011310 0.883000
0.043224 -0.005732 0.877000
-0.017893 -0.025591 0.865000
0.017854 -0.018261 0.872000
-0.042104 -0.019538 0.865000
0.004595 -0.028800 0.876000
-0.020645 0.003649 0.876000
0.044257 0.002207 0.876000
0.036643 -0.002478 0.875000
0.015085 0.000405 0.878000
0.023983 -0.015407 0.873000
0.003896 -0.031866 0.881000
0.041733 -0.004283 0.876000
0.028753 0.001846 0.876000
-0.010247 0.008746 0.881000
0.015808 0.003296 0.878000
0.006339 -0.018177 0.868000
-0.032942 0.009067 0.877000
-0.023222 0.013775 0.878000
-0.015437 -0.035998 0.867000
0.043896 -0.001759 0.876000
0.019289 -0.017543 0.872000
0.046632 0.014531 0.880000
-0.016564 -0.012132 0.870000
0.008850 -0.017840 0.869000
-0.024218 -0.034017 0.862000
-0.028971 0.005458 0.877000
0.013655 0.001129 0.879000
-0.005539 0.014201 0.882000
0.034758 0.016742 0.882000
0.010737 -0.002844 0.877000
-0.025361 0.006180 0.877000
-0.015794 -0.020297 0.867000
-0.042853 -0.005706 0.873000
-0.021098 -0.026303 0.865000
0.014590 -0.017503 0.870000
-0.045623 -0.004259 0.871000
0.011900 0.020759 0.883000
-0.015633 0.000405 0.878000
0.041971 0.015273 0.881000
0.018550 -0.012504 0.871000
-0.027443 -0.030859 0.863000
0.002773 -0.026813 0.870000
-0.021404 -0.035832 0.863000
0.032691 0.025177 0.885000
-0.016355 -0.042237 0.878000
0.008285 0.027727 0.885000
0.007192 0.026998 0.885000
0.047141 0.016989 0.876000
0.017273 0.010173 0.879000
0.041808 -0.015393 0.893000
-0.001170 -0.011455 0.873000
0.009720 0.013127 0.883000
-0.044957 -0.004264 0.872000
0.040651 -0.007168 0.876000
-0.001519 -0.023866 0.867000
0.030436 0.020395 0.883000
-0.014548 -0.041153 0.878000
-0.019049 -0.015337 0.869000
-0.045518 -0.001388 0.869000
-0.038544 0.011079 0.865000
0.052427 0.011832 0.868000
0.021082 0.031805 0.887000
-0.020886 -0.010712 0.871000
-0.005801 -0.020654 0.867000
0.025041 0.038290 0.885000
-0.038320 -0.017820 0.868000
0.012917 -0.001763 0.878000
-0.045316 -0.004982 0.872000
0.028748 0.031075 0.887000
-0.007708 0.016723 0.881000
-0.030460 -0.017463 0.868000
-0.006864 -0.026333 0.866000
0.004200 -0.016410 0.869000
0.043735 0.010547 0.880000
0.039477 0.016742 0.882000
-0.042250 -0.016391 0.868000
-0.011895 -0.015694 0.869000
-0.038629 0.002564 0.875000
0.004553 -0.021750 0.868000
0.017833 -0.013938 0.871000
-0.011882 -0.019606 0.868000
0.015412 -0.001399 0.876000
0.017575 -0.021229 0.876000
0.025770 -0.021083 0.885000
0.017595 0.002931 0.877000
0.047507 0.022065 0.863000
0.001337 -0.018177 0.868000
0.025779 -0.005706 0.873000
0.029047 -0.012547 0.874000
0.003181 0.022602 0.884000
0.038804 -0.006439 0.875000
0.025986 0.009098 0.880000
0.013324 0.015273 0.881000
-0.036702 -0.006776 0.872000
0.013874 -0.015712 0.870000
0.032363 -0.016731 0.886000
-0.014416 -0.011774 0.870000
0.000998 0.016416 0.884000
-0.008347 -0.011801 0.872000
0.033004 -0.008590 0.874000
0.003545 0.023693 0.884000
-0.031852 -0.019940 0.867000
-0.011219 -0.010365 0.872000
-0.014515 -0.003202 0.876000
0.033723 -0.007151 0.874000
0.045908 0.010547 0.880000
-0.023195 -0.045798 0.877000
0.013890 -0.020391 0.871000
-0.024140 -0.016466 0.872000
0.039884 -0.005719 0.875000
0.006002 -0.025410 0.871000
-0.007586 -0.021724 0.867000
-0.000806 -0.018892 0.868000
-0.016450 -0.033384 0.864000
0.049112 0.008364 0.879000
0.008972 -0.028965 0.881000
-0.014333 -0.032355 0.865000
0.016738 -0.015712 0.870000
0.021108 -0.017204 0.873000
0.026528 -0.004633 0.874000
-0.043926 -0.018894 0.852000
-0.007287 -0.010029 0.874000
0.007159 -0.029690 0.881000
0.011927 0.025905 0.885000
-0.028249 0.005819 0.877000
0.031526 0.018578 0.883000
-0.003326 -0.011814 0.873000
0.015412 -0.022671 0.876000
0.009957 -0.009288 0.872000
-0.000811 -0.011455 0.873000
-0.009370 -0.021724 0.867000
0.019039 0.005458 0.877000
-0.018983 -0.022412 0.866000
-0.010417 -0.029863 0.865000
-0.048625 -0.006380 0.867000
0.011739 -0.011070 0.871000
-0.015739 -0.028761 0.864000
-0.005520 0.022836 0.879000
-0.004818 0.012400 0.883000
0.018058 0.017468 0.882000
-0.004450 0.008030 0.882000
0.003533 0.027601 0.881000
-0.024527 -0.008580 0.873000
-0.003669 -0.014979 0.869000
0.051000 0.017072 0.862000
-0.010453 -0.017105 0.868000
0.024038 -0.002118 0.875000
0.038620 0.010535 0.879000
0.014691 -0.023032 0.876000
-0.010084 -0.021011 0.867000
0.035363 0.008364 0.879000
0.013188 -0.009288 0.872000
0.042454 -0.005365 0.876000
-0.031604 -0.012848 0.870000
0.025463 0.030345 0.887000
0.042406 -0.000317 0.875000
-0.027793 0.014792 0.874000
-0.042222 -0.021725 0.853000
-0.013058 -0.006079 0.875000
-0.041679 0.002911 0.871000
0.031128 0.010571 0.882000
0.007437 -0.012146 0.871000
0.048026 0.013429 0.879000
0.016262 -0.025396 0.883000
-0.004445 0.008383 0.881000
0.019599 0.036145 0.886000
-0.021727 0.016268 0.876000
-0.024334 0.010173 0.879000
-0.011270 -0.006807 0.876000
-0.005815 -0.031789 0.869000
0.017136 -0.007494 0.872000
-0.022525 0.010173 0.879000
-0.029625 0.013008 0.875000
0.037722 -0.017211 0.892000
0.027671 -0.015100 0.876000
0.019783 0.007632 0.878000
0.015223 0.027029 0.886000
-0.024057 -0.042161 0.869000
0.043108 0.018920 0.882000
0.020328 0.029217 0.886000
-0.035748 -0.000317 0.875000
-0.043422 -0.012848 0.870000
-0.034152 0.015653 0.862000
0.021132 -0.003554 0.874000
-0.020718 -0.028406 0.864000
0.006441 0.010571 0.882000
-0.002970 -0.010749 0.874000
-0.029693 0.011594 0.877000
-0.015597 -0.002841 0.876000
-0.017873 -0.034807 0.864000
-0.032341 0.017761 0.861000
-0.041631 -0.011415 0.870000
0.034071 0.020395 0.883000
-0.004091 0.012037 0.883000
-0.024956 -0.031925 0.863000
-0.026022 -0.030504 0.863000
-0.022912 -0.046317 0.880000
0.034356 0.014548 0.881000
-0.005808 -0.018534 0.868000
0.007795 -0.011787 0.871000
-0.014689 -0.033423 0.865000
0.025886 -0.023008 0.889000
-0.041056 0.001840 0.873000
0.044408 0.008726 0.879000
-0.035778 -0.019227 0.867000
-0.017459 0.008003 0.879000
-0.021727 0.015907 0.876000
-0.035307 -0.004269 0.873000
0.016912 0.008003 0.879000
0.040930 0.017831 0.882000
0.017455 -0.013564 0.870000
-0.027276 0.017568 0.869000
0.046781 0.017349 0.876000
0.026923 0.031805 0.887000
-0.035135 0.017033 0.860000
0.037662 0.017468 0.882000
-0.007717 0.012749 0.882000
0.019488 0.014185 0.881000
-0.008071 0.005483 0.881000
0.030402 0.009482 0.882000
-0.022904 -0.024551 0.866000
0.022186 -0.007143 0.873000
0.000624 -0.027887 0.870000
0.043696 0.023730 0.872000
-0.021702 0.000763 0.875000
-0.023917 0.005097 0.877000
0.037662 0.016379 0.882000
-0.038945 -0.001755 0.874000
0.047177 0.019021 0.870000
-0.036806 0.011805 0.866000
-0.042964 -0.016748 0.868000
0.003501 -0.009658 0.873000
0.017431 -0.026607 0.887000
-0.010822 -0.016052 0.869000
0.025233 0.008726 0.879000
0.025868 0.001485 0.876000
-0.012046 0.010909 0.880000
-0.020145 -0.015712 0.870000
-0.028120 -0.012892 0.873000
0.042142 0.005097 0.877000
0.026528 -0.003914 0.874000
0.023298 0.032937 0.888000
0.018401 0.013822 0.881000
0.040340 -0.012341 0.885000
-0.035108 0.004736 0.877000
0.020693 0.026664 0.886000
-0.040245 0.006137 0.871000
0.006719 -0.025410 0.871000
0.006812 0.019305 0.883000
0.013399 0.032134 0.886000
-0.002274 0.015671 0.883000
0.033495 -0.016750 0.887000
0.015754 -0.002838 0.875000
0.002087 0.019305 0.883000
0.027257 0.027393 0.886000
-0.000812 -0.010389 0.874000
-0.004379 -0.018534 0.868000
0.028255 0.011673 0.883000
0.022700 0.009811 0.879000
0.013718 0.021486 0.883000
0.046851 0.022090 0.864000
0.009588 -0.011787 0.871000
0.026134 0.020442 0.885000
0.038301 0.012720 0.880000
-0.026794 -0.025235 0.865000
0.021713 -0.022125 0.883000
-0.020981 0.000403 0.875000
0.034922 0.004014 0.877000
0.009610 -0.007862 0.873000
-0.000806 -0.019606 0.868000
-0.016884 -0.019249 0.868000
-0.029165 0.014758 0.872000
-0.002264 0.024644 0.879000
0.021084 -0.008929 0.872000
-0.041105 -0.023999 0.859000
-0.036848 -0.019227 0.867000
-0.021627 -0.042307 0.872000
-0.034427 0.016679 0.860000
0.035882 -0.006792 0.874000
0.020891 0.009811 0.879000
-0.003361 0.020009 0.882000
-0.008796 0.017086 0.881000
0.027924 0.020055 0.884000
0.052250 0.010798 0.871000
0.033230 0.010547 0.880000
-0.018950 -0.045282 0.881000
0.005722 0.018215 0.883000
-0.046217 -0.011140 0.849000
0.025348 -0.019945 0.883000
0.023264 -0.015048 0.873000
-0.010441 -0.020297 0.867000
-0.007603 -0.016052 0.869000
-0.048569 -0.008155 0.866000
-0.008071 0.014185 0.881000
0.037003 0.000043 0.875000
-0.042347 0.001475 0.870000
0.050036 0.004801 0.889000
-0.007603 -0.014979 0.869000
0.012947 0.004028 0.880000
-0.001184 0.022213 0.883000
0.012441 -0.018935 0.870000
-0.008290 -0.030610 0.866000
-0.010773 -0.025235 0.865000
-0.028249 0.005458 0.877000
0.046060 -0.000678 0.876000
0.046165 -0.005016 0.878000
0.012613 0.017105 0.882000
-0.020527 -0.010353 0.871000
-0.003669 -0.015337 0.869000
-0.014350 -0.022412 0.866000
-0.028872 0.014072 0.874000
-0.000457 -0.035572 0.883000
0.038214 0.007632 0.878000
0.013516 -0.014280 0.870000
-0.003311 -0.030001 0.869000
-0.023153 -0.034726 0.862000
-0.032283 -0.015337 0.869000
0.005722 0.020759 0.883000
-0.024573 -0.036145 0.862000
-0.038225 0.006518 0.874000
-0.038408 -0.012490 0.870000
0.040790 0.008364 0.879000
0.010996 -0.019271 0.869000
-0.014090 -0.008929 0.872000
-0.015650 0.011620 0.879000
0.002770 -0.025709 0.869000
-0.010212 0.020280 0.878000
0.018161 0.035091 0.887000
-0.023142 -0.000677 0.875000
0.019738 -0.020147 0.876000
-0.020284 0.002928 0.876000
-0.041603 -0.027276 0.862000
-0.003364 0.012037 0.883000
-0.030345 -0.000317 0.875000
-0.043880 -0.007494 0.872000
0.005982 -0.020678 0.868000
0.027560 0.018963 0.884000
0.008590 -0.028175 0.879000
-0.004450 0.016742 0.882000
-0.004455 0.013854 0.883000
-0.028872 -0.009310 0.874000
-0.029490 -0.013221 0.871000
-0.026794 -0.026659 0.865000
-0.014565 0.013068 0.879000
0.018380 0.011996 0.880000
-0.043521 -0.006776 0.872000
-0.016622 -0.005347 0.873000
0.014674 -0.004278 0.875000
0.010435 0.018557 0.882000
0.036852 0.025397 0.880000
-0.018584 -0.029473 0.864000
-0.013265 -0.031643 0.865000
0.015223 0.028123 0.886000
-0.004384 -0.015337 0.869000
0.022983 0.001485 0.876000
-0.038269 0.005085 0.875000
0.039433 0.014548 0.881000
0.027671 0.001125 0.876000
0.045534 0.023211 0.866000
-0.028023 -0.016070 0.870000
-0.017039 -0.041780 0.876000
0.047972 0.007271 0.878000
0.007062 -0.022490 0.869000
0.011472 -0.001763 0.878000
0.030869 0.026270 0.885000
-0.023808 -0.006784 0.873000
0.027935 -0.011455 0.873000
0.023246 0.019371 0.886000
0.004229 -0.007880 0.875000
-0.022371 -0.004628 0.873000
0.034482 -0.000677 0.875000
0.010411 -0.027483 0.880000
-0.018142 0.003653 0.877000
0.042334 0.019987 0.881000
-0.015830 -0.016410 0.869000
-0.018584 -0.028761 0.864000
-0.002233 -0.026720 0.867000
-0.014058 -0.013922 0.870000
-0.042853 -0.002113 0.873000
-0.037506 0.007238 0.874000
-0.037475 -0.025591 0.865000
0.017372 0.023693 0.884000
0.001695 -0.018892 0.868000
0.044097 0.011996 0.880000
0.003905 0.017488 0.883000
-0.017801 0.014137 0.878000
0.013399 0.029946 0.886000
0.011009 -0.013564 0.870000
0.007184 0.022238 0.884000
0.031491 0.018194 0.882000
-0.030415 0.004736 0.877000
-0.004409 -0.011468 0.874000
0.003909 0.014233 0.884000
-0.040384 0.002561 0.874000
-0.015757 -0.026659 0.865000
0.021590 -0.019832 0.878000
0.013874 -0.017145 0.870000
-0.009159 -0.039480 0.881000
0.003152 -0.006807 0.876000
0.019213 0.022627 0.885000
0.002766 -0.024608 0.868000
-0.010585 0.018132 0.879000
0.010435 0.008393 0.882000
0.046526 -0.004293 0.878000
0.042454 0.000764 0.876000
0.024621 -0.020672 0.883000
0.011472 -0.001041 0.878000
0.038214 0.023532 0.878000
-0.032604 -0.018534 0.868000
0.025828 0.031440 0.887000
-0.034229 0.010104 0.873000
-0.027824 -0.006439 0.875000
0.000623 -0.019249 0.868000
-0.034311 -0.023838 0.866000
-0.038722 -0.014621 0.869000
0.034561 -0.011507 0.877000
0.012670 0.031040 0.886000
0.022517 0.025570 0.886000
0.002766 -0.023536 0.868000
0.011472 -0.025975 0.878000
0.046377 -0.010567 0.889000
0.010387 -0.000679 0.878000
0.001347 -0.010029 0.874000
-0.023974 -0.024194 0.866000
0.018870 0.038698 0.886000
0.002412 -0.017125 0.869000
-0.000820 0.012400 0.883000
0.015605 0.031805 0.887000
-0.033472 -0.009288 0.872000
0.021229 0.007632 0.878000
0.003900 -0.032265 0.882000
-0.015739 -0.029473 0.864000
0.015605 0.030710 0.887000
0.023036 0.006187 0.878000
-0.005457 -0.016767 0.869000
-0.033637 0.013603 0.867000
0.028457 0.005464 0.878000
-0.025159 -0.018219 0.870000
0.021640 0.012358 0.880000
0.017915 -0.000677 0.875000
-0.008062 0.018877 0.880000
0.000980 -0.019606 0.868000
-0.023563 -0.028050 0.864000
0.028360 -0.014002 0.875000
-0.008766 0.021003 0.878000
0.005989 -0.017125 0.869000
-0.040846 -0.025118 0.861000
0.049512 0.016814 0.867000
-0.035625 -0.006776 0.872000
0.025463 0.029615 0.887000
-0.007933 -0.023482 0.866000
0.010798 0.008756 0.882000
0.044408 0.019941 0.879000
0.015500 0.015635 0.881000
0.012208 -0.026005 0.879000
-0.011498 -0.024551 0.866000
-0.006628 0.014927 0.882000
0.002429 -0.008960 0.875000
-0.030495 -0.016410 0.869000
-0.022834 0.004736 0.877000
0.015171 0.021486 0.883000
-0.011270 -0.005365 0.876000
-0.038588 -0.022056 0.866000
-0.005099 -0.015337 0.869000
0.008871 -0.011787 0.871000
-0.037649 0.009342 0.869000
-0.039034 0.010403 0.868000
-0.019519 -0.002835 0.874000
0.016475 -0.002838 0.875000
0.003847 -0.014280 0.870000
0.033268 0.014185 0.881000
0.013733 0.034244 0.884000
0.031673 0.004014 0.877000
0.026498 -0.012892 0.873000
0.000270 0.022576 0.883000
0.009346 0.008756 0.882000
-0.014432 -0.010353 0.871000
-0.014171 -0.001761 0.877000
0.043471 0.016742 0.882000
-0.022371 -0.006065 0.873000
0.007127 -0.003927 0.877000
