0.033955 -0.001043 0.880000
0.038937 -0.006461 0.878000
-0.013841 0.018132 0.879000
0.041656 0.006215 0.882000
0.017535 -0.009310 0.874000
0.015085 -0.025252 0.878000
0.017854 -0.020773 0.872000
0.046165 -0.008991 0.878000
0.019896 0.014581 0.883000
-0.025726 -0.019182 0.865000
-0.020076 0.026092 0.867000
-0.008786 0.009098 0.880000
0.048136 0.001494 0.881000
0.019648 -0.015031 0.872000
0.034109 0.028059 0.884000
0.035243 -0.010773 0.876000
0.023705 -0.006086 0.876000
0.035320 0.021583 0.887000
0.024010 -0.020461 0.874000
-0.019362 -0.028148 0.867000
0.028554 0.000044 0.881000
0.010117 -0.000321 0.886000
-0.006215 -0.008240 0.875000
0.046165 -0.006823 0.878000
-0.017059 0.023145 0.877000
-0.018605 -0.025591 0.865000
0.033478 -0.006815 0.877000
0.016078 -0.010736 0.873000
-0.022904 0.025706 0.866000
-0.019452 -0.005693 0.871000
0.033079 -0.020147 0.876000
0.031598 0.013885 0.885000
0.042142 -0.010785 0.877000
0.023921 0.016053 0.884000
0.039254 -0.007176 0.877000
0.024509 0.002214 0.879000
0.012167 -0.007889 0.876000
0.020436 -0.007520 0.875000
0.023840 0.008021 0.881000
0.031926 0.007684 0.884000
0.005637 -0.014996 0.870000
0.009356 0.022939 0.883000
0.038707 -0.021350 0.881000
0.029114 0.023043 0.887000
0.017816 -0.029195 0.888000
-0.029860 0.025203 0.861000
-0.032604 0.021121 0.868000
-0.026384 0.007966 0.875000
0.041199 -0.020601 0.880000
-0.016281 -0.000676 0.874000
0.034561 -0.007898 0.877000
0.025434 0.021194 0.886000
0.011806 -0.007889 0.876000
0.044147 0.000044 0.881000
0.036050 0.023043 0.887000
-0.005146 0.022062 0.877000
0.014461 0.018599 0.884000
-0.031354 -0.001753 0.873000
-0.019608 0.013775 0.878000
-0.036260 -0.002105 0.870000
0.025927 -0.001402 0.878000
0.038444 -0.014362 0.875000
-0.013043 -0.004993 0.874000
-0.011270 -0.001399 0.876000
0.021082 -0.028067 0.887000
0.003545 0.014961 0.884000
0.008502 -0.017145 0.870000
-0.036593 -0.036455 0.878000
-0.018821 0.006886 0.875000
0.020389 -0.020078 0.873000
-0.002614 -0.028047 0.875000
0.017854 -0.016107 0.872000
0.004595 -0.026998 0.876000
-0.017098 0.017771 0.879000
0.006449 0.022213 0.883000
-0.008016 -0.007159 0.875000
-0.001880 -0.016767 0.869000
-0.005094 -0.019249 0.868000
-0.019787 -0.008551 0.870000
-0.039259 0.012619 0.873000
-0.049638 0.001825 0.866000
-0.036806 -0.014214 0.866000
-0.010798 -0.023509 0.867000
-0.003719 0.008746 0.881000
-0.020551 -0.000675 0.872000
-0.016132 -0.024194 0.866000
0.021517 -0.007520 0.875000
0.017695 0.013112 0.882000
0.014791 0.026181 0.882000
0.034962 -0.003932 0.878000
-0.015775 -0.019561 0.866000
-0.033481 -0.027307 0.863000
0.021492 -0.010749 0.874000
0.013531 -0.021108 0.871000
0.007184 0.014597 0.884000
0.010095 0.014233 0.884000
0.016550 0.000043 0.879000
-0.030675 -0.018804 0.864000
-0.033395 -0.002822 0.870000
0.007513 0.024310 0.880000
-0.013013 -0.007135 0.872000
0.005676 -0.008249 0.876000
-0.029643 -0.018114 0.865000
-0.018503 0.021340 0.877000
0.005683 -0.005371 0.877000
-0.001887 -0.011083 0.872000
-0.013118 0.005470 0.879000
0.000633 0.018920 0.882000
0.026528 0.014266 0.886000
-0.003357 0.009109 0.881000
-0.011309 0.005470 0.879000
0.021058 0.021559 0.886000
0.025204 -0.000318 0.878000
-0.017440 0.013053 0.878000
-0.037103 0.007589 0.873000
-0.020862 -0.005686 0.870000
0.026163 0.028487 0.886000
0.028383 0.023043 0.887000
0.037896 -0.002851 0.879000
-0.042037 0.003986 0.871000
-0.021342 0.007966 0.875000
0.003874 -0.007168 0.876000
0.000981 -0.016052 0.869000
-0.007595 -0.025322 0.868000
-0.031066 0.006886 0.875000
-0.016488 -0.020274 0.866000
0.021108 -0.013611 0.873000
0.032912 -0.027093 0.891000
-0.021936 -0.007119 0.870000
-0.005105 -0.012490 0.870000
-0.006229 -0.029916 0.877000
-0.023207 -0.021649 0.864000
0.042863 -0.008620 0.877000
0.049722 0.002209 0.877000
0.048223 0.007615 0.876000
0.002071 -0.006086 0.876000
0.050501 -0.006823 0.878000
-0.005158 0.019941 0.879000
0.014113 0.023356 0.885000
0.008629 0.008766 0.883000
-0.032733 -0.023728 0.862000
0.038839 -0.022878 0.884000
0.028917 -0.000319 0.881000
0.026984 -0.027398 0.889000
0.000271 -0.032046 0.886000
0.021615 0.003661 0.879000
0.016475 -0.007159 0.875000
0.031348 -0.003932 0.878000
-0.014927 0.018132 0.879000
-0.036954 -0.034287 0.878000
-0.026561 -0.030716 0.869000
0.025770 0.014978 0.885000
-0.010785 -0.021343 0.866000
-0.021098 0.026744 0.865000
-0.042915 -0.006737 0.867000
-0.012465 -0.034157 0.884000
-0.023637 -0.035089 0.880000
-0.009850 -0.031034 0.878000
0.004950 -0.008960 0.875000
-0.022756 0.005439 0.874000
0.032906 -0.000319 0.881000
-0.027166 0.018452 0.877000
-0.033189 0.004720 0.874000
-0.024386 -0.011746 0.868000
-0.001885 -0.012146 0.871000
-0.028971 0.015204 0.877000
-0.010200 0.000765 0.877000
0.033004 -0.013986 0.874000
-0.030276 -0.003909 0.873000
0.031491 0.001133 0.882000
-0.029780 -0.031789 0.869000
-0.046762 -0.010918 0.859000
-0.000450 -0.016052 0.869000
-0.022860 0.019919 0.878000
-0.027496 0.012302 0.876000
-0.029825 0.026589 0.860000
0.021058 0.026299 0.886000
0.019716 -0.023005 0.875000
-0.004022 -0.018534 0.868000
0.004568 -0.014296 0.871000
-0.004440 0.019240 0.880000
-0.023974 -0.028828 0.866000
-0.008656 -0.023866 0.867000
-0.020169 -0.005693 0.871000
0.045442 -0.007545 0.878000
-0.035943 0.002194 0.871000
-0.032172 -0.012789 0.866000
0.010316 -0.023644 0.872000
-0.036828 0.014449 0.875000
-0.024667 0.015582 0.878000
0.009003 0.013870 0.884000
-0.005902 0.011660 0.882000
-0.013311 -0.015319 0.868000
0.012236 0.002944 0.881000
0.000981 -0.022132 0.869000
-0.010165 -0.007871 0.874000
0.042815 -0.012576 0.876000
-0.045465 0.011832 0.868000
-0.035024 -0.031323 0.866000
0.036781 -0.024416 0.887000
-0.010429 -0.022769 0.866000
0.020328 0.025205 0.886000
-0.004031 -0.026097 0.870000
0.013593 -0.007880 0.875000
0.019829 0.007287 0.880000
0.007167 0.023277 0.882000
-0.038585 0.009036 0.874000
0.016493 -0.006086 0.876000
0.036210 0.006941 0.882000
0.024900 0.003303 0.880000
0.007911 0.013142 0.884000
-0.020527 -0.003183 0.871000
0.013718 0.017488 0.883000
-0.015115 -0.011045 0.869000
-0.036218 -0.019986 0.869000
0.044408 0.008726 0.879000
0.013203 -0.023671 0.873000
0.019851 0.008746 0.881000
0.037748 0.024057 0.884000
-0.029388 -0.011389 0.868000
-0.015323 -0.033679 0.881000
-0.016736 0.017771 0.879000
0.010663 -0.021466 0.871000
0.033167 0.023069 0.888000
-0.003326 -0.010736 0.873000
-0.001521 -0.021035 0.868000
-0.017261 -0.011760 0.869000
0.050939 0.005752 0.867000
0.006812 0.020395 0.883000
0.032580 0.000044 0.882000
-0.019787 -0.006402 0.870000
-0.016679 0.004730 0.876000
-0.005801 -0.021724 0.867000
-0.038900 0.013697 0.873000
-0.007673 0.021701 0.877000
0.028392 -0.008249 0.876000
-0.030495 0.021503 0.869000
0.037384 -0.022878 0.884000
-0.030675 -0.020938 0.864000
0.023637 0.023408 0.887000
-0.022938 -0.035129 0.881000
-0.042656 -0.002103 0.869000
0.030175 0.017548 0.886000
-0.026683 -0.002113 0.873000
-0.007752 -0.033870 0.886000
0.017874 -0.011814 0.873000
0.030486 -0.016864 0.874000
0.023036 -0.029326 0.892000
-0.007612 -0.012490 0.870000
0.033839 -0.007537 0.877000
-0.033986 0.013023 0.876000
-0.039169 0.014741 0.871000
-0.013841 0.016324 0.879000
0.032509 -0.026696 0.890000
0.041828 -0.019109 0.878000
0.046270 -0.001405 0.880000
-0.029265 0.010487 0.875000
-0.006613 0.018877 0.880000
-0.017781 0.012677 0.877000
0.009588 -0.016089 0.871000
0.021302 0.009834 0.881000
-0.024985 -0.025561 0.864000
0.018099 -0.027244 0.884000
-0.006888 -0.014621 0.869000
0.036046 -0.004654 0.878000
-0.040337 0.009026 0.873000
-0.034507 -0.026921 0.862000
0.021253 0.002938 0.879000
-0.016337 0.007984 0.877000
-0.040557 0.013292 0.870000
-0.044239 0.007221 0.872000
-0.005533 0.014910 0.881000
-0.013841 0.010173 0.879000
-0.028508 -0.026242 0.863000
0.043323 0.012706 0.879000
0.050747 -0.001759 0.876000
-0.019385 -0.014247 0.868000
0.031673 -0.006815 0.877000
0.007902 0.017852 0.883000
0.031598 0.015706 0.885000
-0.026112 -0.014927 0.866000
-0.001165 -0.017483 0.869000
0.021105 -0.028464 0.888000
-0.037519 -0.011007 0.866000
0.005358 0.017852 0.883000
-0.005501 -0.029161 0.876000
0.006085 0.017488 0.883000
-0.014042 -0.028213 0.869000
-0.015921 0.000403 0.874000
0.029709 0.002588 0.883000
-0.013280 -0.021343 0.866000
0.009003 0.011686 0.884000
0.038171 -0.009342 0.877000
0.019577 0.026270 0.885000
0.022571 -0.010389 0.874000
0.004921 -0.021800 0.870000
-0.012611 -0.012475 0.869000
-0.001165 -0.016052 0.869000
-0.034268 0.008317 0.874000
0.036685 -0.018345 0.876000
0.015682 -0.018957 0.871000
-0.039346 -0.012803 0.867000
0.034434 0.008402 0.883000
-0.010947 0.004385 0.879000
0.028050 0.026724 0.888000
0.003178 0.012764 0.883000
-0.025014 -0.027015 0.865000
-0.004414 -0.006439 0.875000
0.013718 0.015671 0.883000
0.022491 0.020442 0.885000
-0.020645 0.022037 0.876000
0.012470 -0.022926 0.872000
-0.014058 -0.010699 0.870000
-0.014910 0.010162 0.878000
0.007786 -0.017503 0.870000
0.019191 0.017872 0.884000
0.002073 -0.028111 0.877000
0.034955 0.024869 0.887000
-0.031816 -0.013858 0.866000
-0.033280 -0.011019 0.867000
0.031854 0.000770 0.882000
0.030987 -0.003209 0.878000
-0.000457 0.012037 0.883000
0.017956 -0.002844 0.877000
-0.029625 0.005805 0.875000
-0.035339 -0.016690 0.865000
0.012902 -0.006454 0.877000
-0.009148 0.008012 0.880000
0.045751 0.009789 0.877000
0.009720 0.002224 0.883000
0.020389 -0.012892 0.873000
-0.018142 0.010511 0.877000
0.003178 0.010220 0.883000
-0.017000 -0.030893 0.874000
0.043323 0.012344 0.879000
0.006449 0.016398 0.883000
-0.029964 -0.028406 0.864000
-0.014774 -0.009983 0.870000
-0.010537 -0.005359 0.875000
0.014982 -0.013236 0.872000
-0.018313 -0.012818 0.868000
-0.041727 0.011887 0.872000
0.021566 -0.002483 0.877000
-0.014774 -0.009625 0.870000
-0.021702 0.007606 0.875000
-0.042558 -0.008878 0.867000
-0.010235 0.009098 0.880000
-0.009169 -0.032628 0.882000
0.032691 0.013885 0.885000
0.033306 0.005852 0.882000
-0.034987 0.008677 0.874000
0.043274 -0.005739 0.878000
-0.013841 0.012706 0.879000
0.023596 -0.016825 0.872000
-0.030284 -0.026242 0.863000
-0.018121 0.007254 0.876000
-0.030033 -0.014571 0.866000
0.033762 -0.012201 0.875000
-0.007656 -0.007880 0.875000
0.024065 -0.006807 0.876000
0.002415 -0.014638 0.870000
-0.010549 -0.002841 0.876000
-0.033433 -0.001032 0.871000
-0.002977 -0.028800 0.876000
-0.035902 -0.002822 0.870000
0.008639 0.013506 0.884000
-0.021098 -0.025235 0.865000
0.003174 0.019283 0.882000
0.053019 -0.001739 0.866000
-0.016318 0.005091 0.876000
0.030471 0.004046 0.884000
0.048388 -0.006107 0.879000
0.043323 0.011259 0.879000
0.049665 0.002928 0.876000
-0.015455 -0.013533 0.868000
-0.030054 0.014843 0.877000
-0.030640 -0.021624 0.863000
-0.001906 0.020349 0.881000
-0.012225 -0.019583 0.867000
-0.009044 -0.027529 0.870000
-0.010212 0.001127 0.878000
0.028716 0.012078 0.886000
-0.008666 -0.016034 0.868000
-0.044699 -0.006737 0.867000
0.003537 0.021098 0.882000
-0.019027 -0.012104 0.868000
-0.009828 -0.002481 0.876000
-0.030355 -0.018826 0.865000
-0.044854 0.000401 0.870000
0.048081 -0.003216 0.880000
0.038893 -0.008259 0.877000
-0.004379 -0.022107 0.868000
-0.031101 0.018071 0.876000
0.029440 -0.020484 0.875000
-0.023645 -0.013160 0.867000
0.031705 0.025993 0.888000
-0.031495 -0.011019 0.867000
-0.038138 0.017988 0.872000
0.022700 0.003661 0.879000
0.011766 -0.010018 0.873000
0.014113 0.022263 0.885000
0.008172 -0.010736 0.873000
-0.019719 -0.015658 0.867000
0.040249 0.014944 0.883000
0.002440 0.023921 0.879000
0.053901 0.004660 0.863000
0.024509 0.002938 0.879000
0.003553 -0.031682 0.886000
0.041246 0.018174 0.881000
0.005644 -0.023259 0.871000
-0.012211 -0.021343 0.866000
0.031526 0.002588 0.883000
-0.043063 0.001117 0.870000
-0.006912 -0.010724 0.872000
0.010026 -0.003570 0.878000
-0.044087 0.012561 0.869000
0.003887 -0.028537 0.879000
0.022855 0.018985 0.885000
0.016758 -0.016447 0.871000
0.034837 0.012414 0.884000
-0.002238 -0.024636 0.869000
0.037853 -0.006461 0.878000
-0.007312 0.020257 0.877000
0.030243 0.024531 0.888000
0.035283 -0.005732 0.877000
0.022905 -0.018282 0.873000
-0.011296 0.018473 0.878000
0.035161 0.008766 0.883000
-0.035104 -0.008888 0.868000
-0.027464 0.005085 0.875000
-0.043679 -0.004244 0.868000
-0.036301 0.001835 0.871000
-0.012338 -0.003558 0.875000
0.020214 0.009471 0.881000
0.035363 -0.001765 0.879000
-0.001545 0.009845 0.882000
0.027227 0.030641 0.885000
0.039524 -0.015443 0.875000
0.002066 -0.010029 0.874000
0.026139 -0.013970 0.873000
0.036366 -0.019448 0.877000
0.014774 0.004757 0.881000
-0.043521 0.007221 0.872000
0.021713 0.028027 0.883000
-0.034346 -0.035651 0.876000
0.013890 -0.015372 0.871000
-0.003334 -0.007520 0.875000
-0.026408 -0.024850 0.864000
0.037342 -0.022489 0.883000
0.019783 -0.024530 0.878000
0.009356 0.016034 0.883000
-0.031822 0.014826 0.876000
-0.020307 0.011594 0.877000
-0.030241 -0.005340 0.872000
0.050341 0.006839 0.869000
0.020030 -0.012892 0.873000
0.024677 0.018620 0.885000
-0.010561 0.021340 0.877000
0.047048 0.005845 0.881000
0.020305 0.019713 0.885000
0.031598 0.012428 0.885000
0.018572 -0.020773 0.872000
-0.006258 -0.031503 0.881000
-0.022345 -0.002110 0.872000
0.015844 0.003665 0.880000
0.017214 -0.005725 0.876000
-0.002246 -0.011083 0.872000
-0.006530 -0.026067 0.869000
0.024038 -0.008960 0.875000
-0.008034 0.021340 0.877000
-0.014009 -0.026363 0.867000
-0.021171 -0.012461 0.868000
0.020389 -0.011814 0.873000
0.044307 -0.008981 0.877000
0.029612 -0.027827 0.891000
0.052958 0.007875 0.865000
-0.015976 0.010150 0.877000
0.020868 0.001489 0.878000
-0.022294 -0.007477 0.870000
-0.027824 0.019851 0.875000
0.001724 0.012037 0.883000
0.021541 -0.006086 0.876000
0.017635 -0.025281 0.879000
0.010083 0.018942 0.883000
-0.028249 0.017369 0.877000
-0.009381 -0.026037 0.868000
-0.012324 -0.006792 0.874000
0.043784 0.000769 0.881000
0.022907 -0.027702 0.887000
-0.019856 0.000402 0.873000
-0.013684 -0.011045 0.869000
-0.018821 0.006165 0.875000
0.052608 -0.004259 0.871000
0.041293 0.012023 0.882000
-0.027182 -0.029541 0.866000
0.039159 0.008402 0.883000
-0.006951 0.022062 0.877000
0.016206 0.005839 0.880000
-0.027895 -0.015997 0.866000
-0.024140 -0.000675 0.872000
-0.026825 -0.014571 0.866000
-0.045928 0.008637 0.870000
0.025606 -0.028959 0.892000
0.033130 0.020853 0.887000
-0.026293 -0.006776 0.872000
0.013354 0.017125 0.883000
0.002448 0.017105 0.882000
0.010688 -0.011096 0.873000
0.004616 0.025035 0.880000
0.028159 0.000043 0.880000
-0.002266 -0.030018 0.880000
-0.020766 -0.018492 0.866000
0.038127 -0.009691 0.876000
0.053839 0.002171 0.862000
-0.013684 -0.013191 0.869000
0.018017 0.007287 0.880000
0.022983 -0.005725 0.876000
-0.009013 -0.022795 0.867000
0.002431 -0.006086 0.876000
-0.031786 0.002924 0.875000
-0.034902 -0.028018 0.863000
-0.029265 0.007966 0.875000
-0.013073 -0.002120 0.876000
-0.046816 -0.011638 0.860000
0.018930 -0.018979 0.872000
-0.025390 0.016305 0.878000
0.038112 0.011323 0.884000
-0.011671 0.015600 0.879000
0.028457 -0.002486 0.878000
-0.038094 0.016533 0.871000
0.003178 -0.030484 0.883000
0.008629 0.019305 0.883000
0.047141 0.009778 0.876000
-0.016132 -0.025977 0.866000
-0.035503 -0.032862 0.869000
-0.010107 -0.012833 0.869000
0.024203 0.008021 0.881000
-0.032491 -0.016334 0.865000
-0.018334 -0.009972 0.869000
-0.046861 -0.001354 0.848000
-0.017781 0.009789 0.877000
-0.046020 -0.010994 0.865000
-0.039259 0.012978 0.873000
-0.005451 -0.023179 0.868000
0.021253 -0.024558 0.879000
0.040930 0.019283 0.882000
-0.035421 -0.008878 0.867000
-0.013637 -0.024194 0.866000
-0.024611 0.010860 0.876000
0.013188 -0.012518 0.872000
0.041162 -0.023686 0.887000
-0.005801 -0.020654 0.867000
-0.033947 0.017690 0.875000
0.009218 -0.021442 0.870000
-0.045256 -0.012759 0.864000
0.040883 0.017811 0.881000
0.044821 -0.001043 0.880000
-0.023063 -0.001034 0.872000
-0.028088 -0.007135 0.872000
-0.003711 0.020665 0.879000
-0.039886 0.016175 0.871000
0.026498 -0.015407 0.873000
-0.043830 0.003628 0.871000
0.011173 0.013490 0.883000
-0.023617 -0.017422 0.866000
0.003922 -0.031718 0.887000
0.038488 -0.017984 0.876000
-0.010107 -0.012475 0.869000
0.027380 -0.024132 0.890000
-0.003686 -0.010736 0.873000
0.040249 0.006949 0.883000
-0.028120 -0.004628 0.873000
0.006719 -0.013938 0.871000
0.038444 -0.016523 0.875000
-0.047671 0.004240 0.850000
-0.013480 0.007279 0.879000
0.037468 0.018641 0.886000
0.006106 -0.030952 0.886000
-0.011154 -0.025650 0.867000
0.017635 0.001129 0.879000
-0.018648 -0.016729 0.867000
-0.022984 -0.009614 0.869000
0.021664 0.009834 0.881000
-0.001181 -0.030415 0.881000
0.034837 -0.023606 0.884000
-0.000457 0.013127 0.883000
-0.046001 -0.000311 0.858000
0.004637 0.015689 0.884000
0.038301 0.000768 0.880000
0.020214 0.009109 0.881000
0.022881 0.021194 0.886000
-0.009467 0.021315 0.876000
-0.031816 -0.014214 0.866000
0.011380 -0.021825 0.871000
0.026893 0.028487 0.886000
0.028383 0.022313 0.887000
0.006002 -0.013938 0.871000
-0.018249 -0.023098 0.865000
-0.039886 0.001118 0.871000
-0.038094 0.016892 0.871000
0.004984 -0.028965 0.881000
-0.029320 -0.015640 0.866000
0.018442 0.016034 0.883000
0.047862 0.008336 0.876000
-0.033510 0.003277 0.873000
0.024454 -0.023058 0.877000
0.018017 -0.025672 0.880000
-0.045947 -0.007012 0.857000
-0.022087 0.010139 0.876000
-0.034268 0.007957 0.874000
-0.013810 0.002570 0.877000
-0.043372 -0.000672 0.869000
0.025799 0.021923 0.886000
0.051119 0.008933 0.864000
0.014412 0.005120 0.881000
-0.011206 -0.028277 0.871000
-0.006605 -0.030708 0.879000
-0.014350 -0.023482 0.866000
0.042502 -0.010063 0.877000
-0.034667 0.016249 0.875000
0.014607 -0.018598 0.871000
-0.013700 -0.009983 0.870000
0.035002 -0.002127 0.879000
-0.019049 -0.009614 0.869000
0.030486 -0.017224 0.874000
-0.029693 0.014843 0.877000
0.018657 -0.004283 0.876000
-0.024499 -0.001751 0.872000
-0.034430 0.020430 0.869000
0.013906 -0.021491 0.872000
-0.023142 0.008326 0.875000
0.040249 0.016034 0.883000
0.025799 0.020100 0.886000
0.002417 -0.013580 0.871000
-0.022166 -0.020250 0.865000
-0.021005 0.022037 0.876000
0.007445 -0.012518 0.872000
0.024477 -0.028927 0.891000
0.031669 -0.024416 0.887000
-0.026203 0.022933 0.869000
0.038301 -0.001043 0.880000
0.022237 -0.009320 0.875000
0.042382 0.008756 0.882000
-0.005094 -0.018534 0.868000
0.035603 -0.009331 0.876000
-0.008071 -0.031866 0.881000
0.014965 -0.020391 0.871000
0.017997 0.004747 0.879000
0.011419 -0.009310 0.874000
0.051468 -0.005004 0.876000
-0.034102 -0.036858 0.879000
-0.011591 -0.007862 0.873000
-0.025274 0.004720 0.874000
-0.013826 0.004741 0.878000
0.005683 -0.027028 0.877000
0.017495 -0.019696 0.872000
-0.002950 -0.020678 0.868000
0.015394 -0.006799 0.875000
-0.038900 0.014056 0.873000
-0.029677 -0.015997 0.866000
0.000995 0.021075 0.881000
-0.034588 0.006151 0.873000
0.000625 -0.025410 0.871000
-0.029574 -0.025887 0.863000
0.012456 -0.014655 0.871000
0.040651 -0.011494 0.876000
-0.011322 0.010909 0.880000
-0.007952 -0.016391 0.868000
0.023036 0.000766 0.878000
0.013795 -0.029926 0.888000
0.037982 0.004395 0.881000
-0.028610 0.017369 0.877000
-0.011991 -0.002841 0.876000
0.031961 -0.018324 0.875000
-0.026384 0.009407 0.875000
-0.017781 0.011233 0.877000
0.051049 -0.001757 0.875000
0.033516 -0.005016 0.878000
-0.027104 0.008686 0.875000
0.011550 0.011686 0.884000
-0.028577 0.019152 0.876000
0.033364 -0.015785 0.874000
-0.025332 0.010139 0.876000
-0.008034 0.021701 0.877000
-0.004419 -0.028800 0.876000
0.036324 -0.008970 0.876000
-0.012366 0.001848 0.877000
-0.028806 -0.007494 0.872000
0.009013 -0.029825 0.885000
-0.028905 0.003645 0.875000
-0.032416 -0.023400 0.863000
0.043896 -0.011494 0.876000
0.019599 0.025205 0.886000
0.011537 0.015671 0.883000
-0.037334 -0.001747 0.870000
0.033167 0.024531 0.888000
0.031234 0.029912 0.885000
0.022726 -0.024586 0.880000
0.027373 -0.001763 0.878000
0.036978 0.008766 0.883000
0.007893 0.023277 0.882000
-0.008357 -0.028702 0.873000
-0.016337 0.020618 0.877000
-0.030640 -0.023400 0.863000
0.027622 0.015360 0.886000
-0.026408 0.024935 0.864000
0.026311 -0.028560 0.891000
-0.018648 -0.016372 0.867000
0.027341 -0.005010 0.877000
-0.008736 -0.004999 0.875000
-0.030675 -0.019160 0.864000
0.011173 0.017125 0.883000
-0.008367 -0.008590 0.874000
0.037767 -0.018345 0.876000
0.049835 -0.000680 0.879000
-0.005176 0.012386 0.882000
-0.027119 -0.022716 0.864000
0.026199 -0.009320 0.875000
0.043084 -0.023739 0.889000
-0.016337 0.009067 0.877000
-0.026794 -0.019538 0.865000
0.038893 -0.007537 0.877000
-0.017598 -0.028180 0.868000
0.028127 -0.001404 0.879000
-0.041989 0.001833 0.870000
0.028287 0.006229 0.884000
0.012456 -0.016447 0.871000
-0.015254 0.003653 0.877000
-0.030706 0.006886 0.875000
0.037020 0.011686 0.884000
-0.034033 0.021478 0.868000
-0.043222 -0.009937 0.866000
-0.009096 -0.005359 0.875000
-0.046020 -0.013486 0.865000
-0.010935 0.018835 0.878000
-0.014350 -0.021699 0.866000
-0.022496 -0.022716 0.864000
-0.008016 -0.006079 0.875000
-0.006880 -0.023893 0.868000
-0.026744 0.006886 0.875000
-0.035298 -0.019160 0.864000
-0.004054 -0.007520 0.875000
-0.022444 0.028425 0.862000
-0.035625 0.002555 0.872000
0.016587 0.008383 0.881000
-0.037420 0.004709 0.872000
-0.018162 0.013053 0.878000
0.040112 -0.001767 0.880000
0.016796 -0.010377 0.873000
-0.002235 -0.021750 0.868000
-0.021759 0.028103 0.863000
-0.029693 0.018091 0.877000
0.035923 -0.015443 0.875000
0.004205 -0.015354 0.870000
-0.046217 0.001440 0.849000
0.048081 -0.002854 0.880000
-0.015202 -0.002115 0.874000
-0.023890 0.011941 0.876000
0.048153 -0.010921 0.888000
-0.013118 0.013429 0.879000
-0.037506 0.010115 0.874000
-0.036449 -0.013858 0.866000
0.036292 0.010959 0.884000
0.030800 0.002224 0.883000
0.051534 0.005027 0.865000
-0.040868 -0.002818 0.869000
0.017313 -0.026064 0.881000
0.000266 -0.025410 0.871000
0.017475 -0.017881 0.871000
-0.019696 -0.027402 0.866000
0.031022 -0.022387 0.879000
-0.024715 -0.014588 0.867000
-0.035860 -0.003534 0.869000
-0.026591 -0.031468 0.870000
-0.008405 0.019557 0.878000
0.036050 -0.024781 0.887000
-0.027042 -0.000316 0.873000
0.034122 -0.011481 0.875000
0.021010 0.016053 0.884000
0.028651 0.005865 0.884000
0.009356 0.017125 0.883000
0.026558 0.022678 0.887000
0.014607 -0.016089 0.871000
0.051770 0.006081 0.863000
0.022931 -0.012187 0.874000
-0.030959 -0.033335 0.872000
-0.027959 0.022907 0.868000
0.036685 -0.010773 0.876000
0.014428 0.027270 0.882000
-0.018439 0.001842 0.874000
0.028522 -0.000681 0.880000
0.014825 0.018963 0.884000
-0.003315 -0.013922 0.870000
-0.031963 -0.032542 0.870000
0.018721 0.003299 0.879000
-0.005457 -0.015694 0.869000
-0.025370 -0.018826 0.865000
-0.026713 0.005079 0.874000
0.025868 -0.005365 0.876000
0.029507 -0.005371 0.877000
-0.004389 -0.026097 0.870000
0.028018 0.022678 0.887000
-0.013073 -0.001399 0.876000
-0.027073 0.003640 0.874000
-0.028512 -0.000317 0.874000
0.031304 0.028154 0.887000
0.051534 0.009655 0.865000
0.010724 -0.008249 0.876000
-0.011167 -0.016034 0.868000
-0.026113 0.018835 0.878000
0.034148 0.029548 0.885000
0.019378 -0.023392 0.876000
0.010785 0.002944 0.881000
0.015120 0.002941 0.880000
0.021713 0.014944 0.883000
-0.031066 0.007246 0.875000
0.034083 -0.015785 0.874000
0.042454 -0.012576 0.876000
-0.039932 0.004709 0.872000
0.017635 0.003299 0.879000
0.022389 0.008746 0.881000
-0.033587 0.017690 0.875000
0.019555 0.018599 0.884000
0.020283 0.017508 0.884000
0.014691 -0.006807 0.876000
-0.043629 -0.007451 0.867000
0.030845 -0.018303 0.874000
-0.002998 0.012023 0.882000
0.033242 -0.026696 0.890000
-0.010072 -0.021343 0.866000
0.003185 -0.031282 0.885000
0.021852 -0.010389 0.874000
0.031634 0.028123 0.886000
-0.019203 0.022037 0.876000
-0.013403 -0.005353 0.874000
-0.020598 0.004360 0.874000
0.009229 -0.022542 0.871000
0.006820 0.012050 0.884000
0.001360 0.012037 0.883000
-0.020886 -0.003183 0.871000
-0.049737 0.007597 0.874000
0.004933 -0.011801 0.872000
-0.024195 0.005439 0.874000
-0.027443 -0.023400 0.863000
0.033193 -0.002489 0.879000
-0.018503 -0.031360 0.877000
-0.033433 -0.001391 0.871000
-0.018121 0.008696 0.876000
-0.025000 0.019896 0.877000
-0.017760 0.006533 0.876000
-0.004813 0.012749 0.882000
-0.001911 0.012764 0.883000
-0.000456 0.011297 0.882000
-0.033548 0.009036 0.874000
0.002054 -0.022848 0.869000
-0.006590 0.020979 0.877000
-0.023590 -0.019182 0.865000
0.003174 0.017831 0.882000
0.039388 -0.000319 0.880000
-0.038050 -0.001389 0.870000
-0.006215 -0.006799 0.875000
0.032107 -0.026301 0.889000
0.012111 -0.012877 0.872000
0.022983 -0.005365 0.876000
0.046270 0.006925 0.880000
-0.039528 0.002552 0.871000
0.018380 0.006201 0.880000
0.021398 -0.026911 0.885000
0.012125 -0.023671 0.873000
0.043784 0.001494 0.881000
-0.016355 0.013414 0.878000
-0.001878 -0.022107 0.868000
-0.026652 -0.007494 0.872000
-0.011868 -0.024222 0.867000
0.012278 0.021874 0.884000
0.000267 -0.010736 0.873000
-0.031139 -0.011019 0.867000
-0.038452 0.002552 0.871000
-0.004758 -0.011083 0.872000
0.042334 0.002219 0.881000
0.025319 0.009119 0.882000
0.014741 -0.001042 0.879000
-0.020238 0.004000 0.874000
0.002059 -0.025051 0.871000
0.024370 -0.011828 0.874000
-0.039346 -0.009949 0.867000
0.018038 0.010559 0.881000
0.041059 -0.018005 0.877000
0.026169 -0.013267 0.874000
-0.034943 -0.030539 0.864000
0.034955 0.021583 0.887000
0.030904 0.020100 0.886000
-0.030380 0.012662 0.876000
-0.025043 -0.028828 0.866000
-0.021759 0.027037 0.863000
0.044821 -0.000681 0.880000
-0.013418 -0.004278 0.875000
0.032358 -0.007889 0.876000
0.003505 -0.010029 0.874000
-0.041320 0.003628 0.871000
-0.034787 -0.006037 0.869000
0.014724 -0.003570 0.878000
-0.018038 -0.002828 0.872000
-0.021751 0.012316 0.877000
0.039931 0.012414 0.884000
0.013718 0.012764 0.883000
-0.021553 -0.008183 0.869000
-0.023617 -0.016353 0.866000
0.004642 -0.030918 0.885000
-0.025575 -0.002828 0.872000
-0.039841 -0.001389 0.870000
-0.027570 -0.012803 0.867000
0.032691 -0.023997 0.885000
0.017195 -0.007159 0.875000
-0.008034 0.019896 0.877000
0.012264 0.012764 0.883000
-0.027042 -0.032654 0.873000
0.051770 0.007857 0.863000
-0.026024 0.007246 0.875000
-0.015508 -0.007485 0.871000
-0.027506 -0.017402 0.865000
0.004258 0.022888 0.881000
0.016262 0.016034 0.883000
0.009324 0.025759 0.880000
0.022905 -0.012533 0.873000
-0.022808 0.009417 0.876000
-0.033189 0.018389 0.874000
0.004249 0.023921 0.879000
0.013906 -0.014672 0.872000
-0.028185 0.010487 0.875000
-0.023835 0.005439 0.874000
-0.045308 -0.011350 0.865000
-0.024527 0.002918 0.873000
0.021010 -0.026880 0.884000
-0.030345 0.001484 0.875000
-0.034827 0.020811 0.870000
-0.041320 0.002552 0.871000
0.050991 -0.001036 0.874000
0.028031 -0.006086 0.876000
0.015171 0.016761 0.883000
-0.032771 -0.026952 0.863000
0.013640 -0.004293 0.878000
0.031562 0.005865 0.884000
-0.029985 0.000043 0.875000
0.016006 -0.029960 0.889000
-0.013763 -0.004633 0.874000
0.013294 -0.026367 0.879000
-0.046624 -0.012744 0.863000
0.043108 0.005852 0.882000
0.039567 0.013142 0.884000
-0.006538 -0.026813 0.870000
0.050399 0.005056 0.870000
0.019693 -0.008950 0.874000
0.039569 -0.011134 0.876000
0.015324 -0.018957 0.871000
-0.036491 -0.010662 0.867000
-0.001164 -0.019249 0.868000
0.010773 0.000043 0.880000
0.024786 -0.006447 0.876000
0.051474 0.000759 0.870000
-0.022984 -0.030001 0.869000
-0.035145 -0.004964 0.869000
0.041828 -0.006100 0.878000
-0.010847 -0.009636 0.871000
-0.036551 -0.022697 0.877000
-0.048132 -0.013938 0.871000
0.032399 0.026694 0.887000
-0.010513 -0.008580 0.873000
0.002068 -0.008960 0.875000
0.038198 0.017912 0.886000
0.030209 0.028154 0.887000
0.038432 0.007312 0.883000
-0.045004 -0.008512 0.866000
0.034522 -0.010052 0.876000
0.011498 0.001130 0.880000
0.031339 0.024897 0.888000
0.018038 0.008383 0.881000
-0.009727 -0.017799 0.867000
0.034719 0.003670 0.881000
-0.024167 0.022320 0.873000
0.013354 0.010583 0.883000
0.019213 0.025541 0.885000
-0.009055 -0.010712 0.871000
-0.032073 0.000402 0.873000
-0.020331 0.016305 0.878000
-0.023835 0.021627 0.874000
-0.023368 -0.006402 0.870000
-0.002614 -0.007159 0.875000
0.024203 0.006933 0.881000
0.017391 0.023356 0.885000
-0.037649 -0.002461 0.869000
-0.029298 0.012662 0.876000
-0.012394 -0.032155 0.879000
-0.032491 -0.017046 0.865000
0.036374 0.024841 0.886000
-0.030103 -0.011032 0.868000
-0.026652 -0.004264 0.872000
0.051351 -0.002115 0.874000
0.022517 0.022653 0.886000
0.022127 0.018985 0.885000
0.052910 -0.008249 0.876000
-0.032829 -0.034490 0.874000
0.023584 0.019713 0.885000
0.020191 0.007287 0.880000
-0.048268 0.008250 0.867000
-0.031277 0.026266 0.861000
0.023264 -0.019719 0.873000
-0.020030 -0.024879 0.865000
-0.032109 0.009036 0.874000
-0.001526 -0.026127 0.871000
0.054526 -0.006065 0.873000
0.041246 0.016361 0.881000
0.040976 0.010946 0.883000
0.047862 0.008696 0.876000
-0.025029 0.018835 0.878000
0.037662 0.006578 0.882000
-0.006872 -0.019583 0.867000
0.023062 0.002938 0.879000
0.030126 -0.013626 0.874000
-0.002957 -0.012848 0.870000
0.052774 0.003236 0.862000
-0.000807 -0.016410 0.869000
-0.023222 0.019196 0.878000
-0.018162 0.013414 0.878000
-0.015615 0.006901 0.877000
-0.011684 0.010185 0.880000
0.014346 -0.005371 0.877000
-0.016641 0.000763 0.874000
-0.020386 0.027456 0.865000
0.029081 0.010254 0.886000
0.025868 -0.006447 0.876000
-0.031677 -0.003187 0.872000
0.004637 0.013870 0.884000
-0.036025 0.007229 0.873000
-0.035695 -0.016690 0.865000
0.035565 0.028059 0.884000
-0.005457 -0.016410 0.869000
-0.023590 -0.026303 0.865000
0.012236 0.003670 0.881000
0.052836 0.001463 0.863000
-0.016923 -0.008551 0.870000
0.024203 0.006570 0.881000
-0.025217 0.022295 0.872000
-0.032716 0.019760 0.871000
-0.036510 -0.036011 0.876000
-0.025361 0.013038 0.877000
-0.032729 -0.037305 0.881000
-0.018142 0.011594 0.877000
-0.032416 0.023485 0.863000
-0.013464 0.003296 0.878000
-0.032923 -0.011019 0.867000
0.040521 0.018174 0.881000
0.051355 0.003615 0.868000
0.006085 0.018215 0.883000
-0.047840 -0.002064 0.853000
0.005389 -0.031753 0.888000
0.011900 0.013854 0.883000
0.042574 -0.022930 0.886000
0.014113 0.023720 0.885000
0.013969 -0.007168 0.876000
0.033707 0.008039 0.883000
0.007911 0.012050 0.884000
0.024285 0.014597 0.884000
0.018275 -0.006799 0.875000
0.031269 0.017183 0.886000
0.018721 0.004385 0.879000
-0.041320 0.012232 0.871000
-0.036301 0.019401 0.871000
-0.035027 0.013368 0.875000
-0.022522 -0.025591 0.865000
-0.035145 -0.005322 0.869000
0.026252 -0.027764 0.889000
-0.035584 0.020118 0.871000
0.046217 -0.005022 0.879000
0.038795 0.022213 0.883000
-0.046020 -0.009926 0.865000
0.024701 -0.018641 0.873000
0.006812 0.020759 0.883000
0.023623 -0.013970 0.873000
-0.023288 -0.015658 0.867000
0.013354 0.008766 0.883000
-0.035748 0.012288 0.875000
-0.007237 -0.025322 0.868000
-0.032146 0.011568 0.875000
0.009346 -0.028635 0.882000
0.034239 -0.005016 0.878000
0.029114 0.022678 0.887000
-0.007337 0.008374 0.880000
0.019716 -0.007520 0.875000
0.050402 -0.010567 0.889000
-0.039346 -0.009592 0.867000
0.052602 0.001467 0.865000
-0.008676 -0.026782 0.869000
0.051891 -0.001391 0.871000
-0.021603 -0.003183 0.871000
-0.015848 -0.028961 0.870000
-0.009424 -0.028310 0.872000
0.027217 -0.018282 0.873000
0.003905 0.017125 0.883000
0.052186 0.009288 0.864000
0.015934 0.024084 0.885000
-0.007691 0.018856 0.879000
-0.028577 0.011941 0.876000
0.004595 -0.008610 0.876000
-0.023315 -0.011746 0.868000
-0.020739 -0.032192 0.880000
0.017008 0.025876 0.884000
0.041246 0.001131 0.881000
0.012470 -0.013954 0.872000
-0.012741 0.003296 0.878000
-0.027824 -0.033809 0.875000
-0.028931 0.023896 0.865000
0.028424 -0.004649 0.877000
-0.039304 0.010835 0.874000
-0.023781 0.000043 0.872000
0.004558 -0.020344 0.869000
0.007428 -0.020367 0.870000
0.021787 0.024476 0.886000
0.018213 -0.014672 0.872000
0.006812 0.021486 0.883000
-0.034547 -0.029083 0.863000
0.013354 0.016398 0.883000
0.041608 0.016723 0.881000
-0.023288 0.025022 0.867000
0.009218 -0.019651 0.870000
-0.028545 0.002564 0.875000
0.034916 0.017548 0.886000
0.033723 -0.013986 0.874000
-0.004445 0.008746 0.881000
0.044509 0.001131 0.881000
0.032506 -0.022412 0.880000
0.040249 0.006585 0.883000
-0.032679 -0.005328 0.870000
0.011034 -0.011442 0.872000
-0.023863 0.007606 0.875000
-0.028964 -0.016353 0.866000
-0.004424 0.022062 0.877000
0.022186 -0.013970 0.873000
0.021763 0.019349 0.885000
0.038519 0.014614 0.885000
0.023371 -0.003205 0.877000
-0.027119 -0.027339 0.864000
-0.012712 -0.001399 0.876000
-0.026082 -0.019182 0.865000
-0.002632 0.019261 0.881000
-0.014155 0.020594 0.876000
0.011498 0.001854 0.880000
0.030141 0.009150 0.885000
-0.032246 -0.008531 0.868000
0.002412 -0.016410 0.869000
0.049192 0.006518 0.874000
-0.007346 0.013822 0.881000
-0.024278 0.014121 0.877000
-0.007603 -0.014621 0.869000
-0.005495 -0.007520 0.875000
0.021398 0.026998 0.885000
0.003847 -0.022516 0.870000
-0.003334 -0.008240 0.875000
-0.032999 0.020787 0.869000
0.034032 0.005126 0.882000
-0.015289 0.017409 0.879000
0.036210 0.005489 0.882000
-0.007586 -0.021011 0.867000
0.000628 -0.007889 0.876000
0.041514 -0.002489 0.879000
0.007938 0.008075 0.887000
-0.034192 -0.028728 0.863000
0.042648 0.014893 0.880000
-0.026918 -0.031074 0.869000
-0.030711 -0.018470 0.865000
0.032728 0.019371 0.886000
0.036852 -0.000319 0.880000
0.024871 0.002214 0.879000
-0.046180 -0.001029 0.868000
0.035928 0.012778 0.884000
-0.021122 -0.027402 0.866000
-0.007321 -0.030312 0.878000
0.039235 -0.026419 0.893000
0.006727 -0.024721 0.872000
0.032034 -0.023321 0.887000
0.041246 0.015998 0.881000
-0.029165 -0.006058 0.872000
-0.032061 -0.026597 0.863000
0.022804 0.028754 0.883000
-0.030565 0.020477 0.871000
0.046738 0.004400 0.882000
0.002801 0.024283 0.879000
-0.039483 -0.001389 0.870000
-0.030380 0.014105 0.876000
0.006030 -0.026247 0.875000
0.037767 -0.017984 0.876000
-0.024302 -0.019894 0.865000
-0.033559 -0.015266 0.865000
0.012599 0.001857 0.881000
0.032943 0.003674 0.882000
-0.044547 0.004703 0.871000
-0.025303 0.007246 0.875000
0.039705 -0.003574 0.879000
0.036050 0.021218 0.887000
-0.022320 -0.003183 0.871000
-0.036426 0.009396 0.874000
-0.030380 0.005091 0.876000
-0.026469 -0.029541 0.866000
-0.020957 0.004360 0.874000
-0.033559 -0.030931 0.865000
0.023477 0.009109 0.881000
0.043372 0.008736 0.880000
0.036172 -0.025964 0.890000
0.032801 0.026359 0.888000
0.002773 -0.013922 0.870000
-0.031066 0.007966 0.875000
-0.014706 -0.022056 0.866000
-0.011283 -0.000679 0.877000
-0.042201 -0.007094 0.867000
0.002773 -0.014996 0.870000
-0.030741 0.013383 0.876000
-0.045264 0.007930 0.871000
0.036490 0.000406 0.880000
-0.037061 0.017270 0.872000
-0.037822 0.007948 0.873000
-0.002235 -0.018177 0.868000
-0.025390 0.015582 0.878000
0.011060 -0.009310 0.874000
-0.019586 0.013038 0.877000
-0.045717 -0.013858 0.866000
0.026771 0.005489 0.882000
0.014825 0.019327 0.884000
0.041574 -0.023713 0.888000
0.023246 0.021559 0.886000
0.029512 -0.025540 0.888000
0.019599 0.022288 0.886000
-0.028864 -0.023755 0.863000
-0.018249 -0.021318 0.865000
-0.035748 0.013368 0.875000
0.029776 0.030276 0.885000
0.014379 -0.002489 0.879000
-0.014058 -0.009625 0.870000
0.048081 -0.001043 0.880000
0.017555 -0.006079 0.875000
-0.023563 -0.024850 0.864000
0.034263 0.023069 0.888000
0.020122 -0.000679 0.877000
0.007428 -0.021084 0.870000
0.034590 0.025599 0.887000
-0.002256 -0.028440 0.876000
0.022649 -0.003566 0.877000
-0.014350 -0.020274 0.866000
0.041733 -0.013297 0.876000
0.013203 -0.010377 0.873000
-0.028284 -0.012803 0.867000
-0.017976 -0.010329 0.869000
0.024312 0.017892 0.885000
-0.017300 -0.006051 0.871000
-0.016942 -0.006768 0.871000
0.052250 -0.002825 0.871000
-0.026805 0.013760 0.877000
0.023062 0.001852 0.879000
-0.030054 0.015204 0.877000
0.004916 -0.020702 0.869000
-0.012019 0.018835 0.878000
-0.022444 0.027361 0.862000
-0.008726 -0.008950 0.874000
0.009367 0.021510 0.884000
0.011914 0.022238 0.884000
0.033457 0.017548 0.886000
-0.039169 0.002194 0.871000
0.034600 -0.005016 0.878000
-0.010910 -0.001399 0.876000
-0.041273 0.012934 0.870000
0.029081 0.016454 0.886000
-0.021454 -0.019538 0.865000
-0.020284 0.008336 0.876000
0.030175 0.017912 0.886000
-0.013326 -0.011045 0.869000
-0.026354 0.004000 0.874000
0.008993 0.009129 0.883000
-0.012408 0.010547 0.880000
-0.032961 0.021121 0.868000
-0.000455 -0.029656 0.880000
0.000991 -0.028505 0.878000
0.024370 -0.020461 0.874000
0.014707 -0.005371 0.877000
0.039343 -0.020578 0.879000
-0.039124 0.000401 0.870000
-0.021220 0.024392 0.870000
0.024758 -0.021205 0.875000
-0.046786 -0.007682 0.853000
-0.019203 0.008696 0.876000
-0.010247 0.012009 0.881000
-0.006165 -0.016391 0.868000
0.012333 -0.030291 0.888000
0.050631 0.001122 0.874000
-0.011270 -0.001759 0.876000
0.028447 -0.027032 0.889000
-0.009370 -0.021724 0.867000
0.019716 -0.007880 0.875000
0.033993 0.003307 0.881000
0.014081 0.025120 0.883000
0.042081 -0.024893 0.891000
-0.016603 -0.002828 0.872000
0.041561 -0.000681 0.880000
-0.006575 -0.007880 0.875000
0.044097 -0.001767 0.880000
-0.038181 0.006511 0.873000
-0.004082 0.015273 0.881000
-0.019608 -0.033203 0.878000
0.015137 0.008021 0.881000
0.031812 -0.027460 0.891000
0.043536 -0.015100 0.876000
-0.026052 -0.025561 0.864000
-0.025043 -0.015640 0.866000
0.019082 0.004023 0.879000
0.030539 0.012807 0.886000
0.002057 -0.023590 0.870000
-0.016679 0.005451 0.876000
-0.032566 -0.031359 0.867000
0.039388 -0.020964 0.880000
-0.009727 -0.024579 0.867000
-0.007246 -0.014621 0.869000
-0.045770 -0.006737 0.867000
0.050501 -0.003932 0.878000
0.021877 -0.008960 0.875000
0.037468 0.016818 0.886000
-0.048625 0.008250 0.867000
-0.008062 -0.031467 0.880000
-0.046323 -0.013470 0.864000
0.041733 -0.011855 0.876000
-0.017059 -0.032443 0.877000
-0.015419 -0.025264 0.866000
-0.031641 0.020477 0.871000
0.038388 0.006941 0.882000
0.001345 -0.010736 0.873000
0.026893 0.014630 0.886000
0.037833 0.020829 0.886000
-0.031210 -0.009614 0.869000
0.052070 0.000757 0.868000
0.018657 -0.005365 0.876000
-0.039528 0.016533 0.871000
-0.032528 -0.014571 0.866000
0.023813 -0.024586 0.880000
-0.043521 0.006862 0.872000
-0.015812 -0.012818 0.868000
0.010822 0.021510 0.884000
0.026893 0.016454 0.886000
0.024002 0.024504 0.887000
-0.002957 -0.025380 0.870000
0.033669 0.002585 0.882000
-0.004780 -0.029161 0.876000
-0.006575 -0.007520 0.875000
-0.014548 0.006548 0.878000
-0.042493 0.008307 0.873000
0.017136 -0.020773 0.872000
-0.018460 0.005805 0.875000
0.011887 -0.027909 0.882000
-0.023583 0.016666 0.878000
-0.026469 -0.017066 0.866000
0.019082 -0.024919 0.879000
0.016644 0.019691 0.884000
-0.006180 -0.026813 0.870000
0.012264 0.013490 0.883000
-0.023946 -0.027727 0.865000
-0.019246 0.015944 0.878000
-0.030068 0.022524 0.867000
-0.011309 0.006917 0.879000
-0.014432 -0.028994 0.871000
0.011472 -0.004293 0.878000
-0.035104 -0.032467 0.868000
0.007902 0.016034 0.883000
0.027011 -0.002848 0.878000
0.011589 -0.030257 0.887000
-0.025043 -0.017422 0.866000
0.029279 -0.001044 0.881000
0.045597 0.000769 0.881000
0.012441 -0.018577 0.870000
-0.039749 -0.004601 0.868000
-0.021439 0.017047 0.879000
0.028360 -0.009680 0.875000
0.047410 0.000406 0.881000
-0.027150 -0.028439 0.865000
-0.007287 -0.009310 0.874000
-0.021317 0.004720 0.874000
0.017575 -0.005725 0.876000
-0.024443 -0.008551 0.870000
0.024454 -0.004649 0.877000
0.033593 -0.000681 0.880000
-0.004813 0.012023 0.882000
-0.013357 -0.008202 0.871000
-0.013342 -0.028245 0.870000
-0.011978 -0.004999 0.875000
0.032654 0.009867 0.884000
-0.017400 0.007975 0.876000
-0.021098 -0.025591 0.865000
0.029412 0.029184 0.885000
0.042696 0.008746 0.881000
-0.006620 0.009109 0.881000
-0.015794 -0.026720 0.867000
0.020483 -0.023780 0.877000
-0.033189 0.009396 0.874000
0.004595 -0.006807 0.876000
0.020413 -0.011468 0.874000
-0.028864 -0.024111 0.863000
-0.032469 -0.034490 0.874000
-0.040915 0.013292 0.870000
0.017655 0.006201 0.880000
-0.014927 0.017047 0.879000
-0.024583 0.008326 0.875000
-0.025029 -0.034648 0.878000
0.002792 -0.007889 0.876000
-0.028830 0.024877 0.862000
0.020693 0.024841 0.886000
0.043224 -0.008981 0.877000
-0.037605 -0.005673 0.868000
-0.023261 -0.028115 0.866000
0.020460 -0.023392 0.876000
0.050501 -0.008991 0.878000
0.026229 -0.007168 0.876000
0.015862 0.007296 0.881000
-0.018142 -0.032082 0.877000
-0.028185 0.008686 0.875000
-0.047335 -0.013100 0.863000
0.013369 0.019691 0.884000
-0.002629 0.020326 0.880000
0.013547 -0.022568 0.872000
-0.035584 0.019043 0.871000
0.015682 -0.016089 0.871000
0.039746 -0.024078 0.888000
-0.041796 -0.011719 0.866000
-0.012756 0.011982 0.879000
0.010083 0.023666 0.883000
0.021034 0.026998 0.885000
-0.046490 -0.008394 0.854000
0.032253 0.007312 0.883000
-0.024972 0.012302 0.876000
0.003131 -0.023948 0.870000
0.034797 0.008039 0.883000
0.025118 -0.021565 0.875000
0.041828 -0.019471 0.878000
0.025779 -0.019000 0.873000
-0.046972 0.003890 0.850000
-0.008309 -0.025322 0.868000
-0.012366 0.001487 0.877000
0.034955 0.025599 0.887000
-0.043372 -0.003176 0.869000
0.019671 -0.021156 0.873000
0.010083 0.023303 0.883000
0.000981 -0.022490 0.869000
0.019896 -0.026487 0.883000
0.006758 -0.026277 0.876000
0.023557 0.028423 0.884000
0.036456 -0.024809 0.888000
0.014033 -0.000319 0.880000
-0.021454 -0.022386 0.865000
0.031669 0.022678 0.887000
0.012814 -0.021466 0.871000
-0.003665 -0.021392 0.868000
0.009588 -0.014655 0.871000
0.039886 0.007312 0.883000
-0.040727 -0.011719 0.866000
-0.013637 -0.021699 0.866000
-0.023556 0.014121 0.877000
-0.021860 -0.015301 0.867000
-0.015167 -0.005340 0.872000
0.035320 0.020853 0.887000
-0.033869 0.004355 0.873000
0.036727 -0.008259 0.877000
0.037363 -0.015803 0.875000
-0.009034 -0.026424 0.869000
-0.020692 0.015582 0.878000
-0.015994 0.014137 0.878000
0.039886 0.007676 0.883000
-0.017459 0.018132 0.879000
0.025986 0.002941 0.880000
0.023983 -0.013970 0.873000
-0.029151 0.025203 0.861000
-0.041583 -0.002818 0.869000
0.008860 -0.016070 0.870000
-0.019385 -0.013533 0.868000
0.036698 0.014978 0.885000
0.040744 -0.006100 0.878000
0.013384 0.022627 0.885000
-0.021751 0.011955 0.877000
-0.035778 -0.010306 0.867000
-0.026980 -0.008919 0.871000
0.048805 -0.000681 0.880000
0.036283 -0.017243 0.875000
-0.034787 -0.004249 0.869000
-0.032061 -0.024466 0.863000
0.052548 -0.003896 0.870000
0.007804 -0.011083 0.872000
0.047719 0.005839 0.880000
0.017635 0.001852 0.879000
-0.005801 -0.022081 0.867000
-0.032771 -0.020914 0.863000
-0.002596 -0.015694 0.869000
0.024509 -0.023834 0.879000
-0.034509 -0.000315 0.871000
0.012347 -0.030691 0.889000
0.031565 -0.013626 0.874000
-0.001524 -0.014280 0.870000
-0.006158 -0.021368 0.867000
-0.026053 0.012302 0.876000
-0.008376 -0.004999 0.875000
-0.015029 -0.034924 0.885000
0.038519 0.015342 0.885000
-0.023583 0.017750 0.878000
0.024340 -0.026941 0.886000
0.013324 0.004395 0.881000
-0.043830 0.002911 0.871000
-0.007700 -0.031467 0.880000
0.048805 0.000406 0.880000
-0.006613 0.017429 0.880000
0.008932 -0.005732 0.877000
0.037363 -0.014362 0.875000
0.049474 -0.005022 0.879000
0.012599 0.026151 0.881000
-0.025341 0.025646 0.864000
-0.025114 -0.035854 0.881000
-0.044036 -0.003530 0.868000
0.014081 0.015671 0.883000
0.038284 -0.024444 0.888000
0.017273 0.001491 0.879000
0.038893 -0.007898 0.877000
0.012991 0.008039 0.883000
-0.015597 -0.031324 0.876000
0.024002 0.023408 0.887000
0.047773 0.004032 0.881000
-0.021073 0.028491 0.864000
-0.010810 -0.015676 0.868000
-0.029999 -0.017758 0.865000
-0.025905 -0.031504 0.871000
0.041608 0.000769 0.881000
0.026528 0.013172 0.886000
0.028949 0.001859 0.882000
-0.028251 -0.016709 0.866000
-0.017059 0.009428 0.877000
0.019511 0.011660 0.882000
-0.008016 -0.007520 0.875000
0.023921 0.015689 0.884000
-0.011322 0.011271 0.880000
0.016059 -0.021850 0.872000
-0.038855 0.017629 0.872000
0.018401 0.009471 0.881000
0.042912 -0.006461 0.878000
0.041828 -0.006823 0.878000
0.026163 0.021559 0.886000
-0.024829 -0.005693 0.871000
0.031962 0.015706 0.885000
0.026139 -0.018282 0.873000
-0.025361 -0.034248 0.877000
-0.036449 -0.013502 0.866000
0.004205 -0.022516 0.870000
-0.004082 0.018174 0.881000
-0.039437 -0.003176 0.869000
-0.021454 -0.019182 0.865000
0.027404 -0.000680 0.879000
-0.027370 -0.007853 0.872000
0.017695 0.027270 0.882000
-0.012005 -0.030999 0.877000
0.033055 0.016071 0.885000
0.019599 0.023017 0.886000
-0.025429 -0.013874 0.867000
0.023705 -0.005004 0.876000
0.042599 -0.019854 0.879000
0.013906 -0.013595 0.872000
0.034785 -0.027124 0.892000
0.018017 0.006563 0.880000
-0.027538 -0.014571 0.866000
0.008962 -0.027845 0.880000
0.033860 0.020853 0.887000
-0.023261 -0.017066 0.866000
0.016644 0.020055 0.884000
-0.032395 0.019783 0.872000
0.025566 0.000043 0.878000
-0.000453 -0.008960 0.875000
-0.019452 -0.030070 0.871000
-0.023503 0.007966 0.875000
-0.045623 0.003628 0.871000
-0.019115 -0.002828 0.872000
0.010106 -0.029461 0.885000
0.037982 0.002219 0.881000
0.026016 0.004395 0.881000
0.041656 0.008030 0.882000
0.034922 -0.006454 0.877000
-0.006523 -0.016748 0.868000
-0.040697 0.007589 0.873000
0.012932 -0.001404 0.879000
-0.015994 0.011969 0.878000
-0.017893 -0.022742 0.865000
0.023705 -0.005725 0.876000
0.006449 0.010583 0.883000
0.024730 -0.010749 0.874000
0.023504 0.010934 0.882000
-0.009148 0.009098 0.880000
0.013531 -0.015372 0.871000
0.041561 0.015256 0.880000
0.006361 -0.012504 0.871000
-0.036051 -0.015978 0.865000
-0.026233 -0.009625 0.870000
0.035283 -0.006815 0.877000
0.039886 0.009856 0.883000
-0.018183 0.017047 0.879000
-0.007708 0.012735 0.881000
0.051651 -0.002472 0.873000
0.051891 -0.002108 0.871000
-0.016206 -0.008193 0.870000
0.037088 -0.019809 0.877000
-0.024658 -0.019538 0.865000
0.004273 0.013506 0.884000
0.036283 -0.014002 0.875000
-0.017420 0.010150 0.877000
-0.018183 0.016685 0.879000
0.008932 -0.006815 0.877000
0.042454 -0.012215 0.876000
-0.035707 0.008317 0.874000
0.018213 -0.020055 0.872000
0.035320 0.021948 0.887000
0.026832 0.029151 0.884000
0.004933 -0.011442 0.872000
-0.032061 -0.028018 0.863000
-0.004082 0.017086 0.881000
-0.035984 0.002914 0.872000
-0.025000 -0.033887 0.877000
0.032756 -0.005732 0.877000
0.006092 0.012414 0.884000
0.000996 0.016016 0.882000
0.032949 -0.027491 0.892000
-0.008786 0.015256 0.880000
-0.005808 -0.023179 0.868000
0.024370 -0.011108 0.874000
0.001706 -0.010029 0.874000
-0.003315 -0.013564 0.870000
0.001724 0.014217 0.883000
-0.023726 -0.008193 0.870000
-0.022704 -0.000675 0.872000
0.034719 0.003307 0.881000
-0.031713 -0.001035 0.873000
-0.006173 -0.014264 0.869000
0.005683 -0.005732 0.877000
-0.025341 -0.023783 0.864000
-0.017821 0.017047 0.879000
0.000270 0.020009 0.882000
-0.004764 -0.027624 0.873000
-0.034307 0.017330 0.875000
-0.024715 -0.013517 0.867000
0.020283 0.018963 0.884000
-0.024278 -0.033887 0.877000
-0.021439 0.017771 0.879000
0.025595 0.001852 0.879000
-0.022878 -0.020250 0.865000
-0.002593 -0.021035 0.868000
0.027829 0.002219 0.881000
-0.013993 -0.022056 0.866000
-0.020862 -0.006044 0.870000
-0.044394 -0.005316 0.868000
0.014965 -0.016806 0.871000
0.012222 -0.027121 0.880000
-0.003307 -0.018534 0.868000
-0.019630 0.019218 0.879000
0.048695 -0.008991 0.878000
0.009367 0.011323 0.884000
-0.029985 0.002204 0.875000
0.042093 -0.011494 0.876000
-0.011684 0.013082 0.880000
-0.004742 -0.024636 0.869000
0.035928 0.027332 0.884000
-0.030746 0.022854 0.866000
0.024871 0.002938 0.879000
-0.012032 0.015962 0.879000
0.008921 -0.025916 0.876000
-0.017440 0.014859 0.878000
-0.000814 -0.006086 0.876000
-0.014383 -0.015676 0.868000
0.010688 -0.010018 0.873000
0.051534 0.004671 0.865000
-0.015794 -0.015658 0.867000
0.029810 0.018277 0.886000
0.048695 0.005103 0.878000
-0.025964 0.002558 0.873000
0.004995 0.016398 0.883000
0.008502 -0.020725 0.870000
-0.000092 -0.025022 0.870000
0.029047 -0.011828 0.874000
-0.026293 -0.003546 0.872000
-0.018397 -0.001034 0.872000
0.017736 0.025876 0.884000
-0.024278 0.013760 0.877000
-0.034588 0.003996 0.873000
-0.008062 0.018153 0.880000
-0.012366 0.019174 0.877000
0.025449 -0.020101 0.874000
0.028351 0.028852 0.886000
0.000269 0.021075 0.881000
-0.028152 0.000403 0.874000
0.009731 0.013142 0.884000
0.048777 0.008667 0.873000
-0.027824 0.003645 0.875000
-0.022345 -0.000675 0.872000
0.012111 -0.022568 0.872000
-0.047266 -0.002754 0.849000
0.029015 0.005137 0.884000
-0.015668 -0.033278 0.880000
0.022491 0.027362 0.885000
-0.015939 0.001484 0.875000
0.048443 0.002217 0.880000
-0.012225 -0.024579 0.867000
0.050329 0.001124 0.875000
0.014428 0.009482 0.882000
0.019234 0.022653 0.886000
-0.019005 -0.015301 0.867000
0.036415 0.020123 0.887000
-0.033088 -0.026566 0.862000
