-0.001174 -0.006807 0.876000
-0.002272 0.010934 0.882000
-0.031354 0.014056 0.873000
0.005322 -0.028472 0.877000
0.003909 0.010959 0.884000
0.012917 -0.002848 0.878000
-0.007015 -0.037838 0.885000
0.021398 0.020806 0.885000
0.026016 0.008746 0.881000
-0.018605 -0.025235 0.865000
0.010458 0.029151 0.884000
0.019289 -0.008929 0.872000
-0.011257 -0.007520 0.875000
0.025770 0.035376 0.885000
0.037342 0.021122 0.883000
-0.025667 -0.030149 0.863000
0.004229 -0.028047 0.875000
-0.027798 0.021354 0.863000
0.008247 0.029414 0.881000
0.002409 -0.019249 0.868000
0.014841 0.023356 0.885000
-0.016488 -0.023482 0.866000
0.002061 -0.027592 0.872000
-0.022851 -0.026272 0.864000
0.053509 0.005439 0.874000
0.020099 0.000043 0.876000
0.024340 0.022288 0.886000
0.020553 -0.022050 0.880000
0.015085 -0.000679 0.878000
-0.007237 -0.017820 0.868000
0.025491 0.032572 0.888000
0.004553 -0.019963 0.868000
-0.006236 -0.034648 0.878000
-0.029964 -0.026628 0.864000
-0.000457 -0.034118 0.883000
0.012627 0.020759 0.883000
0.037342 0.020032 0.883000
-0.017659 -0.036881 0.871000
-0.016374 0.006555 0.879000
0.032217 0.013838 0.882000
-0.025101 -0.018177 0.868000
0.011563 -0.029096 0.885000
0.014590 -0.014280 0.870000
0.027341 0.001487 0.877000
-0.025667 -0.035832 0.863000
0.023921 -0.022514 0.884000
0.004944 -0.026936 0.874000
0.028255 0.009493 0.883000
0.011873 0.006208 0.881000
-0.015650 0.004385 0.879000
0.032395 -0.015117 0.877000
0.022313 0.005103 0.878000
0.004234 -0.006447 0.876000
0.027967 -0.014705 0.874000
0.040521 -0.012648 0.881000
0.010494 -0.030257 0.887000
0.020389 -0.018282 0.873000
-0.007988 -0.032617 0.872000
0.036415 -0.017115 0.887000
0.024029 -0.024078 0.888000
0.023246 0.021194 0.886000
-0.004725 -0.024551 0.866000
-0.007970 -0.031468 0.870000
-0.043473 -0.016751 0.850000
-0.018799 -0.001396 0.874000
-0.009749 -0.031789 0.869000
-0.024886 -0.005706 0.873000
0.004553 -0.018177 0.868000
0.023664 0.031110 0.888000
-0.006983 0.016723 0.881000
-0.034907 -0.004982 0.872000
-0.016903 -0.035366 0.869000
-0.013841 0.014876 0.879000
0.024900 0.008012 0.880000
0.039343 0.006917 0.879000
0.017695 0.016379 0.882000
0.006797 0.028327 0.881000
0.033004 -0.011108 0.874000
0.024482 -0.019109 0.878000
0.008580 -0.002848 0.878000
0.029346 0.008766 0.883000
0.019964 0.034322 0.886000
0.003127 -0.024636 0.869000
0.006092 0.013142 0.884000
-0.019268 0.013429 0.879000
-0.016698 0.015564 0.877000
0.036241 -0.008230 0.874000
0.012613 0.014564 0.882000
-0.040153 -0.011760 0.869000
0.016317 -0.026941 0.886000
0.018233 -0.020078 0.873000
-0.003004 -0.035612 0.884000
-0.007691 0.019941 0.879000
-0.043162 -0.004623 0.872000
-0.019203 0.017349 0.876000
-0.000093 0.023975 0.881000
0.023596 -0.013236 0.872000
-0.007952 -0.018177 0.868000
-0.010798 -0.030646 0.867000
-0.028577 0.004370 0.876000
0.005683 -0.004288 0.877000
-0.004022 -0.018534 0.868000
-0.016736 0.013429 0.879000
0.015103 0.004023 0.879000
0.023975 0.035051 0.886000
-0.036786 0.001842 0.874000
0.045748 -0.014991 0.891000
-0.022163 0.013068 0.879000
0.022152 0.026299 0.886000
-0.007221 -0.023125 0.866000
0.008871 -0.011787 0.871000
0.041828 0.003296 0.878000
0.037662 0.021098 0.882000
0.046632 0.007287 0.880000
-0.015149 -0.008919 0.871000
-0.007943 -0.028504 0.867000
0.040698 -0.010424 0.877000
-0.034707 -0.019227 0.867000
-0.009086 -0.009310 0.874000
-0.031390 0.013713 0.874000
-0.038181 -0.002113 0.873000
0.022907 0.028519 0.887000
0.020553 0.010547 0.880000
0.019941 0.023720 0.885000
0.022879 -0.015390 0.872000
0.035360 -0.017865 0.888000
-0.014187 -0.000318 0.878000
-0.041893 -0.013890 0.868000
-0.037316 -0.022723 0.878000
0.021229 -0.020916 0.878000
0.016550 0.006555 0.879000
0.009764 0.002234 0.887000
0.042382 0.014927 0.882000
0.020844 0.003653 0.877000
-0.043580 -0.022231 0.859000
-0.021727 -0.041059 0.876000
0.015120 0.009823 0.880000
0.037577 0.023948 0.880000
-0.036933 -0.012118 0.869000
0.041372 -0.007889 0.876000
-0.014927 0.011259 0.879000
0.033478 0.002931 0.877000
-0.038766 0.011859 0.870000
-0.034667 -0.019917 0.866000
-0.029929 -0.027663 0.863000
0.030800 0.015308 0.883000
0.013369 0.021874 0.884000
0.007849 -0.003927 0.877000
0.017555 -0.003198 0.875000
-0.012032 -0.035773 0.879000
-0.043422 0.003982 0.870000
0.017736 0.034244 0.884000
0.032617 0.016761 0.883000
0.025886 -0.023739 0.889000
-0.035388 0.010487 0.875000
-0.016012 0.013429 0.879000
-0.008806 0.009482 0.882000
-0.015289 0.013791 0.879000
-0.035428 0.007615 0.876000
0.027924 0.013506 0.884000
-0.017618 -0.013191 0.869000
0.000997 0.019305 0.883000
-0.021801 0.012706 0.879000
-0.002243 -0.012863 0.871000
0.012873 -0.005359 0.875000
0.013937 -0.006432 0.874000
-0.012408 -0.034727 0.880000
0.045546 0.009460 0.880000
-0.017098 0.014153 0.879000
-0.034150 -0.007127 0.871000
0.027310 -0.001399 0.876000
0.050444 0.008706 0.877000
-0.011937 -0.010006 0.872000
0.023955 -0.010724 0.872000
-0.036051 0.014995 0.865000
0.007911 0.022238 0.884000
0.041514 0.006194 0.879000
0.033306 0.014564 0.882000
0.051060 0.013895 0.863000
0.002054 -0.017483 0.869000
0.043175 -0.001759 0.876000
-0.015490 -0.011415 0.870000
0.001350 -0.006807 0.876000
-0.000093 0.012400 0.883000
-0.022678 -0.039032 0.871000
0.041733 -0.001038 0.876000
-0.020862 -0.011057 0.870000
0.033723 -0.008590 0.874000
0.012083 -0.018935 0.870000
0.035041 0.008374 0.880000
-0.017740 -0.001037 0.875000
-0.024695 0.011982 0.879000
-0.012756 0.003299 0.879000
-0.017821 0.012344 0.879000
0.003517 -0.029194 0.877000
0.040204 0.014201 0.882000
0.019716 -0.002478 0.875000
0.029379 0.017508 0.884000
-0.019429 -0.011057 0.870000
-0.020718 -0.031962 0.864000
0.019278 -0.026637 0.888000
-0.031067 -0.024879 0.865000
-0.010597 0.016342 0.880000
0.039164 -0.006439 0.875000
0.022389 0.013097 0.881000
0.018870 0.025570 0.886000
0.045183 0.009460 0.880000
0.022288 0.003292 0.877000
0.001695 -0.020678 0.868000
-0.026233 -0.016429 0.870000
-0.023063 -0.006776 0.872000
-0.008300 -0.029575 0.867000
-0.004731 -0.019940 0.867000
-0.009159 0.014185 0.881000
-0.001545 0.021461 0.882000
0.016644 0.033153 0.884000
0.013671 0.002941 0.880000
0.025449 -0.005712 0.874000
-0.026530 -0.018177 0.868000
-0.038585 0.007957 0.874000
0.025507 -0.017984 0.876000
0.011524 0.009845 0.882000
-0.010822 -0.014264 0.869000
-0.025634 -0.001755 0.874000
-0.029287 -0.022742 0.865000
0.035360 -0.018230 0.888000
0.023596 -0.012518 0.872000
0.004563 -0.012848 0.870000
0.040567 0.013475 0.882000
0.034278 -0.014790 0.879000
0.044719 0.003296 0.878000
0.006044 -0.027750 0.877000
-0.025575 -0.013236 0.872000
0.004268 0.021486 0.883000
0.008266 0.028391 0.883000
0.030209 0.031075 0.887000
0.045699 -0.003923 0.876000
-0.026713 -0.002475 0.874000
0.034837 0.022965 0.884000
0.022933 -0.024809 0.888000
0.009720 0.010583 0.883000
0.022623 -0.000678 0.876000
-0.046644 -0.005686 0.870000
-0.036870 0.007975 0.876000
0.002451 0.018942 0.883000
-0.008806 0.010934 0.882000
-0.040014 -0.019561 0.866000
-0.016679 0.016268 0.876000
-0.037146 0.000403 0.874000
-0.013326 -0.014264 0.869000
0.025770 0.016071 0.885000
-0.011841 -0.025235 0.865000
-0.037700 0.016008 0.862000
-0.017679 -0.007135 0.872000
-0.015289 0.006555 0.879000
-0.033637 -0.016729 0.867000
0.014265 -0.021132 0.872000
-0.027621 -0.043420 0.880000
0.017776 0.032499 0.886000
-0.027182 -0.022056 0.866000
-0.010417 -0.025947 0.865000
0.029776 0.023356 0.885000
0.002423 -0.027983 0.873000
0.006804 -0.030087 0.882000
-0.029711 -0.019227 0.867000
0.030091 -0.009299 0.873000
0.032217 0.014201 0.882000
-0.039124 -0.008551 0.870000
-0.029999 -0.023454 0.865000
-0.001184 0.013127 0.883000
-0.030741 -0.028800 0.876000
-0.028997 -0.018513 0.867000
0.009632 -0.006799 0.875000
-0.019318 -0.024167 0.865000
-0.042717 -0.023755 0.863000
-0.029951 -0.007151 0.874000
-0.030711 -0.024523 0.865000
-0.020362 -0.033384 0.864000
0.043224 -0.008259 0.877000
0.021664 0.013460 0.881000
0.020413 -0.019382 0.874000
0.012627 0.020395 0.883000
0.047610 0.001850 0.878000
-0.011180 -0.014621 0.869000
-0.017039 0.016628 0.876000
0.035522 -0.008950 0.874000
-0.004747 -0.014280 0.870000
0.005689 -0.028505 0.878000
0.002766 -0.023179 0.868000
-0.002590 -0.025293 0.867000
-0.020718 -0.026628 0.864000
-0.011180 -0.013906 0.869000
0.022517 0.021923 0.886000
0.020351 0.028519 0.887000
0.025434 0.024111 0.886000
0.011860 0.002579 0.880000
-0.032506 -0.001757 0.875000
0.043834 -0.011573 0.882000
-0.031786 0.000043 0.875000
0.032363 0.027029 0.886000
-0.036108 0.003645 0.875000
0.035888 0.018578 0.883000
0.018442 0.019669 0.883000
-0.005445 -0.026720 0.867000
-0.017181 -0.031287 0.865000
0.011367 -0.019293 0.870000
-0.047027 -0.006263 0.851000
0.010364 -0.005725 0.876000
0.013516 -0.014996 0.870000
0.033593 0.008736 0.880000
0.027576 -0.007143 0.873000
-0.044445 0.001831 0.869000
-0.004022 -0.018892 0.868000
0.013531 -0.011070 0.871000
0.017411 0.026664 0.886000
0.042815 -0.002841 0.876000
0.049398 0.016064 0.865000
0.024367 0.020488 0.887000
-0.012625 -0.012848 0.870000
0.032284 -0.011828 0.874000
-0.009783 -0.010724 0.872000
-0.022448 -0.041419 0.876000
0.006804 0.027996 0.882000
0.034200 0.002570 0.877000
-0.035584 -0.007844 0.871000
0.004995 0.012037 0.883000
-0.020261 -0.039932 0.875000
0.023623 -0.015767 0.873000
-0.019295 -0.032318 0.864000
0.016969 0.016016 0.882000
-0.030741 0.006173 0.876000
-0.027506 -0.024523 0.865000
-0.030853 -0.014264 0.869000
0.015376 -0.005353 0.874000
0.013906 -0.010006 0.872000
0.006704 -0.018913 0.869000
0.013339 0.016379 0.882000
0.006346 -0.022490 0.869000
-0.028185 -0.004639 0.875000
0.037003 -0.010041 0.875000
-0.028185 0.003645 0.875000
0.049474 0.004385 0.879000
-0.028512 -0.008950 0.874000
0.018635 -0.002118 0.875000
-0.040697 -0.002113 0.873000
-0.035388 0.002204 0.875000
0.020343 -0.015372 0.871000
0.022517 0.019371 0.886000
-0.007708 0.016723 0.881000
0.022517 0.023017 0.886000
0.023759 0.004741 0.878000
0.053448 0.005792 0.873000
0.017895 -0.020821 0.874000
0.017833 -0.012146 0.871000
0.030916 -0.001759 0.876000
-0.032330 -0.024948 0.880000
-0.016806 -0.029117 0.864000
0.008983 0.029448 0.882000
-0.040962 0.007213 0.871000
-0.009107 -0.003923 0.876000
-0.043880 -0.004623 0.872000
0.040883 -0.012648 0.881000
0.035725 -0.014428 0.879000
0.005298 -0.009658 0.873000
-0.018584 -0.030895 0.864000
0.051116 0.010427 0.870000
0.018974 -0.006072 0.874000
0.015718 -0.021156 0.873000
-0.030495 -0.014264 0.869000
-0.012239 -0.018534 0.868000
-0.003665 -0.027108 0.868000
0.012097 -0.011429 0.871000
-0.047193 -0.009800 0.854000
0.007530 0.028359 0.882000
-0.001547 0.012400 0.883000
0.003541 0.020395 0.883000
0.019334 -0.004633 0.874000
-0.036976 -0.009983 0.870000
-0.001544 0.022525 0.881000
0.011161 0.008756 0.882000
0.009240 -0.009647 0.872000
0.014691 -0.003923 0.876000
0.008266 0.019305 0.883000
0.038839 -0.014874 0.884000
0.020030 -0.008580 0.873000
0.050805 0.007623 0.877000
0.024203 0.011647 0.881000
0.006449 0.020759 0.883000
0.006009 -0.010724 0.872000
-0.041775 -0.001035 0.873000
-0.046599 -0.012641 0.856000
-0.009024 -0.018534 0.868000
0.014412 0.012372 0.881000
-0.018017 -0.008919 0.871000
-0.029506 0.022014 0.861000
-0.014171 0.018813 0.877000
0.025463 0.029980 0.887000
0.017796 0.029250 0.887000
0.003847 -0.013564 0.870000
0.018192 -0.012146 0.871000
-0.039394 0.013023 0.876000
-0.001528 -0.012160 0.872000
0.023272 0.033631 0.887000
0.038576 0.003296 0.878000
-0.003724 0.015653 0.882000
0.029868 0.001487 0.877000
0.008860 -0.015354 0.870000
0.027924 0.035700 0.884000
-0.019992 0.012344 0.879000
-0.002596 -0.016767 0.869000
0.014494 0.026299 0.886000
0.013188 -0.008929 0.872000
0.027257 -0.021836 0.886000
-0.023535 -0.034056 0.863000
0.035202 -0.004999 0.875000
0.032980 0.017488 0.883000
-0.024611 0.016628 0.876000
0.044668 0.001848 0.877000
0.004563 -0.024664 0.870000
0.023010 0.003292 0.877000
0.032691 0.022263 0.885000
0.024340 0.019006 0.886000
-0.009148 -0.036900 0.880000
-0.005470 -0.030787 0.871000
0.023062 0.007641 0.879000
-0.000449 -0.024250 0.868000
-0.043679 -0.014962 0.868000
-0.039256 -0.022386 0.865000
-0.022825 -0.032635 0.863000
-0.031926 0.015780 0.869000
0.010663 -0.021825 0.871000
-0.004414 -0.009320 0.875000
-0.016355 0.004018 0.878000
-0.027073 -0.003194 0.874000
-0.033265 0.004370 0.876000
-0.002991 -0.033640 0.880000
-0.047488 -0.008384 0.853000
-0.037188 0.004725 0.875000
0.030834 0.020055 0.884000
0.026862 0.021899 0.885000
-0.040915 -0.009625 0.870000
-0.038629 0.004725 0.875000
0.021615 0.008364 0.879000
-0.016806 -0.029473 0.864000
0.020145 0.006909 0.878000
-0.045116 -0.011127 0.848000
-0.039664 0.001122 0.874000
0.034148 0.022263 0.885000
0.043175 -0.006807 0.876000
0.003541 0.019669 0.883000
-0.012352 -0.004644 0.876000
-0.008656 -0.019227 0.867000
-0.032641 -0.012475 0.869000
0.007795 -0.011429 0.871000
-0.012032 -0.036135 0.879000
-0.009906 -0.038480 0.883000
-0.017059 0.002931 0.877000
-0.025303 0.001124 0.875000
-0.042153 -0.019204 0.866000
0.029766 -0.004633 0.874000
-0.042134 -0.000316 0.873000
-0.022217 -0.037069 0.867000
0.049112 0.004385 0.879000
-0.023169 0.003649 0.876000
-0.033357 0.014707 0.869000
-0.022678 -0.012504 0.871000
-0.028545 -0.006439 0.875000
-0.023556 -0.042550 0.877000
-0.028152 0.015871 0.874000
-0.030345 -0.004639 0.875000
0.039209 -0.002120 0.876000
-0.012756 -0.037582 0.879000
-0.008319 -0.016410 0.869000
0.047261 -0.011248 0.885000
0.039114 0.014927 0.882000
-0.026701 -0.031178 0.862000
0.008210 -0.026668 0.877000
0.026620 0.002931 0.877000
-0.023781 -0.013954 0.872000
-0.006515 -0.019583 0.867000
0.018058 0.017105 0.882000
0.016041 -0.013221 0.871000
0.037321 -0.006792 0.874000
0.017833 -0.015730 0.871000
0.004955 -0.007168 0.876000
0.019599 0.033957 0.886000
-0.030103 -0.016391 0.868000
-0.026763 0.022446 0.864000
0.005741 -0.032411 0.886000
0.016873 -0.022697 0.877000
-0.008071 0.014548 0.881000
-0.022062 -0.041012 0.875000
-0.028349 -0.015337 0.869000
-0.035266 -0.005340 0.872000
0.011009 -0.015712 0.870000
0.010411 0.003303 0.880000
-0.013841 0.014153 0.879000
-0.015597 0.016989 0.876000
0.005676 -0.006807 0.876000
0.034083 -0.008590 0.874000
-0.036891 -0.015319 0.868000
-0.000808 -0.013564 0.870000
0.044617 -0.001759 0.876000
-0.044132 -0.020744 0.856000
-0.018864 0.005819 0.877000
0.007419 -0.021775 0.869000
-0.015401 -0.030931 0.865000
0.034719 0.010559 0.881000
0.008629 0.016761 0.883000
-0.027862 -0.024879 0.865000
-0.014219 0.005114 0.880000
-0.032604 -0.014604 0.868000
-0.021702 0.002204 0.875000
-0.014333 -0.028083 0.865000
0.051710 0.016008 0.862000
0.045490 0.020859 0.872000
-0.022496 -0.034451 0.864000
-0.038006 -0.011760 0.869000
-0.042975 -0.018587 0.854000
0.017214 -0.001759 0.876000
-0.015437 -0.018870 0.867000
0.006456 0.016416 0.884000
-0.001545 0.018920 0.882000
-0.023781 -0.008929 0.872000
0.016892 0.003657 0.878000
0.029709 0.009129 0.883000
-0.019901 0.001484 0.875000
-0.035625 -0.003905 0.872000
0.029834 -0.000678 0.876000
-0.015254 -0.001040 0.877000
0.043224 0.001487 0.877000
0.035565 0.022965 0.884000
-0.017598 -0.018177 0.868000
0.005364 0.015689 0.884000
-0.018940 -0.027339 0.864000
-0.025188 -0.016089 0.871000
-0.031750 -0.005353 0.874000
-0.006222 -0.007168 0.876000
-0.018460 0.001124 0.875000
-0.032544 0.006533 0.876000
0.026468 0.012050 0.884000
0.028351 0.024476 0.886000
0.051586 0.002573 0.878000
0.010773 0.004028 0.880000
-0.003724 0.018920 0.882000
0.023596 -0.012877 0.872000
0.025176 0.002570 0.877000
-0.005158 0.023197 0.879000
0.014232 -0.013922 0.870000
0.014444 -0.026487 0.883000
0.029114 0.029615 0.887000
-0.034983 0.015708 0.865000
0.008512 -0.011429 0.871000
0.016188 0.004747 0.879000
0.039477 0.016016 0.882000
0.019964 0.025570 0.886000
0.015394 -0.004278 0.875000
0.027892 0.010220 0.883000
-0.016698 -0.038218 0.877000
-0.012553 -0.027371 0.865000
0.002075 -0.030312 0.878000
0.028720 -0.002478 0.875000
0.003869 -0.028047 0.875000
0.015826 0.001852 0.879000
-0.024112 -0.015372 0.871000
-0.023590 -0.024879 0.865000
0.033916 0.005470 0.879000
0.019256 0.028885 0.887000
0.021902 0.000043 0.876000
0.007184 0.014597 0.884000
0.036852 0.009098 0.880000
0.035964 -0.001038 0.876000
0.029844 0.030345 0.887000
-0.037909 0.004005 0.875000
0.007858 -0.002848 0.878000
-0.031816 -0.020630 0.866000
0.033364 -0.008590 0.874000
0.027987 0.024841 0.886000
0.008502 -0.014996 0.870000
-0.032923 -0.017086 0.867000
-0.025312 -0.034056 0.863000
0.030810 -0.010736 0.873000
0.002052 -0.021750 0.868000
0.017431 0.030345 0.887000
0.006712 -0.014996 0.870000
0.015588 0.027029 0.886000
0.028383 0.027424 0.887000
-0.012553 -0.027015 0.865000
0.015068 -0.023419 0.877000
0.033004 -0.011468 0.874000
0.006368 -0.025080 0.872000
0.027999 -0.015803 0.875000
-0.009086 -0.009669 0.874000
-0.034386 -0.022697 0.877000
0.012961 0.010559 0.881000
0.000981 -0.014979 0.869000
0.022440 -0.022489 0.883000
-0.009727 -0.021011 0.867000
-0.003311 -0.015694 0.869000
0.038937 -0.012243 0.878000
0.039660 -0.011882 0.878000
-0.010922 -0.003566 0.877000
0.037172 -0.013342 0.879000
0.008860 -0.021800 0.870000
-0.019586 0.006180 0.877000
-0.043729 -0.010687 0.869000
0.004224 -0.009310 0.874000
0.035404 0.009098 0.880000
-0.030671 -0.006432 0.874000
-0.001911 0.014217 0.883000
0.051586 0.004380 0.878000
0.023088 0.009823 0.880000
0.009632 -0.025166 0.875000
0.029834 -0.015821 0.876000
-0.024302 -0.025235 0.865000
-0.001178 -0.032517 0.879000
0.035484 0.014201 0.882000
0.051527 0.006541 0.877000
0.007176 0.018215 0.883000
0.027288 0.033265 0.887000
0.008210 -0.027028 0.877000
-0.026082 -0.024167 0.865000
0.038171 -0.011507 0.877000
0.042286 -0.011547 0.880000
-0.013857 0.010547 0.880000
-0.003728 0.012037 0.883000
0.045699 -0.001399 0.876000
0.016493 -0.002120 0.876000
-0.016717 0.006548 0.878000
-0.004455 0.012037 0.883000
-0.016113 -0.025947 0.865000
-0.002998 0.009845 0.882000
0.033242 -0.020836 0.890000
0.008294 -0.030952 0.886000
0.006354 -0.014280 0.870000
-0.001180 0.025759 0.880000
-0.010084 -0.021368 0.867000
0.018192 -0.016447 0.871000
0.011060 -0.007511 0.874000
0.012111 -0.022209 0.872000
0.033707 0.018578 0.883000
0.021927 0.002931 0.877000
0.021927 0.003292 0.877000
0.044566 0.019851 0.875000
0.038848 -0.009691 0.876000
-0.048982 -0.002455 0.867000
0.007127 -0.004288 0.877000
0.025290 0.009471 0.881000
0.009577 -0.013922 0.870000
0.008135 -0.018556 0.869000
0.031269 0.024841 0.886000
0.029047 -0.005712 0.874000
-0.020145 -0.011774 0.870000
-0.029985 0.000043 0.875000
-0.036449 -0.021699 0.866000
-0.011684 0.014531 0.880000
0.034083 -0.006072 0.874000
-0.026836 0.012330 0.878000
0.020076 -0.002118 0.875000
-0.018249 -0.024523 0.865000
-0.031713 0.013697 0.873000
-0.025546 -0.016089 0.871000
-0.048569 -0.003878 0.866000
0.029015 0.012414 0.884000
-0.012225 -0.021011 0.867000
-0.005808 -0.017105 0.868000
-0.009128 0.021364 0.878000
0.021877 -0.001757 0.875000
-0.030604 0.019910 0.862000
-0.042823 -0.019733 0.858000
0.002431 -0.006086 0.876000
0.023664 0.030379 0.888000
-0.006935 -0.033449 0.875000
0.028319 0.021534 0.885000
0.036407 0.005103 0.878000
0.048223 0.013023 0.876000
0.003142 -0.027264 0.873000
-0.044069 -0.012174 0.848000
-0.023195 0.007262 0.877000
0.018848 0.022991 0.885000
-0.011142 -0.029184 0.866000
-0.008053 0.019580 0.879000
-0.035613 0.016026 0.863000
-0.022112 0.007262 0.877000
-0.005855 -0.007880 0.875000
-0.014910 0.001850 0.878000
-0.047003 -0.004970 0.870000
0.026468 0.012414 0.884000
-0.026354 0.016950 0.874000
-0.002274 0.013127 0.883000
-0.038855 -0.004264 0.872000
0.007539 0.018578 0.883000
-0.046567 -0.009043 0.849000
-0.021751 0.018452 0.877000
-0.025341 -0.026628 0.864000
0.003124 -0.018177 0.868000
0.013764 0.027393 0.886000
-0.035027 0.002924 0.875000
0.043635 0.002212 0.878000
0.015482 0.011996 0.880000
-0.024886 -0.004987 0.873000
0.026163 0.023747 0.886000
-0.009381 -0.017820 0.868000
-0.035666 0.011541 0.873000
0.019082 0.007641 0.879000
0.035360 -0.016768 0.888000
0.019693 -0.005712 0.874000
0.021156 -0.019404 0.875000
-0.013794 0.017349 0.876000
-0.009392 -0.016052 0.869000
0.049936 0.017782 0.862000
-0.018864 0.005097 0.877000
-0.044496 -0.008193 0.870000
0.021034 0.036469 0.885000
0.022152 -0.024389 0.886000
0.029412 0.023356 0.885000
-0.026173 0.019692 0.868000
0.044257 -0.001038 0.876000
0.030555 -0.001399 0.876000
0.040651 -0.001759 0.876000
0.029373 -0.012533 0.873000
-0.002947 -0.020654 0.867000
0.009399 0.002964 0.887000
0.004210 -0.012146 0.871000
0.029081 0.025205 0.886000
-0.025014 -0.024523 0.865000
-0.019833 -0.007494 0.872000
-0.015419 -0.023125 0.866000
0.001726 0.016780 0.884000
-0.031532 -0.014604 0.868000
0.043206 -0.012691 0.884000
-0.019719 -0.018870 0.867000
-0.011671 0.004023 0.879000
0.020716 0.030345 0.887000
-0.022011 -0.002831 0.873000
0.012656 0.025905 0.885000
-0.000093 -0.030603 0.876000
0.005000 0.014233 0.884000
-0.000455 0.025006 0.879000
0.038751 0.018557 0.882000
-0.015472 -0.015337 0.869000
-0.021810 -0.024167 0.865000
-0.045928 -0.008193 0.870000
0.042093 -0.007168 0.876000
-0.022860 0.009439 0.878000
0.037492 -0.012966 0.878000
0.012570 -0.000680 0.879000
0.006434 0.027964 0.881000
-0.021479 -0.022056 0.866000
0.026558 0.027789 0.887000
0.017615 -0.022723 0.878000
0.002789 -0.008600 0.875000
-0.048324 -0.001029 0.868000
-0.004450 0.016379 0.882000
-0.019519 -0.001396 0.874000
-0.019563 0.016989 0.876000
-0.009738 -0.031038 0.868000
-0.007708 0.013822 0.881000
-0.019071 -0.011057 0.870000
0.049455 0.020359 0.866000
0.014590 -0.014996 0.870000
-0.034628 -0.002115 0.874000
0.025204 0.005464 0.878000
0.028785 0.001126 0.877000
0.016335 -0.027702 0.887000
0.011927 0.024084 0.885000
-0.002593 -0.017820 0.868000
-0.013013 -0.009647 0.872000
0.016151 -0.000318 0.877000
-0.010935 -0.000318 0.878000
-0.030033 -0.022056 0.866000
-0.003703 -0.032804 0.877000
0.006044 -0.028111 0.877000
-0.040291 -0.004623 0.872000
-0.018842 0.002928 0.876000
-0.005445 -0.019583 0.867000
-0.042445 -0.004264 0.872000
0.032180 0.009471 0.881000
-0.039259 -0.000676 0.873000
-0.039256 -0.022030 0.865000
0.009013 0.025905 0.885000
-0.045570 -0.007477 0.870000
0.018614 -0.004633 0.874000
-0.000094 0.014597 0.884000
-0.047361 -0.003896 0.870000
0.026016 0.009109 0.881000
-0.015633 0.001127 0.878000
0.000633 0.013490 0.883000
-0.033993 -0.016729 0.867000
-0.011525 -0.017463 0.868000
0.020366 -0.016466 0.872000
-0.026024 0.002204 0.875000
0.000625 -0.027561 0.871000
0.018038 0.013822 0.881000
-0.007952 -0.017820 0.868000
-0.009716 -0.025620 0.866000
-0.037463 -0.001394 0.873000
-0.000455 -0.032554 0.880000
-0.021220 -0.014280 0.870000
0.025595 -0.019131 0.879000
0.003541 -0.031938 0.883000
0.048333 0.012330 0.878000
-0.016679 0.000404 0.876000
-0.016526 -0.034968 0.868000
-0.001883 -0.014280 0.870000
-0.005176 0.012386 0.882000
0.047719 0.008012 0.880000
-0.023556 0.007984 0.877000
-0.020692 0.010523 0.878000
-0.009169 0.005126 0.882000
0.012278 -0.027972 0.884000
-0.036660 -0.006768 0.871000
0.004553 -0.021392 0.868000
-0.012770 0.014893 0.880000
-0.006515 -0.021724 0.867000
0.010506 -0.030657 0.888000
-0.013621 -0.029507 0.865000
0.002054 -0.025709 0.869000
-0.042823 -0.020440 0.858000
-0.020456 -0.017105 0.868000
-0.046567 -0.009393 0.849000
0.027196 0.011686 0.884000
-0.038900 0.008667 0.873000
0.020168 0.008003 0.879000
0.015570 0.024813 0.885000
-0.010200 0.020618 0.877000
-0.025546 0.019043 0.871000
0.019783 0.004741 0.878000
-0.045212 0.000759 0.870000
0.034758 0.014564 0.882000
-0.037875 -0.020987 0.866000
0.031312 0.000765 0.877000
-0.025274 -0.002475 0.874000
-0.025000 0.006180 0.877000
0.032180 0.009834 0.881000
-0.020718 -0.032318 0.864000
-0.034386 0.009428 0.877000
0.031234 0.022991 0.885000
-0.004419 -0.007528 0.876000
0.024398 -0.003198 0.875000
0.022957 -0.003198 0.875000
0.045235 0.010559 0.881000
-0.034747 -0.015319 0.868000
-0.028905 -0.004639 0.875000
-0.016717 0.004380 0.878000
0.043422 0.017086 0.881000
-0.028185 0.002564 0.875000
-0.026794 -0.024879 0.865000
-0.012924 -0.023482 0.866000
-0.022087 0.018071 0.876000
0.043175 -0.002481 0.876000
0.039705 0.006555 0.879000
-0.012352 -0.005365 0.876000
0.035928 0.021874 0.884000
0.010083 0.016761 0.883000
-0.043174 -0.017121 0.851000
0.015017 -0.022260 0.874000
0.035243 -0.001038 0.876000
-0.038320 -0.014247 0.868000
-0.018228 -0.027695 0.864000
-0.027042 -0.011814 0.873000
0.042454 -0.006086 0.876000
-0.015289 0.012706 0.879000
0.019626 -0.014655 0.871000
0.040291 -0.002120 0.876000
-0.018735 -0.008919 0.871000
-0.015757 -0.031999 0.865000
-0.000457 0.015671 0.883000
-0.040370 -0.020630 0.866000
0.017475 -0.013580 0.871000
-0.028218 -0.024167 0.865000
0.017313 0.014185 0.881000
0.031998 0.024841 0.886000
-0.016806 -0.028761 0.864000
0.005996 -0.015354 0.870000
-0.012712 0.018071 0.876000
-0.017801 0.008716 0.878000
-0.039795 -0.011760 0.869000
0.001360 0.017125 0.883000
-0.029625 -0.000677 0.875000
-0.024140 -0.007494 0.872000
0.031241 -0.002118 0.875000
0.002779 -0.010724 0.872000
0.023975 0.022653 0.886000
0.008942 -0.027059 0.878000
0.014129 -0.028035 0.886000
0.000266 -0.025709 0.869000
-0.029711 -0.018870 0.867000
0.028351 0.026664 0.886000
-0.029848 -0.012146 0.871000
-0.007329 0.022474 0.879000
-0.011644 -0.001401 0.877000
-0.041941 -0.013191 0.869000
-0.013747 -0.007502 0.873000
0.042190 0.002212 0.878000
-0.041748 -0.024167 0.865000
0.041246 0.010559 0.881000
-0.007221 -0.025264 0.866000
-0.021801 0.013068 0.879000
-0.001911 0.014944 0.883000
0.000980 -0.021392 0.868000
0.002456 -0.033467 0.885000
-0.011684 0.013445 0.880000
-0.037519 -0.021699 0.866000
0.001337 -0.020321 0.868000
0.018213 -0.017902 0.872000
-0.009850 -0.036093 0.878000
-0.022470 -0.032991 0.863000
0.030800 0.018215 0.883000
0.017575 -0.001399 0.876000
0.007893 0.009119 0.882000
0.006812 -0.030484 0.883000
-0.042299 -0.012118 0.869000
-0.012954 -0.032824 0.868000
0.020891 0.009450 0.879000
0.033495 -0.018940 0.887000
0.043059 0.011284 0.881000
0.050329 0.009767 0.875000
0.045235 0.014548 0.881000
0.043896 -0.002841 0.876000
0.028651 0.016053 0.884000
-0.009013 -0.019583 0.867000
0.007885 0.007296 0.881000
-0.020238 -0.001036 0.874000
0.025405 0.014978 0.885000
-0.037291 -0.012118 0.869000
0.013906 -0.010365 0.872000
-0.010959 0.015618 0.880000
0.053622 0.007204 0.870000
0.031854 0.013112 0.882000
-0.008071 0.013822 0.881000
-0.025245 0.018009 0.873000
0.014444 0.020032 0.883000
0.016299 0.032462 0.885000
0.014017 0.001852 0.879000
-0.047252 -0.001743 0.868000
0.010083 0.014944 0.883000
-0.032506 0.003284 0.875000
-0.003315 -0.028961 0.870000
-0.014383 -0.018177 0.868000
-0.047252 -0.001029 0.868000
-0.008434 0.012009 0.881000
-0.025693 0.004009 0.876000
-0.013326 -0.014979 0.869000
0.050140 0.006548 0.878000
-0.001545 0.010208 0.882000
-0.036534 -0.016391 0.868000
-0.044239 -0.003905 0.872000
-0.035462 -0.014962 0.868000
0.004944 -0.008590 0.874000
-0.011551 -0.033258 0.870000
-0.045814 -0.009731 0.848000
0.019234 0.033957 0.886000
-0.010235 0.015256 0.880000
-0.002950 -0.019249 0.868000
-0.013280 -0.022412 0.866000
-0.020076 -0.020654 0.867000
-0.015812 -0.016748 0.868000
-0.019651 -0.028406 0.864000
0.026862 0.021170 0.885000
0.001704 -0.027983 0.873000
0.023371 0.003653 0.877000
-0.007287 -0.009669 0.874000
-0.034346 0.010139 0.876000
-0.001913 -0.035249 0.884000
-0.026794 -0.024167 0.865000
0.012222 0.004028 0.880000
0.008932 -0.004288 0.877000
0.009377 0.027727 0.885000
0.015206 0.031369 0.885000
-0.032904 0.011220 0.876000
-0.029574 -0.027663 0.863000
0.032654 0.033153 0.884000
-0.009065 -0.032976 0.872000
-0.019093 -0.009995 0.871000
0.048362 0.015117 0.872000
0.025069 0.017548 0.886000
0.006820 0.021510 0.884000
0.001348 -0.008600 0.875000
-0.011525 -0.018534 0.868000
0.020701 -0.013938 0.871000
0.030810 -0.007502 0.873000
-0.027798 0.022420 0.863000
0.000633 -0.032991 0.882000
0.004253 -0.030381 0.880000
-0.027088 -0.029083 0.863000
-0.025845 0.019714 0.869000
-0.029814 -0.012848 0.870000
0.048218 0.019223 0.863000
-0.011322 0.004390 0.880000
0.026528 -0.006072 0.874000
-0.029131 0.016533 0.871000
-0.026052 -0.025561 0.864000
0.009621 -0.007871 0.874000
0.003843 -0.022848 0.869000
0.018526 0.032900 0.887000
-0.013652 -0.032787 0.867000
0.001696 -0.024636 0.869000
-0.014893 0.016286 0.877000
0.036251 0.016761 0.883000
0.032217 0.011297 0.882000
-0.022499 0.014859 0.878000
-0.009003 -0.022056 0.866000
-0.024278 0.007984 0.877000
-0.016864 -0.019227 0.867000
-0.015958 0.017349 0.876000
-0.005451 -0.028895 0.868000
-0.017117 -0.040522 0.880000
0.010810 0.013490 0.883000
0.039114 0.017831 0.882000
-0.017914 -0.023125 0.866000
0.044617 -0.002841 0.876000
-0.022112 0.006541 0.877000
-0.001184 0.016398 0.883000
-0.039619 -0.002831 0.873000
-0.000820 0.020759 0.883000
-0.028153 -0.028018 0.863000
0.041923 0.017791 0.880000
-0.016355 0.002573 0.878000
-0.033625 0.006533 0.876000
0.042045 -0.004999 0.875000
-0.010573 -0.000679 0.878000
-0.033548 0.000043 0.874000
0.026139 -0.013611 0.873000
-0.021785 -0.033029 0.864000
-0.036976 -0.009267 0.870000
-0.033598 -0.019917 0.866000
0.028031 -0.001399 0.876000
-0.050097 -0.003914 0.874000
0.030451 -0.009299 0.873000
0.016114 -0.003558 0.875000
0.022517 0.025935 0.886000
0.035081 0.026514 0.881000
-0.011950 -0.008580 0.873000
0.027591 0.018620 0.885000
-0.049111 -0.007061 0.863000
-0.046677 -0.010115 0.851000
-0.024658 -0.037339 0.865000
0.009923 -0.016410 0.869000
0.011367 -0.014996 0.870000
-0.047911 -0.001385 0.867000
0.021827 -0.017204 0.873000
0.023272 0.020123 0.887000
-0.029320 -0.020274 0.866000
-0.039703 -0.018513 0.867000
0.039569 -0.002481 0.876000
-0.032885 -0.021699 0.866000
0.007184 -0.030519 0.884000
0.024677 -0.022540 0.885000
0.039976 0.001126 0.877000
-0.010429 -0.029184 0.866000
-0.037549 0.007966 0.875000
-0.002614 -0.009320 0.875000
-0.005801 -0.019940 0.867000
0.044821 0.009098 0.880000
-0.000094 -0.034964 0.886000
0.000633 0.019669 0.883000
-0.009467 -0.006447 0.876000
0.010015 -0.005010 0.877000
-0.017873 -0.026983 0.864000
-0.043521 -0.003187 0.872000
-0.038094 -0.006410 0.871000
-0.004465 0.007329 0.885000
-0.025390 0.010523 0.878000
0.019334 -0.019742 0.874000
-0.029265 0.003284 0.875000
-0.025043 -0.020987 0.866000
0.037130 -0.012966 0.878000
0.012976 0.014201 0.882000
-0.007221 -0.026689 0.866000
0.014428 0.017831 0.882000
-0.012310 -0.008221 0.873000
-0.010084 -0.019940 0.867000
0.010072 0.008756 0.882000
-0.029711 -0.018513 0.867000
-0.024140 -0.013236 0.872000
0.024093 0.002931 0.877000
0.009599 -0.009288 0.872000
-0.014366 -0.032787 0.867000
-0.001904 0.025397 0.880000
0.012097 -0.020749 0.871000
-0.029165 -0.011442 0.872000
-0.008796 0.017086 0.881000
-0.036618 -0.009267 0.870000
0.036490 0.024673 0.880000
-0.026744 0.003284 0.875000
-0.001173 -0.009680 0.875000
-0.005451 -0.018892 0.868000
0.019829 0.011271 0.880000
-0.003694 -0.009680 0.875000
-0.035064 -0.018870 0.867000
0.008629 -0.029394 0.883000
0.016262 0.018942 0.883000
0.010470 -0.029461 0.885000
-0.022166 -0.035915 0.865000
-0.001166 -0.014280 0.870000
-0.040199 -0.009625 0.870000
-0.021029 0.016286 0.877000
0.054526 0.007229 0.873000
-0.018100 0.000763 0.875000
-0.027830 -0.026983 0.864000
0.015535 0.018578 0.883000
0.023840 0.012009 0.881000
0.021132 -0.018662 0.874000
0.016758 -0.015730 0.871000
0.037257 0.012372 0.881000
0.002061 -0.010724 0.872000
-0.032209 0.016458 0.867000
0.010015 -0.003566 0.877000
-0.012939 -0.019940 0.867000
-0.017300 -0.008561 0.871000
0.007111 -0.026247 0.875000
-0.014910 0.015221 0.878000
-0.005895 0.019987 0.881000
-0.024886 -0.003550 0.873000
-0.022371 -0.003550 0.873000
-0.030569 0.020950 0.861000
0.032321 -0.003558 0.875000
-0.002241 -0.028603 0.870000
0.009709 0.029811 0.882000
0.018338 0.004741 0.878000
-0.026024 0.002564 0.875000
-0.019362 -0.019940 0.867000
-0.015775 -0.021699 0.866000
0.047502 0.014826 0.876000
0.010435 0.008756 0.882000
0.019191 0.035700 0.884000
0.044719 0.018112 0.878000
0.032326 0.029548 0.885000
-0.013841 0.013429 0.879000
0.050457 0.011156 0.871000
-0.024195 -0.001036 0.874000
0.022002 0.011634 0.880000
-0.022217 -0.019227 0.867000
0.012599 0.011284 0.881000
0.026528 0.021559 0.886000
-0.028608 0.018934 0.866000
-0.026022 -0.035477 0.863000
-0.030959 -0.009288 0.872000
-0.004769 -0.010389 0.874000
0.022905 -0.007502 0.873000
-0.013826 0.001127 0.878000
-0.028185 0.001484 0.875000
0.009218 -0.021084 0.870000
-0.023529 0.016989 0.876000
0.034600 0.005103 0.878000
-0.042396 -0.005334 0.871000
0.006065 -0.029294 0.880000
0.038893 0.001487 0.877000
0.050979 0.001854 0.880000
0.034473 0.021510 0.884000
-0.005170 0.008746 0.881000
-0.025634 -0.001036 0.874000
-0.008300 -0.028504 0.867000
0.028383 0.028885 0.887000
0.000997 0.018942 0.883000
0.039026 0.008736 0.880000
0.007840 -0.006447 0.876000
-0.011347 -0.038799 0.882000
-0.042754 -0.007485 0.871000
-0.015958 0.017710 0.876000
-0.043372 0.002904 0.869000
0.024175 -0.020601 0.880000
-0.011283 -0.002122 0.877000
0.025233 0.006555 0.879000
0.003134 -0.012146 0.871000
0.031925 -0.007151 0.874000
-0.015650 0.009088 0.879000
0.021443 -0.015031 0.872000
-0.018735 -0.008561 0.871000
0.007111 -0.007520 0.875000
-0.017241 -0.016391 0.868000
-0.045922 -0.007305 0.850000
-0.029064 -0.015694 0.869000
0.011524 0.007667 0.882000
-0.025964 0.017649 0.873000
0.051292 0.009026 0.873000
-0.039349 0.002924 0.875000
-0.030214 0.022014 0.861000
0.003847 -0.024664 0.870000
-0.028186 -0.026628 0.864000
-0.010247 -0.038030 0.881000
0.016854 -0.001399 0.876000
-0.015650 0.012344 0.879000
-0.011950 -0.008940 0.873000
-0.018584 -0.026983 0.864000
-0.024972 0.005451 0.876000
0.015535 0.018215 0.883000
0.025624 -0.019877 0.880000
0.016133 -0.002481 0.876000
0.010761 -0.026367 0.879000
0.007530 0.008030 0.882000
-0.041415 0.002558 0.873000
0.008860 -0.022158 0.870000
-0.025245 -0.041637 0.873000
-0.002991 0.022499 0.880000
0.020810 -0.026726 0.891000
-0.026377 -0.034411 0.863000
-0.033753 -0.010341 0.870000
-0.015271 -0.038623 0.878000
0.017008 0.022602 0.884000
0.029048 0.021899 0.885000
-0.048268 -0.002098 0.867000
0.016170 0.002934 0.878000
-0.028641 -0.018156 0.867000
-0.022957 -0.017820 0.868000
-0.002241 -0.013922 0.870000
0.037534 0.005470 0.879000
0.025405 0.036469 0.885000
-0.023529 0.004730 0.876000
0.046112 0.001126 0.877000
0.019599 0.027029 0.886000
0.004258 0.027964 0.881000
0.007419 -0.019271 0.869000
0.018317 -0.021975 0.877000
0.016931 0.012358 0.880000
-0.025696 -0.026272 0.864000
0.044617 -0.003562 0.876000
0.052130 0.008985 0.869000
0.024701 -0.015048 0.873000
-0.015419 -0.021343 0.866000
-0.007647 -0.010029 0.874000
-0.004764 -0.011814 0.873000
0.010049 0.002579 0.880000
-0.042493 -0.000316 0.873000
0.042648 0.008374 0.880000
-0.030137 0.016853 0.869000
-0.029727 0.011246 0.878000
0.038707 0.010922 0.881000
-0.033869 -0.022593 0.873000
0.018017 -0.023499 0.880000
-0.010959 0.005114 0.880000
0.022177 0.033996 0.887000
0.020693 0.027393 0.886000
0.003138 -0.010724 0.872000
-0.023169 0.005091 0.876000
-0.006508 -0.024551 0.866000
-0.013118 0.001852 0.879000
0.007070 -0.013206 0.870000
0.026109 -0.011442 0.872000
0.030904 -0.018919 0.886000
-0.027824 0.001484 0.875000
0.016644 0.020782 0.884000
-0.000457 0.018215 0.883000
0.016854 -0.001759 0.876000
-0.015490 -0.011057 0.870000
0.010072 0.009845 0.882000
-0.043528 -0.015978 0.865000
0.042696 0.017086 0.881000
-0.008746 -0.034930 0.876000
-0.014416 -0.012132 0.870000
0.022415 0.013838 0.882000
-0.017997 -0.012490 0.870000
0.007893 0.030174 0.882000
0.042382 0.015653 0.882000
0.034148 0.025541 0.885000
-0.043113 -0.006051 0.871000
0.036811 0.006194 0.879000
-0.009850 0.018835 0.878000
0.029766 -0.005353 0.874000
-0.010609 0.011284 0.881000
0.022545 -0.017204 0.873000
0.024956 -0.021011 0.882000
0.045132 0.017409 0.879000
-0.027830 0.020668 0.864000
-0.023142 0.001124 0.875000
0.007920 0.024813 0.885000
0.039164 -0.008240 0.875000
0.044872 -0.010835 0.881000
-0.008696 -0.032221 0.871000
0.011161 0.031263 0.882000
-0.012225 -0.019583 0.867000
-0.004374 -0.025650 0.867000
-0.020716 0.011259 0.879000
0.011022 -0.012504 0.871000
-0.026949 0.018305 0.870000
-0.021077 0.011620 0.879000
0.049835 0.005108 0.879000
0.033004 -0.006072 0.874000
-0.027824 -0.005359 0.875000
-0.028088 -0.012877 0.872000
0.004916 -0.022848 0.869000
0.007920 -0.030553 0.885000
-0.024667 0.015221 0.878000
0.002792 -0.006447 0.876000
-0.001170 -0.011455 0.873000
-0.006991 0.009482 0.882000
0.010470 0.027727 0.885000
0.020716 0.029250 0.887000
-0.033241 -0.022056 0.866000
0.016625 0.019305 0.883000
-0.033792 -0.008919 0.871000
-0.015184 -0.005347 0.873000
-0.039612 -0.022742 0.865000
0.025032 -0.013595 0.872000
0.012947 0.003665 0.880000
-0.031066 0.002564 0.875000
-0.026732 -0.028018 0.863000
-0.014432 -0.009636 0.871000
0.024426 -0.000317 0.876000
-0.003361 0.018920 0.882000
0.010700 -0.007511 0.874000
0.013890 -0.011070 0.871000
-0.044598 -0.001393 0.872000
0.034803 -0.009310 0.874000
-0.002272 0.019646 0.882000
-0.017221 -0.018870 0.867000
-0.011283 0.019535 0.877000
0.000266 -0.026782 0.869000
0.004273 0.023693 0.884000
-0.019810 -0.007844 0.871000
-0.015958 0.016989 0.876000
-0.024639 0.007984 0.877000
0.044147 0.010559 0.881000
0.013686 0.008746 0.881000
-0.002233 -0.024936 0.867000
0.017715 0.018578 0.883000
0.021517 -0.002118 0.875000
0.025957 0.006917 0.879000
0.045183 0.008012 0.880000
-0.007970 -0.012848 0.870000
0.049417 0.002934 0.878000
-0.021005 0.004370 0.876000
-0.045264 -0.004617 0.871000
0.012599 0.010922 0.881000
0.039298 0.003296 0.878000
0.021350 0.016761 0.883000
-0.040743 0.003281 0.874000
0.014623 -0.020773 0.872000
-0.026053 0.004370 0.876000
-0.031705 0.018513 0.863000
-0.012582 -0.019940 0.867000
0.035073 -0.019737 0.890000
-0.006983 0.017448 0.881000
0.038532 -0.011868 0.877000
-0.008676 -0.015694 0.869000
-0.031139 -0.017799 0.867000
0.038848 -0.001399 0.876000
0.010458 0.021146 0.884000
0.034263 -0.018961 0.888000
-0.019765 -0.013548 0.869000
-0.028447 -0.012518 0.872000
-0.004424 -0.033165 0.877000
-0.039664 0.004000 0.874000
-0.008666 -0.030324 0.868000
-0.017440 0.007993 0.878000
0.018233 -0.006424 0.873000
-0.024555 -0.001396 0.874000
-0.019901 0.002204 0.875000
0.017391 0.024448 0.885000
-0.045733 -0.014352 0.853000
0.044033 -0.013449 0.886000
0.002087 0.022213 0.883000
-0.003334 -0.008600 0.875000
0.042696 0.017448 0.881000
-0.039664 0.004720 0.874000
-0.001911 0.016034 0.883000
-0.044121 -0.014984 0.849000
-0.044445 0.002904 0.869000
-0.008080 0.012023 0.882000
0.021952 0.005103 0.878000
0.018213 -0.018261 0.872000
-0.010959 -0.037624 0.880000
0.026620 0.001848 0.877000
0.036643 -0.010761 0.875000
-0.021835 -0.036313 0.866000
0.029048 0.033555 0.885000
0.040930 0.014927 0.882000
-0.011684 0.005839 0.880000
0.017895 -0.003914 0.874000
0.023732 0.002570 0.877000
-0.027056 -0.034371 0.862000
0.041467 0.004018 0.878000
0.018140 0.032863 0.886000
-0.013495 0.005839 0.880000
0.037342 0.017125 0.883000
-0.017241 -0.035325 0.868000
0.001340 -0.013206 0.870000
0.018547 -0.027002 0.888000
0.021812 0.033996 0.887000
-0.002635 0.017831 0.882000
-0.018605 -0.024879 0.865000
-0.003001 0.014944 0.883000
0.016738 -0.028130 0.889000
0.005996 -0.013206 0.870000
0.009643 -0.005725 0.876000
-0.030345 -0.000317 0.875000
0.046941 0.013791 0.879000
-0.014706 -0.022412 0.866000
-0.008696 -0.012504 0.871000
-0.005808 -0.029252 0.868000
-0.024956 -0.030149 0.863000
-0.029985 -0.004999 0.875000
0.014265 -0.020773 0.872000
0.045543 -0.013099 0.887000
-0.017400 0.000764 0.876000
0.028191 0.006570 0.881000
0.007078 -0.011787 0.871000
0.031113 -0.022351 0.892000
0.031491 0.009482 0.882000
-0.005176 0.013475 0.882000
-0.026053 -0.043222 0.876000
-0.021810 -0.025235 0.865000
-0.009772 -0.032938 0.871000
-0.032716 -0.009636 0.871000
-0.014219 -0.039435 0.880000
-0.027073 -0.007151 0.874000
-0.022087 0.004730 0.876000
-0.025992 -0.033662 0.862000
-0.021415 0.009800 0.878000
0.007539 0.020759 0.883000
-0.028217 0.004370 0.876000
-0.009003 -0.028472 0.866000
0.014232 -0.018577 0.870000
-0.046644 -0.002105 0.870000
0.020506 -0.021277 0.878000
0.036128 0.008012 0.880000
0.020915 0.010547 0.880000
0.000986 -0.010736 0.873000
0.042745 0.016379 0.882000
-0.002950 -0.026394 0.868000
0.046872 0.018326 0.871000
0.028287 0.014233 0.884000
0.016399 -0.013580 0.871000
-0.026683 -0.010736 0.873000
-0.023449 -0.003191 0.873000
-0.023288 -0.019583 0.867000
-0.017955 -0.016034 0.868000
-0.000450 -0.016410 0.869000
0.039615 0.002209 0.877000
-0.039619 -0.002113 0.873000
0.008210 -0.005371 0.877000
0.045116 -0.016128 0.893000
-0.014893 0.018452 0.877000
0.006712 -0.023590 0.870000
-0.027401 -0.041996 0.873000
0.001337 -0.023893 0.868000
0.050573 0.010104 0.873000
0.017046 0.032499 0.886000
0.008850 -0.020702 0.869000
0.008993 0.014944 0.883000
0.035725 0.005832 0.879000
0.021640 0.009823 0.880000
0.001724 0.011673 0.883000
0.040744 0.004741 0.878000
-0.011684 0.015256 0.880000
-0.028997 0.018242 0.867000
-0.003361 0.016016 0.882000
-0.044802 0.002547 0.869000
0.028654 -0.013251 0.873000
0.032793 0.004380 0.878000
0.029834 0.000043 0.876000
-0.026347 -0.030824 0.862000
0.021082 0.028519 0.887000
0.011819 -0.004649 0.877000
-0.015739 -0.029473 0.864000
0.013035 0.028852 0.886000
0.030881 -0.014002 0.875000
0.039524 -0.003918 0.875000
0.023036 0.006548 0.878000
-0.040370 -0.019561 0.866000
-0.027135 0.004730 0.876000
0.044668 -0.007898 0.877000
-0.013449 -0.001040 0.877000
-0.001900 -0.032118 0.878000
-0.015383 -0.028761 0.864000
0.020701 -0.014296 0.871000
-0.023010 -0.016070 0.870000
0.001702 -0.027592 0.872000
0.012570 0.000043 0.879000
0.032617 0.016398 0.883000
-0.002970 -0.030893 0.874000
0.042142 -0.009703 0.877000
-0.018228 -0.031962 0.864000
0.002409 -0.018892 0.868000
0.020191 0.011271 0.880000
0.002087 0.021122 0.883000
0.028295 -0.010736 0.873000
0.010749 -0.002848 0.878000
0.010834 0.025541 0.885000
0.006434 -0.029690 0.881000
-0.007346 0.014910 0.881000
-0.006620 0.018536 0.881000
-0.003326 -0.011455 0.873000
-0.037865 0.001482 0.874000
-0.001164 -0.019963 0.868000
-0.028249 0.007984 0.877000
0.023397 0.005103 0.878000
0.043422 0.010559 0.881000
-0.001166 -0.013206 0.870000
-0.044138 0.003982 0.870000
0.019061 0.006548 0.878000
-0.008666 -0.018534 0.868000
-0.023974 -0.022412 0.866000
0.030881 -0.013642 0.875000
-0.028643 0.012691 0.878000
0.020939 -0.022438 0.881000
-0.037549 0.003284 0.875000
0.020030 -0.007502 0.873000
0.026589 -0.001038 0.876000
-0.010935 -0.000679 0.878000
0.023246 0.019371 0.886000
-0.036870 0.008336 0.876000
0.008522 -0.009647 0.872000
0.027955 0.023356 0.885000
0.039660 0.003657 0.878000
-0.018584 -0.029473 0.864000
-0.002635 0.021461 0.882000
0.039569 -0.001038 0.876000
0.009367 0.021874 0.884000
0.034803 -0.009669 0.874000
0.005358 0.017488 0.883000
0.040245 -0.003198 0.875000
-0.047911 -0.002812 0.867000
0.007902 0.021122 0.883000
0.029015 0.013870 0.884000
0.018827 0.034608 0.884000
-0.034190 -0.006058 0.872000
-0.032146 -0.003918 0.875000
0.010423 0.006208 0.881000
-0.024772 -0.017125 0.869000
-0.000094 0.014961 0.884000
-0.024611 0.016989 0.876000
-0.033831 -0.006417 0.872000
0.011161 0.008393 0.882000
0.026528 0.019735 0.886000
0.035041 0.010185 0.880000
0.037534 0.007279 0.879000
-0.022808 0.017710 0.876000
-0.035067 0.010139 0.876000
-0.000449 -0.022081 0.867000
-0.021317 0.000403 0.874000
-0.016583 -0.008561 0.871000
-0.020692 -0.041514 0.878000
0.009229 -0.011429 0.871000
-0.004818 0.011673 0.883000
-0.012046 0.005476 0.880000
0.023291 -0.005353 0.874000
-0.029198 -0.009658 0.873000
0.015068 -0.002483 0.877000
-0.024001 -0.038139 0.867000
0.020749 -0.007502 0.873000
0.025032 -0.010724 0.872000
0.019738 0.001485 0.876000
-0.025072 -0.019940 0.867000
-0.009727 -0.019583 0.867000
0.025750 -0.010365 0.872000
-0.047377 -0.006263 0.851000
0.042142 0.020257 0.877000
0.026857 -0.013611 0.873000
-0.005875 0.022448 0.878000
0.025069 0.025205 0.886000
0.012441 -0.014638 0.870000
-0.046537 0.000400 0.868000
-0.017873 -0.027339 0.864000
-0.037692 -0.009267 0.870000
-0.048120 -0.005255 0.858000
0.017756 0.024813 0.885000
0.036961 -0.007871 0.874000
0.019874 0.014927 0.882000
0.018699 0.006187 0.878000
0.003541 0.018578 0.883000
0.022931 -0.006432 0.874000
-0.007665 -0.006447 0.876000
-0.035707 0.001842 0.874000
-0.000819 0.018920 0.882000
0.008492 -0.019271 0.869000
-0.026444 0.015564 0.877000
0.021812 0.029615 0.887000
0.013686 0.006208 0.881000
0.005316 -0.005725 0.876000
0.011563 0.028819 0.885000
-0.037506 -0.000317 0.874000
0.020122 0.003653 0.877000
-0.009159 0.009109 0.881000
-0.002970 -0.011108 0.874000
0.046460 0.019379 0.870000
-0.004747 -0.013564 0.870000
0.024029 0.033668 0.888000
-0.018142 0.005819 0.877000
-0.006872 -0.027791 0.867000
-0.013841 -0.037220 0.879000
0.005322 -0.004288 0.877000
0.040337 -0.010785 0.877000
0.012858 -0.007151 0.874000
0.004938 -0.009299 0.873000
0.027892 0.009129 0.883000
-0.029524 -0.010365 0.872000
-0.015202 -0.035569 0.874000
-0.011697 -0.038392 0.881000
-0.009839 0.019896 0.877000
0.029048 0.021534 0.885000
0.039343 -0.012257 0.879000
0.005316 -0.006447 0.876000
-0.006187 -0.012863 0.871000
0.036490 0.009823 0.880000
-0.023169 0.016989 0.876000
0.017874 -0.019719 0.873000
-0.040868 -0.011402 0.869000
0.051174 0.009722 0.871000
0.031205 -0.006792 0.874000
-0.022851 -0.025917 0.864000
-0.018778 -0.003191 0.873000
0.007893 0.009482 0.882000
-0.032146 0.003645 0.875000
-0.033758 0.020596 0.861000
0.035524 0.018578 0.883000
0.050863 0.003657 0.878000
-0.023395 -0.012504 0.871000
0.028295 -0.011455 0.873000
-0.010922 0.018813 0.877000
0.046994 0.009823 0.880000
0.019017 -0.000678 0.876000
0.030073 0.010583 0.883000
0.041781 -0.000318 0.877000
0.027217 -0.009658 0.873000
-0.014825 -0.006424 0.873000
-0.005539 0.013838 0.882000
0.017977 -0.022361 0.878000
0.038737 -0.017905 0.890000
-0.036051 0.014639 0.865000
-0.039169 0.011156 0.871000
0.008256 -0.029361 0.882000
-0.005438 -0.022769 0.866000
0.030730 -0.017361 0.881000
-0.032961 -0.014962 0.868000
-0.016113 -0.030575 0.865000
-0.021220 -0.010699 0.870000
0.012613 0.016016 0.882000
-0.009738 -0.018892 0.868000
0.023246 0.018641 0.886000
0.039795 0.018174 0.881000
-0.001880 -0.016410 0.869000
0.025868 0.000043 0.876000
-0.027793 -0.008950 0.874000
0.018058 0.016379 0.882000
-0.024499 -0.014672 0.872000
-0.011978 -0.007159 0.875000
-0.035421 -0.017799 0.867000
-0.016012 0.014515 0.879000
-0.016717 0.005825 0.878000
0.014674 -0.004278 0.875000
0.031269 0.029581 0.886000
0.019104 0.010185 0.880000
0.000980 -0.023893 0.868000
0.006804 -0.029724 0.882000
-0.026713 -0.008950 0.874000
-0.012983 -0.012132 0.870000
0.018161 -0.026607 0.887000
0.045803 -0.008268 0.878000
-0.021317 -0.002115 0.874000
-0.003349 -0.033602 0.879000
0.024760 0.031476 0.888000
-0.020862 -0.012490 0.870000
-0.013495 0.012358 0.880000
-0.014689 -0.025235 0.865000
0.051468 0.006894 0.876000
-0.000093 0.020032 0.883000
0.011380 -0.022183 0.871000
-0.010084 -0.019227 0.867000
-0.028512 -0.008230 0.874000
-0.012281 -0.010712 0.871000
0.012627 0.032752 0.883000
-0.027558 0.011969 0.878000
0.046567 0.017988 0.872000
-0.014203 -0.038667 0.879000
0.017136 -0.018620 0.872000
-0.000092 -0.016767 0.869000
-0.014058 -0.011057 0.870000
-0.014268 -0.040660 0.883000
-0.000809 -0.012504 0.871000
-0.032641 -0.013191 0.869000
0.044297 -0.012327 0.884000
-0.025361 0.015925 0.877000
-0.002635 0.009482 0.882000
0.043372 -0.010822 0.880000
-0.025726 -0.024523 0.865000
-0.026732 -0.029439 0.863000
-0.022525 0.014153 0.879000
0.011161 0.008030 0.882000
0.033478 0.000765 0.877000
-0.007246 -0.016052 0.869000
0.010117 -0.030223 0.886000
0.041561 0.008012 0.880000
-0.025992 -0.033307 0.862000
0.029445 0.032499 0.886000
0.017635 0.007641 0.879000
-0.036385 -0.003191 0.873000
-0.005539 0.010208 0.882000
-0.016225 -0.009278 0.871000
0.033230 0.007649 0.880000
-0.009918 -0.038887 0.884000
-0.036618 -0.010341 0.870000
-0.033664 0.007262 0.877000
-0.007708 0.014910 0.881000
-0.022860 0.015582 0.878000
-0.021785 -0.034451 0.864000
-0.021860 -0.018870 0.867000
0.041012 -0.002481 0.876000
0.000633 0.012037 0.883000
-0.046233 -0.007110 0.869000
0.016399 -0.018240 0.871000
-0.004036 -0.012863 0.871000
-0.006215 -0.009320 0.875000
0.020305 0.024084 0.885000
-0.015976 0.000404 0.877000
-0.022860 0.008716 0.878000
-0.018038 -0.007135 0.872000
0.038432 -0.014857 0.883000
-0.026836 -0.044044 0.878000
