-0.034594 0.008006 0.921000
0.019200 -0.022010 0.957000
-0.039988 -0.010971 0.923000
0.035647 0.017531 0.944000
0.029759 0.010381 0.930000
-0.042786 0.001951 0.926000
-0.025679 0.014716 0.914000
0.018472 -0.005370 0.940000
-0.016297 -0.005739 0.937000
-0.004397 -0.021436 0.949000
-0.002367 0.008745 0.919000
0.003430 -0.026625 0.953000
-0.043501 0.003091 0.925000
0.012465 -0.019978 0.954000
0.040096 0.000046 0.939000
0.005961 0.013298 0.920000
-0.037300 0.019210 0.913000
0.012722 -0.009667 0.944000
0.004183 -0.035385 0.946000
-0.014216 0.000427 0.927000
0.044336 -0.000733 0.947000
0.019361 0.011110 0.927000
0.006588 -0.026315 0.956000
0.024756 0.012664 0.929000
-0.003151 -0.005159 1.055000
0.018143 -0.008104 0.943000
0.020838 -0.007320 0.942000
0.028441 0.019329 0.937000
-0.011619 -0.005330 0.933000
-0.011344 -0.010422 0.942000
-0.002727 0.026349 0.913000
-0.035276 0.009501 0.919000
0.025301 0.000816 0.935000
0.034611 0.010845 0.937000
-0.030469 -0.007642 0.934000
0.039667 0.000432 0.938000
-0.027213 0.013603 0.915000
0.003394 -0.038766 0.943000
-0.007316 0.004604 0.923000
-0.043787 0.027398 0.923000
0.021889 -0.018407 0.954000
0.017293 -0.004591 0.939000
0.000683 -0.019152 0.952000
0.031810 0.002737 0.934000
-0.015221 -0.011197 0.942000
0.018056 -0.024030 0.959000
0.011545 -0.009656 0.943000
0.023427 -0.001496 0.937000
-0.018774 0.005000 0.926000
-0.028751 0.013618 0.916000
0.014432 0.001193 0.929000
-0.018429 0.020996 0.909000
0.036618 0.010481 0.939000
0.037351 0.008540 0.938000
0.022462 0.012281 0.929000
-0.018875 -0.000720 0.931000
0.021068 0.000431 0.935000
-0.014996 0.026118 0.905000
-0.007482 -0.024431 0.944000
-0.014850 0.011771 0.919000
-0.037531 -0.007593 0.928000
0.038427 0.004669 0.936000
0.007113 0.008015 0.922000
-0.002838 -0.019112 0.950000
-0.031322 0.015093 0.914000
0.024374 0.007311 0.929000
-0.023625 -0.007281 0.937000
0.000658 0.015520 0.917000
0.009759 0.017103 0.921000
0.036891 0.017568 0.946000
-0.026807 0.015469 0.914000
-0.004365 -0.010422 0.942000
-0.047690 -0.004523 0.925000
0.033175 -0.003822 0.940000
-0.011719 -0.022804 0.941000
-0.027469 0.018793 0.911000
-0.005387 0.012892 0.918000
-0.008373 0.017726 0.914000
0.017087 -0.015577 0.949000
0.015328 -0.004967 0.937000
0.006712 0.015932 0.919000
0.011593 -0.013205 0.947000
0.012125 0.001574 0.928000
0.005777 -0.018369 0.952000
0.012833 0.009933 0.924000
0.016323 -0.015593 0.950000
0.003426 -0.019152 0.952000
0.011692 0.009553 0.924000
-0.010619 0.018458 0.913000
-0.010933 -0.024714 0.940000
-0.041947 0.012487 0.916000
0.043030 -0.001119 0.944000
-0.046951 0.010625 0.918000
-0.014739 -0.024224 0.936000
0.011806 -0.003026 0.933000
0.028796 -0.000339 0.936000
0.011667 -0.018780 0.953000
-0.042655 0.015109 0.915000
0.004073 0.007627 0.921000
-0.003570 -0.008824 0.937000
0.036501 0.001202 0.936000
-0.009445 -0.017864 0.946000
0.014354 0.013736 0.924000
-0.037127 0.010625 0.918000
-0.022244 0.014309 0.912000
0.031661 -0.007312 0.941000
0.004452 0.008006 0.921000
-0.004732 -0.034699 0.938000
0.010917 -0.031431 0.956000
-0.014354 -0.024609 0.936000
0.030175 0.006177 0.931000
-0.030085 -0.006489 0.934000
-0.026397 -0.022822 0.926000
-0.015725 0.003095 0.926000
-0.020788 0.012083 0.914000
0.002246 -0.016375 0.950000
0.024783 0.005405 0.930000
-0.014786 -0.021210 0.939000
0.000683 -0.022287 0.952000
-0.047207 0.021319 0.923000
0.011630 -0.038271 0.950000
-0.035122 0.013979 0.915000
0.023164 -0.008095 0.942000
0.026597 -0.006918 0.940000
-0.010875 -0.031895 0.935000
0.026210 -0.007691 0.940000
0.033696 0.005422 0.933000
0.012034 -0.037920 0.951000
0.014094 -0.023610 0.958000
-0.047690 -0.004904 0.925000
-0.016131 0.032859 0.906000
0.031240 -0.005370 0.940000
0.025959 0.004261 0.931000
-0.011344 -0.021665 0.942000
0.036847 0.003125 0.935000
-0.024214 -0.000337 0.930000
-0.022903 -0.011934 0.939000
-0.001659 -0.014375 0.947000
0.042387 -0.009697 0.947000
-0.001605 0.016257 0.916000
-0.004397 -0.018311 0.949000
-0.000097 0.011002 0.918000
-0.011458 0.011405 0.920000
-0.029732 -0.006496 0.935000
0.002634 -0.015967 0.949000
0.027669 -0.001111 0.937000
0.036494 -0.019233 0.956000
0.007687 -0.012023 0.946000
-0.034820 0.001572 0.927000
-0.019838 0.026863 0.905000
0.029680 -0.016018 0.952000
0.029791 0.011925 0.931000
-0.028157 0.026608 0.909000
0.011740 -0.027187 0.959000
0.037670 0.016400 0.946000
-0.004221 0.023667 0.911000
-0.025335 0.001193 0.929000
-0.026229 0.024683 0.907000
-0.001272 -0.015967 0.949000
0.025626 -0.014375 0.947000
0.010109 -0.019978 0.954000
-0.041856 0.014716 0.914000
0.012135 -0.027977 0.959000
0.022535 0.002731 0.932000
-0.000097 0.012136 0.918000
0.009030 0.006130 0.924000
-0.019621 -0.027896 0.930000
-0.041058 0.017331 0.913000
-0.010549 0.030656 0.907000
-0.015980 -0.018157 0.941000
-0.042832 -0.001480 0.927000
-0.018128 -0.025655 0.932000
0.017109 0.003487 0.929000
0.026126 -0.015610 0.951000
0.017321 -0.027668 0.962000
-0.010333 0.007627 0.921000
-0.025281 0.003098 0.927000
0.022398 -0.023240 0.959000
-0.021535 0.000046 0.930000
0.021214 -0.023635 0.959000
-0.037229 -0.004165 0.930000
-0.014139 0.009532 0.922000
-0.046245 -0.007898 0.919000
-0.010723 0.006117 0.922000
0.014696 -0.011634 0.946000
-0.002027 -0.008824 0.937000
-0.015076 -0.027218 0.933000
-0.006698 -0.011209 0.943000
-0.031115 0.009501 0.919000
0.014830 -0.000337 0.930000
0.014862 -0.001488 0.932000
0.011679 -0.034506 0.954000
0.024756 0.007693 0.929000
0.023602 -0.013163 0.944000
0.012844 -0.018388 0.953000
0.006195 -0.023955 0.956000
-0.012042 0.031776 0.907000
0.020860 -0.008104 0.943000
-0.001275 -0.022655 0.951000
-0.045439 0.010625 0.918000
-0.037248 0.008006 0.921000
0.005009 -0.023143 0.955000
-0.011482 0.007256 0.922000
-0.011669 0.025056 0.907000
-0.042069 -0.003770 0.927000
0.014743 -0.042918 0.949000
-0.029347 -0.006881 0.935000
0.002648 -0.023512 0.954000
-0.023447 0.010967 0.915000
0.042163 -0.000341 0.942000
0.007872 0.008774 0.922000
-0.004253 0.010625 0.918000
-0.005953 -0.021413 0.948000
-0.005369 0.016992 0.915000
0.017970 -0.001107 0.934000
-0.021328 0.028353 0.905000
-0.046776 0.021296 0.922000
-0.002434 -0.027957 0.945000
0.003758 -0.008052 0.937000
-0.031453 0.000811 0.929000
-0.028777 -0.017160 0.929000
-0.025063 0.007232 0.919000
-0.014170 0.005750 0.924000
0.001036 0.014025 0.918000
0.028594 -0.019213 0.955000
0.025436 -0.007304 0.940000
0.000290 -0.016358 0.949000
0.018181 -0.010844 0.945000
-0.031975 0.007256 0.922000
-0.013029 0.004990 0.924000
-0.037572 -0.000719 0.929000
-0.138783 -0.075332 3.397000
-0.010008 0.001570 0.926000
-0.032706 -0.002639 0.932000
0.002179 0.006497 0.922000
0.015261 -0.022404 0.957000
0.043464 -0.000731 0.945000
-0.025884 0.029568 0.908000
0.041300 0.004302 0.940000
0.042912 -0.011683 0.950000
-0.018916 -0.001874 0.933000
0.002163 0.019252 0.915000
0.017717 -0.032024 0.962000
0.031844 0.000816 0.935000
-0.020697 0.018023 0.910000
-0.033857 -0.003023 0.932000
-0.020836 -0.021074 0.933000
0.033597 0.016700 0.941000
-0.006898 0.013269 0.918000
-0.047309 0.024031 0.925000
0.019821 -0.017139 0.949000
0.028024 0.016452 0.949000
-0.010176 0.029536 0.907000
0.031707 0.006943 0.931000
-0.006705 -0.024431 0.944000
-0.004591 0.024765 0.910000
-0.002051 -0.015560 0.948000
-0.011007 0.017350 0.914000
0.034538 0.009667 0.935000
-0.048568 0.007997 0.920000
-0.019078 -0.011960 0.941000
0.038245 0.010504 0.941000
0.032332 0.015103 0.938000
0.012822 -0.049615 1.312000
0.006340 0.011405 0.920000
0.010056 -0.038622 0.949000
0.003037 -0.021134 0.953000
-0.029605 -0.023711 0.931000
-0.032288 -0.011066 0.931000
0.006574 -0.028616 0.954000
-0.006719 -0.022536 0.946000
0.010457 -0.037880 0.950000
-0.020680 0.004619 0.926000
-0.047380 0.009880 0.919000
-0.023423 -0.022896 0.929000
-0.006236 -0.004557 0.932000
-0.031238 -0.005720 0.934000
-0.014185 0.004614 0.925000
-0.002724 0.024068 0.912000
-0.000475 0.010625 0.918000
-0.002733 0.016992 0.915000
-0.046117 0.024385 0.924000
-0.037872 0.001572 0.927000
-0.023575 0.007240 0.920000
-0.050464 0.021030 0.927000
0.028324 -0.012023 0.946000
0.030623 0.012718 0.933000
-0.035353 -0.006085 0.931000
0.012269 -0.007683 0.939000
-0.020025 -0.024861 0.931000
0.039700 -0.010488 0.948000
0.013653 0.002338 0.928000
-0.019114 0.024656 0.906000
0.003021 -0.015170 0.948000
-0.043832 -0.013904 0.916000
-0.006620 -0.004557 0.932000
-0.012029 0.026893 0.906000
0.022894 0.003878 0.931000
-0.013156 -0.029906 0.933000
0.026235 -0.019606 0.955000
-0.040351 0.020735 0.914000
-0.004596 0.027041 0.911000
-0.032253 -0.011437 0.930000
-0.014518 0.009532 0.922000
-0.019283 0.012459 0.914000
0.004582 -0.014780 0.948000
0.021744 0.013457 0.931000
-0.012081 -0.024302 0.939000
-0.006310 -0.025958 0.943000
-0.037229 -0.002251 0.930000
-0.025939 -0.010366 0.937000
0.007704 -0.014000 0.948000
0.032504 -0.008104 0.943000
0.020594 0.003495 0.931000
-0.016095 0.027578 0.904000
-0.040062 0.012487 0.916000
-0.004788 -0.021826 0.949000
-0.039398 -0.007585 0.927000
-0.049647 0.021389 0.926000
-0.027650 0.009858 0.917000
0.029823 0.003498 0.932000
0.035520 -0.014044 0.951000
-0.014639 0.032114 0.906000
-0.000475 0.012892 0.918000
-0.000486 -0.036321 0.940000
0.018236 0.013796 0.928000
0.023302 0.003498 0.932000
0.041043 -0.005775 0.943000
-0.006103 0.019564 0.912000
-0.029414 -0.020513 0.925000
0.014354 0.012596 0.924000
-0.030623 -0.016360 0.927000
0.003701 0.006124 0.923000
-0.045786 0.004995 0.925000
-0.035797 0.015828 0.913000
-0.038719 -0.004542 0.929000
0.008622 -0.005625 1.061000
0.022438 0.007685 0.928000
-0.013699 -0.013552 0.944000
0.009910 -0.036259 1.014000
-0.024735 0.023563 0.907000
-0.045767 0.014010 0.917000
0.022531 -0.016341 0.948000
-0.010355 0.004604 0.923000
-0.015221 -0.017400 0.942000
-0.028906 0.021370 0.909000
0.008668 0.003476 0.926000
0.019396 -0.042199 0.987000
0.004179 -0.035736 0.945000
-0.041570 -0.016543 0.916000
-0.006906 0.009880 0.919000
-0.029065 0.015845 0.914000
-0.025417 -0.001872 0.932000
-0.002826 -0.027208 0.946000
-0.011283 0.028758 0.906000
-0.029473 0.013979 0.915000
0.042130 -0.012074 0.950000
-0.000878 -0.030291 0.945000
-0.010922 0.024310 0.907000
0.022413 -0.011209 0.943000
-0.010224 -0.018253 0.946000
-0.029316 -0.004567 0.934000
0.013292 -0.022404 0.957000
-0.036846 -0.004930 0.930000
-0.043078 -0.016920 0.916000
-0.022619 0.014684 0.912000
-0.049272 0.010636 0.919000
0.004563 -0.011609 0.944000
-0.022464 0.007627 0.921000
-0.010202 -0.021323 0.944000
0.027042 -0.010809 0.942000
-0.019259 0.000046 0.931000
-0.010176 0.024683 0.907000
0.019612 -0.004205 0.939000
-0.007888 -0.013581 0.946000
0.000681 -0.015967 0.949000
-0.005534 -0.026734 0.943000
-0.030176 -0.019371 0.925000
-0.009445 -0.014359 0.946000
-0.047535 0.019778 0.922000
0.001036 0.014781 0.918000
0.026597 -0.007691 0.940000
0.021659 -0.010444 0.944000
0.005759 -0.015577 0.949000
-0.012772 -0.030674 0.933000
0.033492 -0.012452 0.949000
0.044678 -0.005404 0.946000
-0.028163 -0.012255 0.934000
-0.024623 -0.000720 0.931000
-0.025081 0.026520 0.906000
0.012466 0.004995 0.925000
0.010523 -0.022381 0.956000
0.018980 0.008440 0.927000
0.017835 0.011110 0.927000
-0.044311 -0.001098 0.926000
-0.000097 0.014765 0.917000
0.031324 0.008859 0.931000
-0.046928 -0.001858 0.925000
0.005728 -0.039195 0.944000
0.030591 0.003882 0.932000
0.010940 -0.029525 0.958000
-0.016772 -0.014299 0.942000
0.006719 0.020493 0.920000
0.004192 -0.014780 0.948000
-0.027213 0.013226 0.915000
-0.025801 -0.002256 0.932000
-0.010310 0.012527 0.919000
0.024302 -0.008474 0.941000
0.023992 0.011899 0.929000
-0.036886 -0.003786 0.931000
0.006333 0.015932 0.919000
-0.021288 -0.005347 0.936000
-0.008041 0.011771 0.919000
-0.050518 0.022199 0.928000
0.011434 -0.003798 0.934000
-0.016315 -0.006517 0.938000
-0.029947 0.010247 0.918000
-0.049486 0.017521 0.923000
-0.040816 0.012487 0.916000
0.012763 -0.012426 0.947000
0.040481 -0.010488 0.948000
-0.047947 0.028371 0.930000
-0.010456 -0.004941 0.932000
0.030239 0.003118 0.933000
-0.038093 0.015093 0.914000
-0.016149 0.023563 0.907000
0.006540 -0.015577 0.949000
-0.042370 -0.017316 0.917000
0.002551 0.012906 0.919000
0.012871 -0.034542 0.955000
0.001410 0.018122 0.915000
0.001860 -0.021918 0.953000
0.014050 -0.020392 0.955000
-0.016469 0.006137 0.925000
-0.038510 0.004990 0.924000
0.004993 -0.028948 0.952000
-0.003855 0.018834 0.913000
0.001033 0.018498 0.915000
-0.018450 0.019146 0.910000
0.002253 -0.025056 0.953000
0.037657 0.001972 0.936000
-0.029034 0.004614 0.925000
-0.021095 0.015793 0.911000
-0.011746 0.018834 0.913000
-0.015758 0.025401 0.906000
0.027995 0.001201 0.935000
0.010501 -0.032543 0.954000
-0.014818 -0.010023 0.941000
-0.008050 0.008376 0.920000
-0.017361 -0.026422 0.932000
0.020169 -0.015934 0.947000
-0.035045 0.020337 0.913000
-0.018693 0.008394 0.922000
-0.022595 0.019167 0.911000
-0.045817 0.018181 0.918000
-0.029602 0.007989 0.919000
0.018598 0.011492 0.927000
-0.017554 0.008394 0.922000
-0.019948 0.018023 0.910000
0.015213 -0.019193 0.954000
0.041344 0.005081 0.941000
-0.030912 0.015828 0.913000
-0.022970 0.018043 0.911000
0.014020 -0.037608 0.953000
-0.029795 -0.020513 0.925000
0.040566 -0.012465 0.950000
-0.002421 -0.033613 0.940000
0.018879 -0.006150 0.941000
0.032366 -0.002272 0.939000
-0.020111 -0.019580 0.935000
0.016374 -0.040353 0.953000
-0.042039 -0.014690 0.918000
0.028055 0.017015 0.937000
-0.009814 -0.012386 0.944000
0.034870 0.019085 0.944000
-0.002449 -0.020307 0.951000
0.004059 0.015914 0.918000
-0.023857 -0.001104 0.931000
0.029274 -0.005364 0.939000
-0.011055 0.013647 0.918000
0.031707 0.008476 0.931000
-0.003505 0.008376 0.920000
0.017321 -0.028856 0.962000
0.001790 0.015897 0.917000
0.027492 0.004261 0.931000
-0.023165 -0.003414 0.934000
-0.029414 0.004614 0.925000
0.005571 0.016670 0.918000
0.014370 0.015274 0.925000
0.036925 -0.000339 0.937000
0.029850 -0.010844 0.945000
0.023091 -0.019999 0.955000
0.030656 0.013885 0.934000
0.041519 -0.008121 0.945000
-0.006898 0.012892 0.918000
-0.001229 0.015520 0.917000
0.022235 -0.017585 0.952000
-0.005715 0.024015 0.910000
-0.034782 0.002714 0.926000
-0.004788 -0.019873 0.949000
-0.010221 0.020292 0.911000
0.020148 -0.014749 0.946000
-0.029686 0.024765 0.910000
0.038756 -0.006947 0.944000
0.003790 -0.012011 0.945000
0.031473 -0.010477 0.947000
-0.021352 0.032114 0.906000
-0.019530 0.022094 0.908000
0.044336 -0.008528 0.947000
-0.022878 -0.013852 0.938000
-0.034587 -0.002636 0.931000
0.012112 0.002717 0.927000
-0.019389 0.010636 0.919000
0.001419 0.007248 0.921000
0.036462 0.002355 0.935000
0.001451 -0.037949 0.942000
0.017249 -0.023216 0.958000
-0.041706 -0.013193 0.919000
-0.026807 -0.020939 0.927000
0.010545 -0.027948 0.958000
0.038509 -0.000340 0.938000
-0.032601 0.000428 0.929000
0.001067 -0.012011 0.945000
0.041775 -0.001504 0.942000
-0.042981 0.026988 0.922000
-0.032770 0.005744 0.923000
-0.048018 0.021343 0.924000
0.015546 0.007295 0.927000
0.015898 -0.013219 0.948000
-0.011151 0.000808 0.926000
0.041431 -0.005387 0.943000
-0.021152 -0.024069 0.930000
0.034093 0.020250 0.944000
-0.010921 -0.026234 0.939000
0.015999 -0.019585 0.954000
0.032711 -0.012452 0.949000
0.021315 0.012664 0.929000
-0.028971 -0.022748 0.923000
-0.013506 0.028726 0.905000
-0.005102 -0.007266 0.935000
-0.032663 0.008755 0.920000
-0.001659 -0.027237 0.947000
-0.033130 0.017687 0.912000
0.005402 -0.021571 0.955000
-0.017681 0.020996 0.909000
-0.009835 -0.017085 0.946000
-0.022390 0.008735 0.918000
-0.005178 -0.019483 0.949000
-0.049920 0.018680 0.924000
0.010151 -0.027948 0.958000
-0.022967 0.003857 0.926000
-0.038512 0.013226 0.915000
-0.011079 0.010648 0.920000
-0.016176 -0.001485 0.930000
-0.022276 -0.023660 0.929000
-0.009395 -0.025515 0.941000
-0.052258 0.014132 0.925000
-0.008410 0.013647 0.918000
-0.021095 0.015418 0.911000
0.002229 -0.036437 0.943000
0.028611 0.011146 0.930000
-0.024782 -0.007667 0.937000
0.027728 -0.006524 0.939000
-0.019424 -0.008843 0.939000
-0.008318 0.024710 0.908000
-0.028969 0.027791 0.911000
0.037948 -0.015642 0.953000
-0.050735 0.017558 0.925000
-0.034557 -0.020402 0.920000
-0.006096 0.028916 0.911000
-0.021470 0.017668 0.911000
-0.019600 -0.027484 0.929000
-0.011669 -0.026564 0.937000
-0.008912 -0.001870 0.931000
0.020126 -0.012400 0.945000
0.025878 -0.010422 0.942000
0.040438 -0.010087 0.947000
-0.003205 -0.030227 0.943000
0.037271 0.001202 0.936000
-0.003475 0.026696 0.912000
-0.044311 -0.001860 0.926000
-0.044451 -0.007536 0.921000
0.018000 -0.039693 0.956000
-0.013939 -0.031092 0.934000
-0.034857 0.001192 0.928000
0.010160 0.008403 0.923000
-0.033125 -0.006482 0.933000
-0.017973 0.006511 0.924000
-0.047329 0.012892 0.918000
0.012530 -0.025214 0.959000
-0.023398 0.002719 0.928000
0.018598 0.012255 0.927000
-0.023962 0.026893 0.906000
-0.005563 -0.016731 0.948000
0.020904 -0.013566 0.945000
-0.000099 -0.009219 0.938000
-0.032841 0.004234 0.925000
-0.002354 0.018102 0.914000
-0.033473 -0.008009 0.932000
-0.021311 -0.016537 0.937000
-0.051386 0.014861 0.923000
0.014743 -0.043699 0.949000
-0.005953 -0.016731 0.948000
-0.028364 0.001192 0.928000
0.008085 -0.038540 0.947000
-0.005346 0.021417 0.911000
-0.022300 -0.022538 0.930000
-0.051653 0.010280 0.921000
-0.022492 -0.014238 0.938000
0.001032 0.020735 0.914000
0.015927 0.005387 0.927000
-0.041842 0.006117 0.922000
0.042432 -0.010098 0.948000
-0.011756 -0.018991 0.944000
0.001860 -0.022703 0.953000
-0.014139 0.009153 0.922000
0.017698 -0.033177 0.961000
0.019591 -0.003042 0.938000
0.018220 -0.014375 0.947000
0.035184 -0.004994 0.942000
0.006188 -0.026288 0.955000
-0.022844 0.023910 0.906000
0.040483 0.002752 0.939000
0.005955 0.020849 0.919000
-0.039823 -0.005683 0.928000
0.035424 -0.021662 0.959000
-0.009606 0.003088 0.924000
-0.025226 0.004614 0.925000
0.008171 -0.023980 0.957000
-0.038378 -0.003782 0.930000
-0.006143 0.012892 0.918000
0.004572 -0.012802 0.946000
-0.003205 -0.010821 0.943000
0.021767 0.003498 0.932000
-0.029347 -0.008420 0.935000
-0.018741 0.032486 0.906000
-0.013641 -0.021619 0.940000
-0.037759 0.013226 0.915000
-0.022570 0.019521 0.910000
0.004432 0.019294 0.917000
-0.040018 0.022641 0.915000
-0.036464 -0.006461 0.930000
0.031739 -0.018820 0.955000
-0.001274 -0.017939 0.950000
0.058569 -0.234068 5.129000
0.022003 -0.024030 0.959000
-0.040499 -0.006815 0.926000
0.001788 0.016634 0.916000
-0.046117 -0.002236 0.924000
-0.034935 -0.019645 0.920000
0.001064 -0.037561 0.942000
-0.030085 -0.008027 0.934000
0.027935 0.003118 0.933000
-0.037149 -0.008357 0.928000
0.017717 -0.029648 0.962000
-0.034932 -0.011054 0.930000
0.014735 0.012976 0.924000
-0.035276 0.009880 0.919000
0.012086 0.004995 0.925000
-0.047810 0.007240 0.920000
-0.030737 0.008745 0.919000
0.031207 0.017824 0.939000
-0.033799 0.008755 0.920000
-0.044258 0.018916 0.917000
-0.021446 0.020270 0.910000
-0.051720 0.021076 0.929000
0.011324 0.005756 0.925000
0.035845 -0.002659 0.939000
-0.043031 0.017745 0.915000
-0.019659 0.012835 0.914000
-0.025856 -0.014946 0.934000
0.009304 -0.017977 0.952000
-0.042463 0.024631 0.919000
-0.001663 -0.024560 0.949000
-0.000877 -0.031425 0.944000
0.003433 -0.022334 0.954000
-0.010019 0.000427 0.927000
-0.003977 -0.030583 0.942000
-0.022619 0.016936 0.912000
-0.033018 -0.001102 0.930000
-0.017007 0.014325 0.913000
-0.039228 0.005744 0.923000
0.029349 -0.017622 0.954000
-0.031238 -0.007642 0.934000
-0.034215 0.024306 0.921000
-0.017417 -0.022659 0.935000
-0.026602 0.025056 0.907000
-0.031836 0.000046 0.929000
0.030272 0.001968 0.934000
-0.042794 -0.012801 0.918000
-0.007086 -0.010433 0.943000
-0.049812 0.015984 0.922000
0.029756 -0.009646 0.942000
-0.018741 0.024283 0.906000
0.014428 -0.037255 0.954000
-0.010209 0.021394 0.910000
-0.007213 0.028884 0.910000
0.011971 -0.011634 0.946000
-0.028405 0.011368 0.917000
0.023238 -0.013955 0.945000
0.016116 -0.030804 0.961000
0.008145 -0.031365 0.954000
0.022080 0.006928 0.929000
-0.015470 0.018418 0.911000
-0.011495 0.004984 0.923000
-0.026866 0.011356 0.916000
0.005187 0.018539 0.917000
-0.017992 0.005756 0.925000
-0.006123 0.016615 0.915000
-0.009136 0.016615 0.915000
-0.022012 -0.003414 0.934000
-0.038891 -0.010603 0.924000
-0.005941 -0.013970 0.946000
-0.046497 -0.002236 0.924000
0.012453 0.010694 0.924000
-0.032755 0.022942 0.912000
-0.039101 -0.001101 0.929000
-0.002799 -0.008438 0.937000
0.008154 -0.029432 0.955000
0.031707 0.006560 0.931000
-0.019790 -0.016940 0.938000
-0.008998 -0.026262 0.940000
0.012047 -0.017585 0.952000
0.027463 0.012677 0.930000
-0.033506 0.018438 0.912000
0.028611 0.007319 0.930000
-0.023667 0.020622 0.909000
-0.020408 -0.000720 0.931000
0.017717 -0.031628 0.962000
0.000291 -0.026541 0.950000
-0.000852 0.015520 0.917000
-0.042405 -0.005290 0.926000
-0.007490 -0.023290 0.945000
-0.045258 0.023573 0.922000
-0.033130 0.022567 0.912000
-0.013878 0.030216 0.905000
0.001036 0.013269 0.918000
-0.009425 -0.021323 0.944000
0.010540 0.010303 0.923000
-0.039308 0.024174 0.916000
0.004601 -0.018761 0.952000
-0.037229 -0.003782 0.930000
0.002989 -0.008833 0.938000
-0.010840 -0.004557 0.932000
0.012135 -0.028766 0.959000
-0.024389 0.021720 0.908000
-0.028193 -0.006496 0.935000
0.019266 -0.006150 0.941000
0.040224 -0.004994 0.942000
-0.003846 0.022167 0.911000
-0.005733 0.019210 0.913000
-0.028163 -0.003798 0.934000
0.017835 0.012255 0.927000
0.027433 0.011134 0.929000
0.004978 -0.015186 0.949000
0.001073 -0.027323 0.950000
0.003762 -0.009219 0.938000
-0.028133 -0.013010 0.933000
0.010501 -0.032935 0.954000
0.017177 -0.019193 0.954000
0.007976 -0.083403 1.989000
-0.017623 0.024656 0.906000
0.003681 0.014403 0.918000
0.009284 -0.016375 0.950000
-0.010116 -0.032699 0.936000
-0.033457 -0.021182 0.921000
0.007537 -0.033929 1.032000
0.033171 -0.014827 0.951000
-0.008233 -0.009249 0.941000
-0.030937 0.004614 0.925000
-0.025855 0.026923 0.907000
-0.012534 -0.013163 0.944000
-0.017383 0.013949 0.913000
-0.007034 -0.033084 0.936000
-0.027067 -0.011126 0.936000
-0.045258 -0.005647 0.922000
-0.008032 0.014025 0.918000
0.012009 -0.040184 0.949000
-0.032770 -0.018569 0.923000
-0.003578 -0.035123 0.939000
-0.002724 0.021816 0.912000
-0.009196 0.006490 0.921000
-0.011939 -0.000718 0.928000
-0.015625 -0.014314 0.943000
0.005402 -0.023930 0.955000
0.028501 -0.006524 0.939000
0.034454 -0.017622 0.954000
-0.014461 -0.013538 0.943000
-0.007988 0.018458 0.913000
-0.020834 0.010978 0.916000
-0.022471 0.030995 0.906000
-0.013641 -0.008852 0.940000
-0.021512 -0.024807 0.929000
-0.034294 0.016203 0.913000
-0.003127 0.008376 0.920000
0.001855 -0.017157 0.950000
-0.048189 0.007619 0.920000
0.025796 -0.004591 0.939000
-0.026981 -0.003410 0.933000
0.007492 0.007635 0.922000
-0.037545 -0.018110 0.919000
0.034026 -0.016819 0.953000
-0.015195 0.014010 0.917000
0.032470 -0.007708 0.942000
-0.042222 0.028506 0.922000
-0.029224 0.006854 0.919000
-0.013282 -0.010422 0.942000
-0.000100 -0.012011 0.945000
0.022413 -0.009656 0.943000
0.022462 0.006546 0.929000
0.024224 -0.003042 0.938000
0.008077 -0.012413 0.946000
-0.021357 -0.012707 0.939000
0.014751 0.010325 0.925000
-0.048946 0.015192 0.920000
-0.031555 -0.003023 0.932000
0.025896 -0.020829 0.957000
0.013628 -0.037215 0.953000
0.007090 0.017823 0.919000
0.033454 0.013158 0.937000
-0.013940 0.022493 0.909000
0.024689 -0.007699 0.941000
0.000281 0.009880 0.919000
0.032648 0.000431 0.936000
0.025823 -0.006144 0.940000
-0.031973 -0.003794 0.933000
0.013609 0.009944 0.925000
-0.040483 -0.017693 0.917000
-0.028578 -0.006881 0.935000
-0.003563 -0.006496 0.935000
-0.008584 -0.030806 0.937000
-0.012241 0.008394 0.922000
-0.022471 0.025029 0.906000
0.017454 0.008440 0.927000
-0.039017 -0.007203 0.927000
0.025904 0.007693 0.929000
-0.034970 -0.007234 0.931000
0.025904 0.009223 0.929000
0.024092 -0.015560 0.948000
-0.014707 -0.030707 0.934000
-0.040118 0.002714 0.926000
-0.007300 0.007248 0.921000
-0.016858 0.026863 0.905000
-0.037965 0.008376 0.920000
-0.040483 0.024200 0.917000
-0.045538 0.020493 0.920000
0.027699 -0.003042 0.938000
0.008234 0.017842 0.920000
0.027965 0.001584 0.934000
0.033312 0.008110 0.933000
-0.039772 0.010625 0.918000
-0.009455 -0.017103 0.947000
-0.010224 -0.017085 0.946000
-0.039975 0.020359 0.914000
-0.017051 -0.022298 0.936000
-0.010557 -0.023966 0.941000
-0.055848 -0.029752 1.367000
-0.015436 0.022118 0.909000
-0.000489 -0.029544 0.946000
-0.013127 -0.003786 0.931000
-0.009824 0.022867 0.909000
-0.027453 -0.010355 0.936000
-0.032755 0.017687 0.912000
0.014767 0.005763 0.926000
0.016134 -0.004978 0.939000
0.000289 -0.032202 0.944000
-0.027530 0.016203 0.913000
0.005193 0.020070 0.918000
-0.013583 -0.005732 0.936000
0.009370 0.015570 0.920000
-0.026258 0.021720 0.908000
0.031074 0.001585 0.935000
-0.020836 -0.021458 0.933000
-0.007109 -0.022536 0.946000
0.009522 -0.003417 0.935000
-0.023264 -0.008447 0.938000
0.030401 0.018191 0.938000
-0.020606 0.032114 0.906000
-0.034438 0.001953 0.927000
0.021170 -0.022010 0.957000
0.007121 0.006504 0.923000
-0.036965 0.015093 0.914000
-0.036949 -0.014770 0.923000
-0.008419 0.011393 0.919000
-0.029542 0.000428 0.929000
0.021674 0.009595 0.928000
0.008781 -0.008447 0.938000
0.015293 -0.024424 0.959000
-0.035125 -0.023298 0.978000
-0.013336 0.012527 0.919000
-0.007579 0.028104 0.909000
-0.011823 0.012527 0.919000
-0.021373 0.007643 0.923000
0.033347 0.001968 0.934000
-0.005534 -0.027510 0.943000
-0.046497 0.024005 0.924000
-0.021823 0.004238 0.926000
-0.030061 0.023266 0.910000
-0.013307 0.014010 0.917000
0.018919 -0.007716 0.943000
-0.027875 0.018062 0.912000
0.009950 -0.002659 0.939000
-0.028937 0.026637 0.910000
0.031041 0.012732 0.934000
0.020559 -0.015544 0.947000
-0.038047 -0.014375 0.922000
-0.024036 -0.009991 0.938000
0.030558 0.010392 0.931000
-0.027218 0.001956 0.928000
-0.007654 0.012892 0.918000
-0.016736 -0.009239 0.940000
-0.010591 -0.012386 0.944000
0.031776 0.003502 0.933000
0.026314 0.013826 0.930000
0.010932 0.008412 0.924000
-0.012042 0.023936 0.907000
0.008678 0.002717 0.927000
-0.032425 0.004990 0.924000
-0.032355 -0.020446 0.922000
0.036231 -0.002659 0.939000
0.007863 0.011417 0.921000
-0.024200 0.011343 0.915000
-0.025828 -0.015698 0.933000
-0.037586 -0.016615 0.920000
0.032165 -0.019233 0.956000
-0.007821 -0.029681 0.938000
-0.043360 0.026988 0.922000
-0.045462 -0.016868 0.934000
0.005317 -0.010786 0.940000
0.029661 -0.004591 0.939000
0.003311 0.008376 0.920000
-0.033275 0.012864 0.916000
-0.003212 -0.027179 0.945000
-0.026325 -0.008052 0.937000
-0.020584 -0.015026 0.939000
-0.016630 -0.025325 0.934000
0.038855 -0.018052 0.956000
-0.021328 0.025373 0.905000
-0.012480 -0.022393 0.940000
-0.025141 -0.013437 0.936000
-0.025855 0.026549 0.907000
-0.029065 0.015469 0.914000
-0.006513 0.014387 0.917000
0.013628 -0.018780 0.953000
-0.017454 -0.006124 0.937000
-0.013894 -0.003019 0.931000
-0.011682 -0.006903 0.938000
0.024374 0.006928 0.929000
-0.043930 -0.003003 0.926000
0.027128 -0.012788 0.945000
-0.003185 -0.008438 0.937000
-0.014818 -0.009636 0.941000
-0.047002 0.008367 0.919000
0.021292 0.007303 0.928000
-0.000883 -0.024977 0.950000
-0.016858 0.031333 0.905000
0.010534 -0.023192 0.957000
-0.028303 -0.020916 0.926000
0.016477 -0.024424 0.959000
0.014665 -0.009667 0.944000
-0.049432 0.016743 0.922000
0.020948 -0.015934 0.947000
0.011740 -0.029161 0.959000
-0.036924 0.019585 0.913000
-0.023041 -0.023660 0.929000
-0.040880 -0.006433 0.926000
-0.033579 0.023745 0.914000
-0.008318 0.025831 0.908000
-0.004606 0.019585 0.913000
-0.000882 -0.025732 0.949000
0.014564 -0.044740 0.963000
0.024689 -0.008087 0.941000
-0.031386 -0.016360 0.927000
0.016116 -0.028826 0.961000
-0.041173 0.003849 0.924000
0.004616 -0.025109 0.955000
-0.035621 -0.009885 0.928000
0.003430 -0.019957 0.953000
0.008251 0.009153 0.922000
-0.003884 0.007997 0.920000
-0.026489 0.011356 0.916000
-0.012082 0.021019 0.910000
-0.015092 -0.026863 0.934000
-0.010747 0.003468 0.924000
-0.004397 -0.019092 0.949000
-0.028715 0.003098 0.927000
-0.027270 -0.025569 0.943000
-0.014769 0.015469 0.914000
-0.047360 0.024438 0.926000
-0.033401 -0.001102 0.930000
0.023252 0.005022 0.930000
-0.050083 0.008755 0.920000
0.035557 -0.014842 0.952000
0.035421 -0.001112 0.938000
-0.035809 0.005744 0.923000
0.023992 0.011134 0.929000
0.005692 -0.008833 0.938000
0.002172 0.009880 0.919000
-0.036829 -0.017751 0.920000
-0.004002 -0.015951 0.948000
0.025961 -0.013177 0.945000
-0.030325 0.010625 0.918000
-0.012507 -0.020890 0.942000
0.005357 -0.013595 0.947000
0.015261 -0.022798 0.957000
-0.043928 0.010247 0.918000
-0.004230 0.018834 0.913000
-0.008931 -0.005330 0.933000
-0.047155 0.006117 0.922000
-0.018095 0.016168 0.911000
-0.027891 0.004614 0.925000
0.010882 -0.034862 0.953000
-0.022903 -0.010388 0.939000
0.041305 -0.012061 0.949000
-0.024266 -0.001488 0.932000
-0.014518 0.009153 0.922000
-0.018552 -0.003414 0.934000
0.015165 -0.041443 0.951000
-0.019279 -0.024504 0.932000
-0.046877 0.005750 0.924000
-0.043880 0.011368 0.917000
0.036733 -0.014842 0.952000
-0.007688 0.005738 0.922000
-0.011043 0.014765 0.917000
0.028994 0.005787 0.930000
0.012857 -0.019193 0.954000
-0.038680 0.009501 0.919000
0.011109 -0.008456 0.939000
-0.033294 0.001953 0.927000
0.013214 0.011455 0.924000
0.021148 -0.020413 0.956000
-0.037954 -0.006454 0.929000
-0.028333 0.002335 0.927000
-0.004763 -0.011221 0.944000
0.018551 -0.008890 0.944000
-0.006083 0.025486 0.909000
-0.004002 -0.023754 0.948000
-0.019155 0.004238 0.926000
-0.017642 0.023563 0.907000
0.012938 -0.026821 0.960000
0.013991 -0.039877 0.951000
0.032014 -0.004209 0.940000
0.009343 -0.022381 0.956000
-0.013583 -0.026150 0.936000
0.038591 0.008945 0.940000
0.024017 0.005787 0.930000
-0.008807 0.010648 0.920000
0.040483 0.003911 0.939000
-0.018090 0.000046 0.930000
-0.003582 -0.032839 0.940000
0.031207 0.018211 0.939000
0.034501 0.003121 0.934000
0.030434 -0.005364 0.939000
0.013700 -0.031891 0.958000
-0.030803 0.007248 0.921000
-0.022098 0.025029 0.906000
-0.012295 0.000808 0.926000
-0.049372 0.024490 0.928000
-0.012480 -0.008078 0.940000
-0.016291 0.013979 0.915000
-0.044215 0.004229 0.924000
-0.022420 -0.004572 0.935000
-0.010181 -0.010422 0.942000
-0.049861 0.025309 0.930000
0.031240 -0.005757 0.940000
0.032263 0.013144 0.936000
0.011667 0.013707 0.922000
-0.032734 -0.020446 0.922000
0.011287 0.014466 0.922000
-0.014088 -0.015883 0.944000
-0.048382 -0.010683 0.931000
-0.005475 -0.004562 0.933000
0.025796 -0.003045 0.939000
-0.041083 -0.010200 0.922000
-0.020219 -0.011560 0.940000
0.034057 0.019065 0.943000
0.023677 -0.015544 0.947000
0.006337 -0.042023 1.311000
-0.003956 -0.008438 0.937000
-0.036003 -0.009885 0.928000
-0.031767 0.002335 0.927000
-0.015368 0.026491 0.905000
-0.037676 0.019585 0.913000
0.008631 0.010671 0.922000
-0.018075 0.019896 0.910000
-0.045489 0.008745 0.919000
0.028857 -0.002656 0.938000
0.010700 -0.007281 0.937000
0.011730 0.002717 0.927000
-0.018187 -0.021504 0.935000
0.003012 -0.012400 0.945000
0.016219 -0.009278 0.944000
-0.027302 0.007980 0.918000
-0.019948 0.016899 0.910000
-0.051282 0.020289 0.928000
0.045943 -0.005806 0.948000
-0.033983 0.004234 0.925000
-0.020956 0.029843 0.905000
0.021271 -0.010832 0.944000
0.032642 -0.010477 0.947000
0.040523 -0.011280 0.949000
-0.026431 0.014716 0.914000
-0.030053 -0.011090 0.933000
-0.033530 -0.017809 0.923000
-0.011913 0.001570 0.926000
-0.003608 -0.025288 0.947000
0.010336 -0.008843 0.939000
0.017321 -0.027272 0.962000
-0.020724 -0.026309 0.928000
0.027051 0.010752 0.929000
-0.041947 0.021535 0.916000
0.005571 0.018937 0.918000
-0.011785 0.015126 0.916000
-0.029280 0.022493 0.909000
-0.043880 0.020426 0.917000
0.025436 -0.005757 0.940000
-0.016647 -0.004187 0.935000
-0.030274 0.001574 0.928000
0.003412 -0.014780 0.948000
-0.013293 0.014749 0.916000
-0.044692 0.000427 0.926000
-0.047638 0.022483 0.924000
-0.032770 0.006504 0.923000
-0.007284 0.011014 0.919000
0.019280 -0.025662 0.961000
-0.028436 0.007602 0.918000
0.039868 -0.014451 0.952000
-0.028303 -0.020535 0.926000
-0.023096 0.010224 0.916000
-0.009065 -0.015934 0.947000
-0.034970 -0.001870 0.931000
-0.024518 0.003098 0.927000
0.003408 -0.033083 0.947000
0.011740 -0.028372 0.959000
0.024689 -0.020413 0.956000
0.033175 0.017069 0.940000
0.042387 -0.009308 0.947000
-0.044830 -0.007536 0.921000
0.010908 0.016743 0.922000
-0.013685 -0.017419 0.943000
0.018056 -0.023635 0.959000
-0.020791 -0.022945 0.931000
-0.046245 0.018579 0.919000
-0.014461 -0.016255 0.943000
-0.010137 -0.027750 0.938000
-0.010537 0.026520 0.906000
0.034885 0.003506 0.934000
-0.035836 0.020735 0.914000
-0.019982 -0.026719 0.929000
-0.007863 -0.024793 0.943000
-0.021129 -0.024807 0.929000
0.035998 -0.005775 0.943000
-0.026597 -0.014162 0.933000
-0.046396 -0.004508 0.922000
-0.017510 -0.008852 0.940000
-0.038764 0.007627 0.921000
-0.008189 -0.032699 0.936000
0.016819 -0.021594 0.956000
0.016573 -0.007708 0.942000
0.015131 0.014132 0.925000
-0.009429 0.025803 0.907000
0.038550 -0.002272 0.939000
0.004972 -0.014390 0.948000
-0.007482 -0.011998 0.944000
-0.032039 0.015828 0.913000
-0.004768 -0.012788 0.945000
-0.025554 -0.010366 0.937000
-0.001610 0.009501 0.919000
-0.034550 -0.011437 0.930000
-0.030358 0.008367 0.919000
-0.035621 0.001192 0.928000
-0.039598 0.013964 0.914000
0.036063 -0.018034 0.955000
-0.021773 0.022094 0.908000
0.010138 0.015966 0.921000
0.023838 -0.003042 0.938000
0.008668 0.003857 0.926000
-0.046698 0.000810 0.928000
0.003034 -0.019152 0.952000
-0.016468 0.029810 0.904000
-0.028072 -0.014898 0.931000
0.028611 0.005787 0.930000
-0.049096 0.026840 0.930000
0.003401 -0.034569 0.945000
-0.019093 0.030216 0.905000
-0.010557 -0.008861 0.941000
-0.030053 -0.003026 0.933000
-0.005004 0.014765 0.917000
0.001794 0.011014 0.919000
0.036532 -0.020041 0.957000
-0.008067 0.005358 0.922000
0.012046 0.015225 0.922000
0.000684 0.006715 0.953000
-0.015741 0.031706 0.905000
-0.017726 -0.000720 0.931000
0.016690 0.008058 0.927000
-0.010105 -0.031510 0.935000
-0.007284 0.010636 0.919000
-0.029344 0.018793 0.911000
-0.033820 -0.001870 0.931000
-0.050083 0.013298 0.920000
-0.012334 -0.002248 0.929000
-0.030755 -0.001487 0.931000
0.020092 -0.026481 0.962000
-0.010933 -0.008078 0.940000
-0.021753 0.007263 0.923000
-0.020925 -0.006124 0.937000
-0.017642 0.023936 0.907000
-0.009543 0.013269 0.918000
0.013199 0.012582 0.923000
-0.041888 0.004984 0.923000
-0.009889 0.016992 0.915000
0.040054 0.003135 0.938000
-0.009813 0.031063 0.908000
-0.007953 0.029601 0.909000
0.026880 -0.014420 0.950000
-0.048568 0.007619 0.920000
0.039240 0.004674 0.937000
0.019000 0.011886 0.928000
-0.020933 0.028322 0.904000
-0.042463 0.009501 0.919000
-0.017105 -0.018504 0.939000
-0.020188 0.029438 0.904000
-0.022471 0.031368 0.906000
-0.021743 -0.011548 0.939000
-0.006528 0.008745 0.919000
0.004064 0.011014 0.919000
0.038427 0.003128 0.936000
-0.022122 0.022816 0.907000
-0.026454 -0.020197 0.928000
-0.012817 0.022118 0.909000
0.005577 0.014419 0.919000
-0.005953 -0.015560 0.948000
-0.012321 -0.000718 0.928000
0.014712 -0.012426 0.947000
-0.016840 0.029810 0.904000
-0.024954 0.010967 0.915000
0.021203 -0.005763 0.941000
-0.020811 0.011343 0.915000
0.004568 -0.036903 0.945000
0.013667 0.000811 0.929000
-0.010991 -0.013566 0.945000
-0.009395 -0.009249 0.941000
0.029471 0.002734 0.933000
0.029408 0.011925 0.931000
0.036579 -0.000726 0.938000
-0.003589 -0.030583 0.942000
0.031980 -0.003432 0.939000
-0.043835 0.003468 0.924000
-0.015946 -0.020050 0.939000
0.019185 -0.002653 0.937000
-0.019445 -0.010013 0.940000
0.010325 -0.008061 0.938000
0.019913 -0.000339 0.935000
-0.008198 -0.030806 0.937000
-0.020430 -0.022970 0.932000
-0.014308 -0.028370 0.933000
0.028053 -0.014029 0.950000
-0.042405 0.002332 0.926000
0.022869 0.013060 0.930000
0.000661 0.008006 0.921000
-0.023297 0.006130 0.924000
0.041953 -0.008908 0.946000
0.035483 -0.013247 0.950000
-0.000101 -0.019544 0.952000
0.010848 -0.037880 0.950000
0.013028 -0.006903 0.938000
0.015459 -0.010844 0.945000
-0.007094 -0.024042 0.944000
0.023252 0.013060 0.930000
-0.023190 -0.016501 0.935000
0.023164 -0.009646 0.942000
0.010940 -0.026370 0.958000
-0.027952 0.002335 0.927000
0.000656 0.023771 0.915000
-0.024362 0.023563 0.907000
0.006894 -0.011221 0.944000
-0.025386 0.008349 0.917000
-0.011296 -0.006903 0.938000
-0.024899 0.003480 0.927000
-0.034067 0.011745 0.917000
-0.048832 0.021366 0.925000
-0.014185 0.003853 0.925000
-0.031081 0.010625 0.918000
0.017472 0.014178 0.928000
0.002631 -0.030387 0.948000
-0.039555 0.019210 0.913000
0.020910 0.008067 0.928000
-0.058576 -0.028585 1.365000
-0.024188 0.001575 0.929000
-0.050895 0.012176 0.921000
0.026710 -0.011998 0.944000
0.027779 -0.018015 0.954000
0.024374 0.011899 0.929000
0.000659 0.013269 0.918000
0.038611 -0.012856 0.950000
0.043166 -0.009308 0.947000
-0.009471 0.020667 0.911000
0.040828 -0.009308 0.947000
0.004820 0.011771 0.919000
0.032753 -0.002659 0.939000
-0.021488 -0.025545 0.928000
-0.001665 -0.023804 0.950000
-0.000872 -0.010388 0.939000
0.012373 -0.012816 0.947000
0.038019 0.014827 0.945000
0.014448 0.000046 0.930000
-0.028436 0.008735 0.918000
-0.023396 0.014325 0.913000
0.031324 0.008476 0.931000
-0.041551 -0.015306 1.131000
-0.021834 -0.028796 0.960000
0.021316 -0.014359 0.946000
-0.032947 0.001574 0.928000
-0.049704 0.013677 0.920000
0.017303 -0.032386 0.961000
-0.014216 0.000046 0.927000
-0.005151 0.005098 0.944000
-0.044072 -0.007915 0.921000
-0.043930 0.000046 0.926000
-0.019093 0.025373 0.905000
-0.024389 0.022094 0.908000
-0.016613 0.015435 0.912000
-0.001976 0.020713 0.913000
-0.015493 -0.024583 0.935000
-0.009689 -0.004941 0.932000
0.016997 -0.009667 0.944000
-0.033602 0.004614 0.925000
-0.038719 -0.000336 0.929000
0.000680 -0.014780 0.948000
-0.022396 -0.018790 0.934000
0.029823 0.012705 0.932000
0.034262 0.012786 0.938000
0.014830 0.000429 0.930000
-0.000489 -0.012400 0.945000
-0.033150 -0.018569 0.923000
-0.004007 -0.021826 0.949000
0.013342 -0.003026 0.933000
-0.050516 0.013313 0.921000
0.034057 -0.006551 0.943000
-0.011520 0.001949 0.925000
0.015309 -0.031167 0.960000
-0.020321 0.003480 0.927000
0.002236 -0.012802 0.946000
-0.044830 -0.007157 0.921000
0.013442 -0.007304 0.940000
-0.004707 -0.005330 0.933000
0.012399 -0.014796 0.949000
-0.039179 0.019585 0.913000
0.008484 -0.014390 0.948000
-0.000883 -0.024586 0.950000
0.012073 0.009553 0.924000
-0.006471 0.021417 0.911000
-0.023934 -0.016099 0.934000
-0.023115 -0.019901 0.932000
-0.006250 -0.006489 0.934000
-0.010934 0.023963 0.908000
0.021248 -0.009268 0.943000
0.019764 0.012268 0.928000
-0.022195 0.019896 0.910000
-0.037924 0.009501 0.919000
-0.050790 0.018721 0.926000
-0.009037 -0.021711 0.944000
0.000682 -0.026150 0.950000
0.009634 -0.040446 0.946000
-0.029570 0.009869 0.918000
0.037271 0.001587 0.936000
-0.026072 0.002338 0.928000
-0.018226 -0.020008 0.937000
-0.028814 0.007980 0.918000
0.036341 -0.015234 0.952000
0.013557 -0.042873 0.948000
-0.030755 -0.012216 0.931000
0.018201 -0.011634 0.946000
0.023660 0.004261 0.931000
0.022389 -0.008483 0.942000
-0.021266 -0.018810 0.935000
-0.044024 0.023143 0.920000
-0.021357 -0.010002 0.939000
0.003774 -0.011185 0.941000
-0.037261 -0.012608 0.992000
-0.004346 -0.034313 0.938000
0.035692 0.002740 0.935000
-0.035583 0.002335 0.927000
0.013256 0.003098 0.927000
0.012682 -0.008087 0.941000
0.002923 0.022313 0.917000
-0.027783 0.020996 0.909000
-0.002349 0.024068 0.912000
-0.041797 0.007627 0.921000
0.033316 0.020639 0.944000
-0.003964 -0.033963 0.939000
-0.004971 0.026667 0.911000
-0.022781 -0.018406 0.934000
-0.019838 0.031333 0.905000
0.012830 -0.017193 0.952000
0.001414 0.014025 0.918000
0.028835 -0.013638 0.950000
-0.006330 -0.022536 0.946000
0.019225 -0.003818 0.939000
-0.027453 -0.009585 0.936000
-0.040969 -0.000336 0.928000
0.005379 -0.017175 0.951000
-0.018631 -0.018099 0.938000
-0.021697 -0.015380 0.937000
-0.022869 0.023563 0.907000
0.021697 0.012664 0.929000
-0.034369 0.013603 0.915000
0.013643 -0.036469 0.954000
0.004616 -0.023930 0.955000
-0.038336 -0.001484 0.929000
-0.009445 -0.019810 0.946000
0.007872 0.008015 0.922000
0.019675 -0.006545 0.942000
-0.037612 -0.005696 0.930000
-0.000875 -0.033684 0.942000
0.034097 -0.018034 0.955000
0.037657 0.004284 0.936000
-0.015108 -0.025353 0.935000
-0.046117 0.025146 0.924000
-0.013311 -0.014329 0.944000
-0.005934 -0.024846 0.945000
-0.004976 0.028197 0.912000
-0.031596 -0.020826 0.922000
-0.027499 0.017312 0.912000
0.011322 -0.022404 0.957000
0.020233 0.002731 0.932000
-0.009445 -0.015528 0.946000
-0.031969 0.022542 0.911000
-0.018997 -0.006124 0.937000
-0.026576 0.006854 0.919000
0.020030 -0.023635 0.959000
0.035845 0.011254 0.939000
-0.012374 -0.004557 0.932000
0.031963 -0.013247 0.950000
-0.015827 -0.027573 0.932000
-0.010535 -0.026234 0.939000
0.015639 -0.021200 0.956000
-0.000854 0.009880 0.919000
0.021674 0.011504 0.928000
-0.025718 0.001193 0.929000
-0.019466 -0.011572 0.941000
-0.047707 0.014781 0.918000
-0.022035 -0.017656 0.935000
0.025823 -0.007304 0.940000
0.028994 0.010764 0.930000
-0.009710 -0.006105 0.934000
-0.022415 0.008367 0.919000
-0.042278 0.013603 0.915000
-0.014550 0.005750 0.924000
0.036969 -0.011268 0.948000
0.031149 -0.012843 0.949000
0.030175 0.010392 0.931000
0.003766 -0.010002 0.939000
0.021125 -0.019606 0.955000
0.031391 0.011182 0.933000
-0.001976 0.024470 0.913000
-0.019684 -0.022226 0.933000
-0.046366 0.001575 0.929000
0.026238 -0.008861 0.941000
-0.022317 0.011343 0.915000
0.020298 0.000046 0.935000
-0.030437 -0.004178 0.933000
0.031358 0.005416 0.932000
-0.013521 0.031741 0.906000
0.031772 -0.019233 0.956000
-0.021540 0.012459 0.914000
-0.025554 -0.007281 0.937000
0.012819 0.016001 0.923000
0.015606 -0.038432 0.954000
-0.007763 -0.003786 0.931000
-0.012648 0.004229 0.924000
0.037086 -0.014435 0.951000
-0.002364 0.012892 0.918000
0.030495 -0.016819 0.953000
0.010501 -0.019978 0.954000
0.036462 0.003125 0.935000
-0.027808 -0.005726 0.935000
0.016819 -0.037333 0.956000
0.018085 -0.004983 0.940000
-0.039565 0.006117 0.922000
-0.020702 0.003480 0.927000
-0.003120 0.012892 0.918000
-0.044927 -0.005273 0.923000
-0.025745 -0.018710 0.930000
0.007290 -0.040404 0.945000
0.032788 -0.004596 0.940000
-0.017554 0.009153 0.922000
-0.005157 -0.026013 0.945000
-0.010910 -0.026978 0.938000
-0.042655 0.015486 0.915000
0.038427 0.004284 0.936000
-0.016113 0.030216 0.905000
0.033696 0.006190 0.933000
0.038083 0.000046 0.937000
-0.013438 0.001951 0.926000
-0.029763 -0.020871 0.924000
-0.001647 -0.036321 0.940000
-0.041797 0.007248 0.921000
-0.038803 0.019210 0.913000
0.007991 0.002743 0.936000
0.001036 0.012136 0.918000
-0.014866 0.010648 0.920000
-0.012922 -0.018214 0.944000
-0.040727 0.020735 0.914000
-0.015759 0.000810 0.928000
0.012086 0.005756 0.925000
-0.027005 0.024336 0.908000
-0.034898 0.009880 0.919000
-0.030469 0.025542 0.911000
0.036424 0.016754 0.944000
-0.019466 -0.013122 0.941000
-0.043408 0.014732 0.915000
-0.043031 0.017369 0.915000
-0.013170 -0.031092 0.934000
0.000280 0.016634 0.916000
0.011263 -0.017977 0.952000
-0.009056 -0.019810 0.946000
0.035730 0.001202 0.936000
0.016254 -0.011245 0.946000
0.030558 0.005794 0.931000
-0.043031 0.014356 0.915000
-0.006891 0.015142 0.917000
0.009695 -0.018369 0.952000
-0.004328 -0.004182 0.934000
0.007476 0.018978 0.920000
0.005571 0.017048 0.918000
-0.011115 0.005364 0.923000
-0.040205 -0.001482 0.928000
-0.033820 -0.009150 0.931000
0.042596 -0.001506 0.943000
-0.032010 -0.019329 0.923000
0.010791 -0.010844 0.945000
-0.045489 0.019714 0.919000
-0.002832 -0.015170 0.948000
0.009323 -0.032935 0.954000
-0.004374 -0.011998 0.944000
0.025082 -0.020413 0.956000
0.013314 -0.000720 0.931000
-0.011656 0.027266 0.906000
0.027080 0.006170 0.930000
-0.034550 -0.009141 0.930000
0.030304 0.001201 0.935000
-0.001665 -0.024195 0.950000
-0.025554 -0.011523 0.937000
-0.031453 -0.014101 0.929000
0.021980 -0.022822 0.958000
-0.029285 -0.012242 0.933000
-0.046067 0.023599 0.923000
0.018075 -0.034723 0.960000
-0.016332 -0.019277 0.939000
0.010545 -0.028342 0.958000
-0.028963 -0.009190 0.935000
-0.048137 0.014797 0.919000
-0.017529 -0.010411 0.941000
-0.050191 0.015225 0.922000
0.033281 0.019841 0.943000
0.022003 -0.023635 0.959000
-0.024926 0.014716 0.914000
-0.007276 0.014025 0.918000
0.025135 -0.021639 0.958000
0.032814 -0.015234 0.952000
-0.005715 0.025514 0.910000
0.027443 -0.020020 0.956000
0.025247 0.002734 0.933000
0.022511 0.003878 0.931000
0.015546 0.003861 0.927000
0.014751 0.015274 0.925000
0.017624 -0.022010 0.957000
-0.006457 0.026608 0.909000
-0.020885 -0.029925 0.971000
-0.014262 -0.002251 0.930000
0.031116 -0.012049 0.948000
-0.035276 0.010258 0.919000
-0.033616 0.014356 0.915000
0.018879 -0.005763 0.941000
0.028805 -0.012843 0.949000
-0.007443 -0.029712 0.939000
0.006982 -0.023168 0.956000
0.007991 -0.006118 0.936000
-0.019948 0.019521 0.910000
-0.029956 0.000046 0.930000
0.016340 -0.043400 0.951000
0.007090 0.017066 0.919000
0.036154 0.000046 0.937000
-0.027600 -0.018670 0.928000
-0.028963 -0.007650 0.935000
-0.028937 0.027012 0.910000
0.042611 -0.013275 0.952000
-0.040439 0.012487 0.916000
0.022270 -0.001882 0.937000
0.029535 0.016209 0.935000
0.024400 0.013060 0.930000
-0.027379 0.026579 0.908000
-0.007896 -0.017883 0.947000
-0.042451 0.000427 0.927000
0.002542 0.020781 0.916000
-0.037046 0.012864 0.916000
-0.037717 0.014340 0.914000
-0.009802 0.027296 0.907000
-0.016384 -0.011197 0.942000
-0.032706 -0.003406 0.932000
-0.008189 -0.031929 0.936000
-0.003229 -0.021458 0.950000
-0.011632 -0.030707 0.934000
-0.048515 0.014040 0.919000
0.004815 0.021582 0.918000
-0.036569 0.005364 0.923000
0.004201 -0.016375 0.950000
-0.050464 0.021412 0.927000
-0.046017 0.022055 0.922000
-0.034624 -0.005324 0.932000
-0.009186 0.010648 0.920000
0.005795 -0.025895 0.955000
-0.034290 -0.017809 0.923000
0.032435 -0.006538 0.941000
0.002648 -0.023119 0.954000
0.003300 0.015897 0.917000
-0.045024 -0.003000 0.925000
0.031741 0.005416 0.932000
0.031041 0.002353 0.934000
-0.020090 -0.021481 0.934000
0.034648 0.012014 0.938000
-0.010224 -0.019032 0.946000
-0.014898 0.009532 0.922000
0.007898 0.004234 0.925000
0.006519 -0.012413 0.946000
0.007484 0.010659 0.921000
-0.009616 0.001949 0.925000
-0.014251 0.027608 0.905000
0.032470 0.019820 0.942000
0.027487 -0.011609 0.944000
0.013974 0.014117 0.924000
-0.001665 -0.023413 0.950000
-0.000475 0.011002 0.918000
0.017717 -0.006538 0.941000
-0.032755 0.019189 0.912000
-0.031802 0.012500 0.917000
0.010413 -0.012413 0.946000
0.015426 -0.008492 0.943000
-0.011296 0.024310 0.907000
-0.002051 -0.026095 0.948000
0.031980 0.016665 0.939000
-0.008621 -0.008861 0.941000
0.012465 -0.035291 0.954000
0.003798 -0.013205 0.947000
-0.011296 0.024683 0.907000
0.009265 -0.013609 0.948000
0.016185 -0.007708 0.942000
0.010149 0.018260 0.922000
0.022918 0.003115 0.932000
0.007290 -0.011622 0.945000
0.027255 -0.000724 0.936000
0.004825 0.011405 0.920000
0.041300 0.001207 0.940000
-0.028343 0.014356 0.915000
-0.023370 0.017687 0.912000
-0.009543 0.013647 0.918000
0.008529 -0.019173 0.953000
-0.014566 0.003091 0.925000
-0.016595 0.016168 0.911000
-0.045258 -0.006026 0.922000
-0.020992 -0.011173 0.940000
-0.012922 -0.014718 0.944000
0.003415 -0.015967 0.949000
-0.020769 0.000046 0.930000
0.035959 0.015167 0.942000
0.035421 0.011242 0.938000
0.034737 -0.014044 0.951000
-0.021288 -0.017290 0.936000
-0.025856 -0.004182 0.934000
-0.038469 -0.012491 0.923000
-0.020278 0.022094 0.908000
0.000682 -0.018349 0.951000
-0.025254 -0.023584 0.926000
-0.037341 0.014340 0.914000
0.011434 -0.004182 0.934000
-0.016123 0.001572 0.927000
-0.027038 -0.012268 0.935000
0.006347 0.021652 0.921000
0.030239 0.013486 0.933000
0.030047 -0.006910 0.939000
-0.014623 0.027236 0.905000
-0.041103 0.019231 0.914000
0.008959 -0.027918 0.957000
0.020776 -0.021616 0.957000
-0.024782 -0.010752 0.937000
-0.035049 0.006124 0.923000
0.012439 0.016381 0.923000
-0.020606 -0.013881 0.940000
-0.047535 0.019399 0.922000
-0.048515 0.009880 0.919000
-0.032450 0.014716 0.914000
-0.032791 0.015828 0.913000
-0.034594 0.007627 0.921000
0.011050 -0.001876 0.934000
-0.019466 0.030588 0.905000
-0.039866 -0.002248 0.929000
-0.034369 0.014356 0.915000
0.032928 0.004654 0.933000
0.001033 0.018875 0.915000
-0.022366 0.009103 0.917000
0.007375 -0.022774 0.956000
0.032573 -0.009288 0.945000
0.022080 0.006546 0.929000
-0.008277 -0.020979 0.946000
-0.042222 -0.017790 0.922000
-0.023908 -0.017618 0.933000
