0.027387 -0.009235 0.867000
-0.021341 -0.026330 0.890000
-0.010718 -0.020103 0.890000
-0.034347 0.025468 0.858000
-0.024639 0.006180 0.877000
-0.008766 -0.002486 0.878000
-0.044905 0.014137 0.878000
-0.034645 -0.007674 0.893000
-0.011803 -0.022276 0.889000
-0.012945 -0.015008 0.892000
0.019754 -0.020171 0.893000
-0.004867 -0.019047 0.892000
-0.000459 -0.009093 0.888000
-0.038091 -0.021559 0.905000
0.006507 -0.013158 0.891000
0.025434 -0.040434 0.886000
-0.010754 -0.008409 0.893000
-0.014449 0.002914 0.872000
0.031934 0.003913 0.855000
0.009923 -0.003891 0.869000
0.004316 -0.014290 0.893000
-0.000828 -0.020492 0.891000
-0.036524 -0.003267 0.894000
-0.030276 0.007589 0.873000
0.025218 0.004963 0.854000
0.024532 -0.022008 0.893000
-0.014797 -0.008777 0.893000
-0.007078 -0.013923 0.893000
0.023036 -0.026022 0.892000
0.032986 -0.027154 0.893000
-0.025101 0.010760 0.868000
0.007840 -0.007889 0.876000
-0.005583 -0.024105 0.889000
-0.026499 -0.013891 0.891000
-0.012238 -0.011362 0.894000
-0.029067 -0.000323 0.891000
-0.018224 0.001857 0.881000
0.006627 0.006760 0.859000
0.032513 0.019533 0.861000
-0.039747 -0.008033 0.892000
0.023812 0.006369 0.854000
-0.009221 -0.026607 0.887000
0.020678 -0.004970 0.870000
0.033970 0.021684 0.862000
-0.031669 0.018846 0.862000
0.010859 -0.033178 0.887000
0.019594 0.008829 0.854000
0.001734 -0.009824 0.888000
0.022008 -0.002809 0.866000
0.002381 0.016640 0.858000
-0.003707 -0.003932 0.878000
0.029612 -0.030394 0.891000
-0.027325 -0.006579 0.894000
-0.032808 -0.001794 0.893000
0.016204 -0.039961 0.900000
0.033222 -0.003856 0.861000
-0.032072 -0.000691 0.893000
0.023109 0.005315 0.854000
0.000638 -0.025203 0.889000
-0.013127 0.017306 0.856000
0.001365 -0.032776 0.886000
-0.041842 0.009845 0.882000
-0.030602 -0.008777 0.893000
-0.039702 0.003344 0.891000
0.008341 -0.024893 0.891000
0.022907 -0.037194 0.887000
0.028969 0.021659 0.861000
-0.021961 0.009364 0.871000
0.034325 0.020975 0.862000
0.023139 -0.041996 0.896000
-0.029117 0.018802 0.860000
-0.002300 -0.013555 0.893000
-0.020981 0.006526 0.875000
0.004605 -0.008268 0.878000
0.010529 -0.014242 0.890000
0.044159 -0.011376 0.867000
0.024091 -0.002091 0.864000
-0.046931 -0.013128 0.889000
-0.026763 0.012845 0.864000
-0.010351 -0.021568 0.890000
0.022838 0.002864 0.857000
0.020489 -0.023846 0.893000
0.014674 -0.007520 0.875000
0.000636 -0.032046 0.886000
-0.032808 -0.008042 0.893000
0.035973 -0.002786 0.859000
-0.036238 0.004425 0.887000
-0.043410 0.015564 0.877000
-0.023618 -0.009144 0.893000
-0.033212 -0.003635 0.894000
0.022907 -0.041209 0.887000
0.030245 0.000395 0.857000
0.035471 -0.006003 0.864000
-0.017002 -0.006939 0.893000
0.021000 0.006721 0.854000
-0.017142 0.012830 0.863000
0.022186 -0.007143 0.873000
-0.010754 -0.009144 0.893000
0.033878 -0.014773 0.878000
-0.015028 0.010711 0.864000
-0.040711 -0.012762 0.889000
0.021543 -0.027460 0.891000
0.034418 -0.024187 0.892000
0.022081 0.012711 0.855000
0.030643 -0.020446 0.889000
0.027971 -0.004930 0.863000
0.012947 -0.009374 0.880000
-0.022541 -0.008051 0.894000
0.021519 -0.029261 0.890000
-0.000830 -0.016128 0.893000
-0.048504 0.015446 0.891000
0.028733 0.004963 0.854000
0.031634 -0.018554 0.886000
0.048665 -0.011787 0.871000
-0.020310 -0.005837 0.893000
-0.042079 -0.017845 0.887000
0.010174 0.003582 0.860000
0.014035 0.004986 0.858000
0.013006 0.003582 0.860000
0.024774 -0.001733 0.863000
0.033615 0.021684 0.862000
0.003944 -0.012806 0.892000
-0.040245 0.018684 0.871000
0.009123 0.001460 0.861000
-0.023932 -0.014258 0.891000
0.035082 -0.011442 0.872000
0.026827 -0.011801 0.872000
-0.036686 -0.014592 0.889000
0.008414 0.001460 0.861000
0.027292 -0.005647 0.864000
-0.042397 0.025205 0.886000
0.005383 -0.032813 0.887000
0.021780 0.003217 0.857000
0.025296 -0.042271 0.894000
-0.023669 0.024323 0.855000
0.015605 -0.035003 0.887000
-0.039203 -0.020058 0.888000
0.036327 0.012417 0.859000
0.022593 -0.032887 0.889000
-0.035013 -0.006204 0.893000
-0.028797 -0.005475 0.894000
-0.037460 0.002974 0.890000
-0.008548 -0.010982 0.893000
-0.043509 0.020665 0.879000
0.030955 -0.009235 0.867000
-0.010320 0.021559 0.857000
-0.035788 -0.002532 0.894000
0.031998 -0.012936 0.876000
-0.005199 -0.029858 0.886000
-0.041761 -0.015306 0.888000
0.011914 -0.010508 0.884000
0.046781 -0.016181 0.876000
0.023325 -0.033253 0.889000
-0.042397 0.007337 0.886000
0.009197 -0.003172 0.868000
-0.005955 -0.008015 0.890000
0.014240 -0.022008 0.893000
-0.026103 -0.016806 0.890000
0.008727 -0.019068 0.893000
-0.004096 -0.006869 0.884000
0.002744 0.003941 0.861000
-0.020244 0.016306 0.859000
-0.027050 0.002229 0.885000
0.029574 0.015227 0.858000
0.010688 -0.006784 0.873000
0.016446 -0.020906 0.893000
-0.017983 -0.026972 0.887000
-0.022148 -0.009880 0.893000
0.003210 -0.019781 0.892000
0.015376 -0.006432 0.874000
-0.041761 0.005526 0.888000
0.037406 -0.014739 0.876000
-0.025679 -0.019327 0.888000
0.025577 -0.019759 0.891000
-0.013832 0.020829 0.856000
0.047863 -0.005640 0.863000
-0.021077 0.004023 0.879000
0.006997 0.002523 0.861000
0.034559 -0.002786 0.859000
-0.030427 0.021206 0.857000
-0.028507 0.002958 0.885000
-0.040245 0.019760 0.871000
-0.008557 0.014857 0.857000
0.015520 0.001816 0.862000
-0.014015 -0.020469 0.890000
0.030102 -0.004930 0.863000
0.005407 -0.023426 0.891000
-0.040299 -0.015306 0.888000
-0.000091 0.003590 0.862000
-0.003015 -0.029527 0.887000
-0.032404 -0.008767 0.892000
-0.020288 -0.004729 0.892000
0.023430 -0.023846 0.893000
0.023299 -0.000312 0.861000
-0.031448 0.024352 0.856000
0.014240 -0.018333 0.893000
0.040263 -0.005267 0.860000
0.031972 0.001099 0.856000
0.044257 -0.016902 0.876000
0.004859 0.006406 0.859000
-0.015480 -0.019737 0.890000
0.032284 -0.011828 0.874000
0.008022 0.011682 0.857000
-0.024354 -0.004734 0.893000
-0.017707 0.018715 0.856000
-0.017214 -0.000685 0.885000
0.014573 -0.004607 0.869000
0.025463 -0.017480 0.887000
0.033204 -0.021178 0.889000
0.036991 -0.001370 0.858000
-0.011121 -0.010247 0.893000
0.007956 -0.012397 0.889000
-0.018519 0.014926 0.861000
-0.013127 0.020829 0.856000
0.030741 0.021305 0.861000
0.032982 -0.006358 0.864000
-0.022314 0.001136 0.885000
-0.013747 0.001840 0.873000
0.028383 -0.037924 0.887000
0.026304 0.003209 0.855000
0.026043 0.015580 0.858000
0.035441 -0.011442 0.872000
-0.032695 0.019887 0.861000
-0.042737 0.020641 0.878000
-0.036524 -0.001796 0.894000
0.011563 0.011696 0.858000
-0.025194 0.018073 0.859000
-0.021173 0.001497 0.883000
-0.043558 0.011634 0.880000
-0.026133 0.022916 0.855000
-0.003631 0.007122 0.860000
-0.029117 0.019156 0.860000
-0.014046 -0.014641 0.892000
0.008385 0.012049 0.858000
-0.026162 -0.002526 0.892000
-0.021005 0.006173 0.876000
-0.044786 -0.009480 0.890000
-0.033601 0.025439 0.857000
-0.041489 -0.012044 0.890000
0.002080 -0.008287 0.880000
0.020857 -0.024214 0.893000
-0.046147 -0.016403 0.888000
0.037344 -0.001370 0.858000
0.042436 -0.006691 0.861000
0.000272 -0.021226 0.891000
-0.011437 -0.005445 0.889000
0.024192 0.003913 0.855000
-0.028508 0.014961 0.863000
0.030102 -0.005640 0.863000
-0.003403 -0.015760 0.893000
0.027873 0.020926 0.860000
-0.039889 -0.018210 0.887000
-0.036197 0.023050 0.860000
0.012319 -0.033908 0.887000
-0.030776 0.005458 0.877000
-0.026805 0.005819 0.877000
-0.006300 -0.027702 0.887000
0.021519 -0.029993 0.890000
0.024946 -0.008183 0.869000
-0.041023 0.010547 0.880000
0.026311 -0.028927 0.891000
-0.015515 -0.014274 0.892000
0.016469 0.009202 0.856000
0.017391 -0.013069 0.885000
-0.015241 0.018363 0.856000
0.007679 0.007458 0.858000
0.005906 0.009919 0.857000
0.011685 -0.003526 0.867000
-0.027294 -0.003631 0.893000
-0.021805 -0.008419 0.894000
-0.008916 -0.013187 0.893000
0.028050 -0.036870 0.888000
-0.028397 -0.012085 0.893000
0.020328 -0.014907 0.886000
-0.019246 0.004018 0.878000
0.027260 -0.003865 0.863000
-0.022470 0.014606 0.863000
0.018913 0.011655 0.855000
-0.006703 -0.031529 0.892000
0.040291 -0.015460 0.876000
0.016060 -0.017945 0.892000
0.027551 0.022368 0.861000
-0.025429 0.026787 0.855000
0.005573 0.003936 0.860000
0.020489 -0.023111 0.893000
-0.012524 0.009278 0.863000
-0.045468 0.006630 0.889000
0.037107 -0.009972 0.869000
-0.041215 -0.006931 0.892000
0.014019 0.008860 0.857000
-0.033758 0.002239 0.889000
0.016469 0.008850 0.856000
-0.040204 0.000044 0.894000
0.012770 -0.020906 0.893000
-0.027538 0.000410 0.889000
-0.006711 -0.013923 0.893000
-0.029900 -0.003635 0.894000
0.001737 -0.024499 0.890000
0.023623 -0.008940 0.873000
-0.017579 -0.000685 0.885000
-0.027830 0.013556 0.864000
0.034239 -0.014773 0.878000
-0.006681 -0.024471 0.889000
-0.042780 -0.003267 0.894000
0.003935 -0.011678 0.890000
0.018763 -0.010835 0.881000
0.002379 0.010624 0.857000
0.015676 -0.016458 0.891000
0.034559 0.013477 0.859000
0.026678 -0.030027 0.891000
-0.027605 0.020500 0.857000
0.022468 -0.005686 0.870000
0.030781 -0.026786 0.893000
0.041630 -0.000665 0.859000
-0.004138 -0.015393 0.893000
0.041231 -0.013970 0.873000
0.047783 -0.011032 0.868000
0.029245 -0.030394 0.891000
-0.010754 -0.010247 0.893000
0.018243 -0.017559 0.891000
-0.004138 -0.013187 0.893000
0.003581 -0.015025 0.893000
0.012696 -0.000668 0.863000
0.026073 0.018427 0.859000
-0.000805 0.002894 0.866000
0.023797 -0.022744 0.893000
-0.013832 0.020124 0.856000
0.036369 -0.004205 0.860000
-0.039203 -0.017134 0.888000
-0.032989 0.002968 0.888000
-0.008163 -0.019759 0.891000
-0.011777 -0.026607 0.887000
-0.029867 -0.009144 0.893000
-0.016158 -0.002877 0.887000
-0.001900 -0.005377 0.878000
0.024164 0.008126 0.854000
0.021568 -0.020515 0.892000
-0.013832 0.021181 0.856000
0.047610 -0.016941 0.878000
0.029609 -0.001018 0.859000
0.024788 -0.034350 0.889000
-0.026683 0.007589 0.873000
0.036200 -0.012173 0.873000
-0.003395 -0.009857 0.891000
-0.038969 -0.010591 0.891000
0.034872 0.011343 0.858000
-0.031132 0.027555 0.857000
0.021224 -0.020538 0.893000
0.009462 -0.017965 0.893000
-0.005741 0.020171 0.858000
0.029445 -0.017825 0.886000
0.033420 0.008508 0.857000
0.033183 -0.002789 0.860000
-0.011923 0.002552 0.871000
0.020866 -0.000668 0.863000
0.024398 -0.012561 0.875000
0.011576 -0.011990 0.886000
-0.037892 0.007676 0.883000
-0.021206 0.022564 0.855000
0.005754 -0.030657 0.888000
-0.006343 -0.012452 0.893000
-0.029334 -0.019327 0.888000
0.031848 -0.024554 0.892000
-0.040572 -0.003267 0.894000
-0.007446 -0.013923 0.893000
-0.015793 -0.025511 0.887000
-0.007533 0.007484 0.861000
0.008191 -0.001397 0.875000
0.032121 0.017740 0.860000
0.031812 -0.030027 0.891000
-0.016140 -0.026941 0.886000
-0.020904 -0.024051 0.887000
0.009830 -0.017598 0.893000
0.009866 -0.000669 0.864000
-0.047083 -0.017481 0.906000
-0.027111 0.001504 0.887000
0.001712 -0.006454 0.877000
-0.021341 -0.002520 0.890000
0.027473 -0.025684 0.893000
-0.047288 0.015290 0.882000
-0.017420 0.002931 0.877000
0.010565 -0.019436 0.893000
-0.042174 0.005532 0.889000
-0.031067 0.014639 0.865000
-0.031096 0.025761 0.856000
-0.034111 0.014366 0.870000
0.019599 -0.037152 0.886000
-0.008547 0.019067 0.856000
0.019969 0.010599 0.855000
0.021123 0.002164 0.859000
-0.003627 0.008174 0.859000
0.017142 -0.025993 0.891000
-0.037333 -0.018940 0.887000
0.032943 -0.016655 0.882000
-0.015097 -0.022276 0.889000
0.014145 -0.033543 0.887000
0.011393 -0.006776 0.872000
-0.010368 0.008547 0.861000
-0.029219 0.014606 0.863000
-0.013694 -0.013187 0.893000
-0.024326 -0.003260 0.892000
0.002099 -0.029195 0.888000
-0.041795 0.010559 0.881000
-0.000094 -0.021592 0.891000
0.028911 -0.027858 0.892000
0.030712 -0.021959 0.891000
0.040923 -0.002079 0.859000
-0.032222 -0.020400 0.887000
-0.020670 0.014589 0.862000
-0.023539 -0.017173 0.890000
0.008294 -0.033870 0.886000
-0.012775 0.019067 0.856000
-0.017618 -0.024781 0.887000
0.005683 -0.006815 0.877000
0.005553 0.012388 0.857000
0.030879 0.004617 0.855000
-0.012509 0.009977 0.862000
-0.001556 -0.008362 0.888000
0.001328 0.003590 0.862000
0.004307 -0.023059 0.891000
0.022644 -0.018659 0.891000
0.003210 -0.021250 0.892000
-0.041966 0.012677 0.877000
0.025886 -0.033984 0.889000
0.010174 0.003228 0.860000
0.028781 -0.035774 0.888000
-0.016983 -0.005463 0.892000
-0.022390 -0.021520 0.888000
0.029187 0.012035 0.857000
-0.023752 0.018406 0.858000
0.036723 0.009245 0.860000
0.039118 -0.008512 0.866000
-0.021293 0.007948 0.873000
-0.014536 0.021181 0.856000
-0.030534 0.000044 0.891000
-0.036851 -0.005469 0.893000
0.020649 0.008478 0.854000
0.006120 -0.030657 0.888000
0.043448 -0.003497 0.860000
-0.041536 0.004078 0.891000
0.026377 -0.009614 0.869000
-0.028429 -0.004003 0.894000
-0.009180 -0.005044 0.883000
-0.014553 0.016620 0.857000
0.029153 0.008850 0.856000
-0.036593 0.022722 0.861000
-0.014906 0.016620 0.857000
0.046460 -0.012848 0.870000
-0.014740 0.006116 0.868000
0.012313 0.002523 0.861000
0.018561 0.006728 0.855000
0.007565 -0.034964 0.886000
0.044873 -0.011019 0.867000
0.045647 -0.016163 0.875000
-0.038689 -0.005469 0.893000
-0.015544 0.002558 0.873000
0.031267 0.008850 0.856000
0.001320 0.014857 0.857000
0.027744 0.010612 0.856000
-0.040940 -0.001428 0.894000
0.035225 0.009930 0.858000
0.029609 0.015599 0.859000
-0.033212 -0.002899 0.894000
0.014461 -0.011235 0.884000
0.034719 -0.016999 0.881000
0.033459 -0.001370 0.858000
0.031304 -0.019305 0.887000
-0.014740 0.005759 0.868000
0.029474 -0.014018 0.876000
0.003199 -0.026301 0.889000
0.028868 0.014168 0.858000
-0.011718 0.021533 0.856000
0.011766 -0.007143 0.873000
-0.016298 0.018010 0.856000
0.015588 -0.013449 0.886000
0.035578 0.009930 0.858000
-0.017312 -0.018638 0.890000
0.033042 -0.012561 0.875000
0.006147 -0.013907 0.892000
-0.016907 -0.002880 0.888000
-0.024638 -0.001788 0.890000
-0.010212 -0.002486 0.878000
0.011563 0.006752 0.858000
-0.012959 -0.013187 0.893000
-0.017022 0.017326 0.857000
-0.005576 -0.025906 0.888000
-0.024105 0.018759 0.858000
-0.021835 0.012874 0.866000
0.025304 -0.008541 0.869000
0.014372 0.008155 0.857000
-0.024666 -0.013158 0.891000
-0.037744 0.023130 0.863000
0.041997 -0.015065 0.874000
-0.041582 -0.007299 0.892000
0.035702 0.017761 0.861000
-0.010718 -0.021202 0.890000
-0.042761 0.027758 0.886000
-0.044836 -0.008757 0.891000
-0.035613 0.019223 0.863000
-0.020975 -0.016440 0.890000
-0.023863 0.007606 0.875000
-0.008172 -0.016110 0.892000
0.001679 0.004644 0.860000
-0.021608 0.018031 0.857000
-0.032036 -0.009501 0.892000
-0.023699 0.011131 0.869000
0.018997 -0.018680 0.892000
-0.008501 -0.025175 0.888000
-0.032896 0.024028 0.857000
-0.035508 -0.019670 0.887000
-0.030533 0.029067 0.860000
-0.003028 -0.009491 0.891000
0.010163 -0.026330 0.890000
-0.014267 0.013154 0.861000
-0.026931 0.019465 0.858000
-0.011684 -0.003578 0.880000
-0.018125 -0.009155 0.894000
-0.012408 -0.002854 0.880000
0.009091 0.012049 0.858000
0.009033 -0.033543 0.887000
0.016604 0.000753 0.863000
0.027744 0.011669 0.856000
-0.037909 0.012648 0.875000
0.021935 -0.025288 0.892000
0.017506 0.010599 0.855000
-0.019100 -0.002149 0.888000
-0.032222 -0.021495 0.887000
-0.030959 0.018137 0.862000
0.005201 0.012035 0.857000
0.032681 -0.012561 0.875000
0.026468 -0.015965 0.884000
-0.023315 0.011475 0.868000
0.016508 0.004280 0.858000
-0.010682 -0.026972 0.887000
0.021000 0.008829 0.854000
0.002132 -0.035224 0.902000
0.046112 -0.017283 0.877000
0.046388 -0.001022 0.862000
-0.022499 0.005464 0.878000
-0.037052 0.003703 0.889000
-0.017638 -0.021885 0.888000
0.009091 0.007105 0.858000
-0.008520 -0.021934 0.890000
-0.028948 0.023972 0.855000
-0.036524 -0.000692 0.894000
-0.005047 0.007476 0.860000
-0.019079 -0.024416 0.887000
-0.021149 0.002585 0.882000
0.014225 -0.022718 0.892000
-0.014030 -0.016458 0.891000
0.031113 -0.027491 0.892000
0.016813 -0.020906 0.893000
0.052490 0.000403 0.875000
-0.038544 0.022828 0.865000
-0.042349 0.007693 0.885000
-0.041510 0.017690 0.875000
0.025750 -0.000311 0.860000
0.002384 0.008174 0.859000
-0.035711 0.006949 0.883000
-0.026351 0.001867 0.886000
0.028878 -0.030394 0.891000
0.008028 -0.036875 0.897000
0.022302 -0.025288 0.892000
-0.023669 0.021860 0.855000
-0.047556 0.009171 0.887000
0.029471 0.007432 0.855000
-0.036108 0.011928 0.875000
0.007573 -0.011273 0.887000
-0.028277 0.022238 0.856000
0.036057 0.017407 0.861000
-0.025399 -0.014991 0.891000
0.028801 0.009202 0.856000
-0.020927 0.017699 0.858000
-0.037333 -0.020400 0.887000
-0.036870 0.011581 0.876000
-0.033680 0.021962 0.859000
0.019710 -0.017925 0.891000
-0.026516 0.027875 0.856000
-0.005382 0.018384 0.857000
-0.003032 -0.018680 0.892000
0.001371 -0.024132 0.890000
0.036411 0.018115 0.861000
0.045625 -0.004210 0.861000
-0.027904 -0.016787 0.889000
0.031481 -0.028959 0.892000
0.033532 -0.020789 0.888000
0.020857 -0.022744 0.893000
-0.039886 0.017250 0.871000
-0.028023 0.019488 0.859000
-0.006102 0.009942 0.859000
-0.046872 0.017086 0.881000
0.001677 0.008881 0.859000
-0.030762 -0.022591 0.887000
-0.017497 0.013185 0.863000
-0.034268 0.011554 0.874000
0.030634 -0.001017 0.858000
0.028880 -0.010687 0.869000
-0.032072 -0.008409 0.893000
-0.024013 -0.005475 0.894000
0.028651 -0.016329 0.884000
0.008891 -0.006424 0.873000
-0.013282 -0.020836 0.890000
0.012375 -0.025993 0.891000
-0.037460 -0.013143 0.890000
-0.037868 -0.010591 0.891000
0.007368 0.000753 0.863000
0.041949 -0.013970 0.873000
-0.035707 0.012274 0.874000
-0.014429 -0.013187 0.893000
0.037120 0.017407 0.861000
-0.032222 -0.020035 0.887000
0.049080 -0.011801 0.872000
0.028543 -0.021984 0.892000
-0.011854 0.005389 0.866000
0.026624 0.007072 0.854000
0.022034 -0.003526 0.867000
-0.048177 0.013157 0.885000
-0.040743 0.015871 0.874000
0.006835 -0.035328 0.886000
0.008032 0.014168 0.858000
-0.022440 -0.002520 0.890000
0.019594 0.008478 0.854000
-0.048830 0.015919 0.897000
-0.042445 -0.018210 0.887000
0.021224 -0.024214 0.893000
-0.017273 -0.002880 0.888000
0.052490 0.000763 0.875000
-0.029693 0.004736 0.877000
-0.034817 -0.017865 0.888000
-0.031641 0.009722 0.871000
-0.040299 0.010547 0.880000
-0.015593 0.021533 0.856000
-0.014859 0.000763 0.875000
-0.002217 0.005358 0.861000
-0.044004 -0.011665 0.889000
-0.028343 0.019818 0.858000
-0.021801 0.004385 0.879000
-0.011257 -0.000317 0.875000
0.029877 -0.036505 0.888000
-0.015927 0.019749 0.855000
-0.007421 -0.022301 0.890000
-0.019924 0.005812 0.876000
0.010932 -0.017965 0.893000
-0.038515 -0.013860 0.889000
-0.010014 0.010674 0.861000
0.038756 -0.001723 0.858000
-0.010305 -0.028400 0.886000
0.041638 -0.015065 0.874000
0.014725 0.011330 0.857000
-0.024272 -0.015707 0.890000
-0.036644 0.003699 0.888000
0.042081 -0.006691 0.861000
-0.031669 -0.000690 0.892000
0.008350 -0.036669 0.892000
-0.027662 -0.003631 0.893000
0.010663 -0.005334 0.871000
0.015857 0.012446 0.861000
-0.016020 0.014555 0.860000
0.004876 0.001816 0.862000
0.039110 0.000396 0.858000
0.010316 -0.006058 0.872000
0.011590 0.003228 0.860000
-0.040837 0.013383 0.876000
0.003441 0.009577 0.858000
0.022327 -0.021273 0.893000
0.015464 -0.009001 0.879000
0.020099 -0.025655 0.892000
-0.006832 0.006429 0.862000
-0.011498 0.005033 0.866000
-0.034778 -0.020035 0.887000
-0.009968 0.014151 0.857000
0.029305 -0.011429 0.871000
-0.006343 -0.014658 0.893000
-0.034945 0.007304 0.882000
-0.021317 -0.020446 0.889000
-0.008940 0.009245 0.860000
-0.028630 0.022238 0.856000
-0.034529 0.002242 0.890000
-0.045152 -0.010579 0.890000
-0.008153 -0.022301 0.890000
-0.034741 0.026912 0.859000
-0.015114 -0.018271 0.890000
-0.024976 -0.018983 0.889000
-0.036686 -0.014226 0.889000
0.013810 -0.002809 0.866000
-0.018840 -0.010982 0.893000
-0.020238 0.006878 0.874000
0.002101 -0.026301 0.889000
-0.038544 0.022472 0.865000
-0.031302 -0.000323 0.892000
0.029426 -0.007781 0.864000
-0.049493 0.011753 0.889000
-0.011731 0.021911 0.857000
0.024896 0.010599 0.855000
-0.028864 0.014250 0.863000
-0.036025 0.013338 0.873000
0.028575 -0.025316 0.893000
-0.045421 0.012009 0.881000
-0.013088 -0.001040 0.877000
-0.026529 -0.002159 0.892000
0.046743 -0.002441 0.862000
0.036308 -0.008165 0.867000
-0.038444 0.010173 0.879000
0.016469 0.010612 0.856000
-0.038143 0.024224 0.864000
-0.018390 0.021508 0.855000
-0.047350 0.006271 0.890000
-0.042540 -0.012762 0.889000
-0.007490 0.015896 0.856000
0.040245 -0.014722 0.875000
-0.027631 -0.002159 0.892000
0.036015 0.013847 0.860000
-0.020854 0.020804 0.855000
0.047974 -0.008502 0.865000
-0.031127 -0.021861 0.887000
-0.022024 -0.020423 0.888000
-0.045473 0.010934 0.882000
0.045625 -0.001729 0.861000
-0.019924 0.005451 0.876000
0.039657 -0.011415 0.870000
0.010857 0.010990 0.858000
-0.044905 0.018835 0.878000
0.014489 -0.000669 0.864000
0.012035 -0.018701 0.893000
0.024164 0.005315 0.854000
-0.019854 -0.020080 0.889000
0.003088 0.015934 0.858000
0.015967 -0.002455 0.867000
0.004224 0.000763 0.874000
-0.023563 0.014623 0.864000
-0.015241 0.017658 0.856000
0.021377 0.012359 0.855000
0.003088 0.009224 0.858000
0.010174 -0.025626 0.891000
0.033381 0.006384 0.856000
0.016280 -0.012327 0.884000
-0.001188 -0.031682 0.886000
0.024056 -0.033253 0.889000
0.021197 0.000043 0.862000
0.002738 0.008881 0.859000
-0.017355 0.017658 0.856000
-0.001932 -0.012820 0.893000
0.016446 -0.021641 0.893000
-0.012197 -0.017192 0.891000
-0.018493 -0.007683 0.894000
-0.021231 0.019067 0.856000
-0.028596 0.023268 0.855000
-0.037188 0.012648 0.875000
-0.024299 -0.002156 0.891000
0.016802 0.009192 0.855000
-0.037389 0.021710 0.863000
-0.003265 0.013799 0.857000
0.035075 -0.005285 0.863000
-0.031132 0.021559 0.857000
0.003553 -0.033140 0.886000
-0.004119 -0.024837 0.889000
-0.033580 -0.004739 0.894000
0.010932 -0.020171 0.893000
0.011210 0.010636 0.858000
-0.013312 -0.007299 0.892000
-0.019553 -0.014641 0.892000
-0.032098 0.017112 0.864000
0.025307 0.014857 0.857000
0.034086 0.001099 0.856000
0.001679 0.006060 0.860000
0.009441 -0.025260 0.891000
0.018561 0.009544 0.855000
-0.032942 0.007262 0.877000
0.011668 -0.021273 0.893000
0.034668 -0.021544 0.889000
-0.028142 0.002958 0.885000
-0.009974 -0.023373 0.889000
-0.040249 -0.020216 0.895000
0.024760 -0.017499 0.888000
0.024544 0.010599 0.855000
0.001679 0.005352 0.860000
-0.010718 -0.019737 0.890000
-0.001196 -0.018680 0.892000
-0.032476 -0.002164 0.894000
-0.028414 0.008647 0.871000
0.002106 -0.011324 0.891000
-0.022268 0.011131 0.869000
-0.030762 -0.021495 0.887000
0.024896 0.004617 0.855000
0.006259 0.009919 0.857000
-0.024021 0.025379 0.855000
0.008717 -0.021984 0.892000
-0.007770 -0.024809 0.888000
-0.036361 0.002608 0.890000
-0.033792 0.013307 0.871000
0.031998 -0.018919 0.886000
-0.045782 0.006988 0.888000
0.007257 -0.020538 0.893000
-0.033126 0.018868 0.863000
-0.021707 -0.016440 0.890000
-0.022613 0.023620 0.855000
-0.010030 -0.012466 0.894000
0.009452 -0.015375 0.892000
-0.003966 0.015544 0.856000
-0.026082 0.011791 0.865000
-0.001572 -0.033552 0.897000
0.028448 0.001099 0.856000
0.021861 -0.017153 0.889000
0.005419 -0.016863 0.893000
0.001322 0.010283 0.858000
0.013407 0.000043 0.863000
-0.017181 0.011791 0.865000
-0.011437 -0.022276 0.889000
-0.046555 -0.017795 0.903000
-0.011489 -0.010247 0.893000
0.013857 -0.022718 0.892000
0.032638 0.001802 0.855000
0.005780 -0.014274 0.892000
-0.016158 -0.025876 0.887000
-0.029499 -0.008777 0.893000
-0.012959 -0.013555 0.893000
-0.021785 0.014267 0.864000
0.018997 -0.024554 0.892000
0.037534 -0.016598 0.879000
0.019400 -0.008981 0.877000
-0.038925 -0.012411 0.890000
-0.043821 0.018835 0.878000
0.020716 -0.036829 0.887000
0.033849 -0.008531 0.868000
-0.037586 -0.005837 0.893000
0.047972 -0.016580 0.878000
0.037422 -0.009603 0.868000
0.007317 0.010977 0.857000
-0.037744 0.024906 0.863000
0.021543 -0.028927 0.891000
-0.020632 -0.015725 0.891000
-0.019203 0.005451 0.876000
-0.010429 0.005033 0.866000
0.037077 -0.004205 0.860000
0.018004 0.001462 0.862000
0.041872 -0.008492 0.864000
-0.025456 -0.004366 0.893000
0.004142 0.012035 0.857000
-0.026485 0.025731 0.855000
0.046388 -0.002086 0.862000
0.038006 0.004980 0.857000
-0.037486 0.008030 0.882000
-0.046096 -0.015289 0.887000
-0.046615 0.011673 0.883000
0.024774 -0.002089 0.863000
0.032676 0.000042 0.856000
-0.009640 -0.016844 0.892000
0.019617 0.011655 0.855000
0.003437 0.012388 0.857000
-0.047663 0.007728 0.889000
0.029221 0.000042 0.858000
0.028063 0.003561 0.855000
0.023010 -0.027827 0.891000
0.049855 -0.010018 0.873000
-0.012126 0.013139 0.860000
0.048629 -0.004936 0.864000
0.023664 -0.035043 0.888000
-0.030635 0.007589 0.873000
0.028911 -0.028959 0.892000
0.026936 -0.004936 0.864000
-0.017000 0.004360 0.874000
0.014494 -0.036787 0.886000
0.000263 0.008881 0.859000
-0.008126 -0.026972 0.887000
0.001323 0.008881 0.859000
0.027519 0.019864 0.860000
0.016117 0.009907 0.856000
-0.003618 0.013446 0.857000
-0.039613 -0.014226 0.889000
0.018359 -0.009725 0.879000
-0.032453 0.017823 0.864000
0.027292 -0.007069 0.864000
-0.039056 -0.005837 0.893000
0.023036 -0.019781 0.892000
0.041018 -0.005982 0.861000
0.028195 -0.000665 0.859000
0.030471 -0.017421 0.884000
-0.043821 0.012691 0.878000
0.027319 -0.036139 0.888000
0.020297 0.009884 0.854000
-0.024985 0.013911 0.864000
-0.021437 -0.009155 0.894000
0.017836 -0.016056 0.889000
-0.016039 0.013863 0.861000
0.038224 -0.011057 0.870000
0.039201 -0.004913 0.860000
-0.015900 -0.013555 0.893000
0.038937 -0.006344 0.862000
0.021224 -0.021273 0.893000
0.037724 -0.014362 0.875000
-0.022049 -0.018983 0.889000
-0.010380 0.007493 0.862000
-0.029532 -0.003267 0.894000
0.031059 0.018448 0.860000
-0.006109 0.008538 0.860000
-0.030727 0.002961 0.886000
0.005407 -0.024159 0.891000
-0.019444 -0.023321 0.887000
-0.043000 0.016268 0.876000
0.030781 -0.024949 0.893000
-0.029368 0.021206 0.857000
0.025660 0.013799 0.857000
0.008512 -0.004976 0.871000
-0.021826 0.004028 0.880000
0.016305 -0.002096 0.866000
-0.015312 0.014201 0.860000
-0.028277 0.027523 0.856000
0.015218 -0.001025 0.865000
-0.006329 -0.020492 0.891000
-0.026377 0.015316 0.863000
0.044562 -0.005982 0.861000
-0.019488 -0.002517 0.889000
-0.001554 -0.030257 0.887000
-0.029532 -0.006579 0.894000
0.031339 -0.020058 0.888000
-0.000445 0.005352 0.860000
-0.045836 0.011660 0.882000
-0.015921 0.002561 0.874000
-0.034346 0.010499 0.876000
-0.017312 -0.019370 0.890000
0.006866 -0.012777 0.890000
0.034245 -0.003497 0.860000
-0.020242 -0.017539 0.890000
-0.034150 0.013666 0.871000
-0.027316 0.019134 0.859000
-0.011671 -0.002851 0.879000
-0.036593 0.024140 0.861000
0.022081 0.010599 0.855000
-0.017618 -0.025876 0.887000
-0.023618 -0.004734 0.893000
0.016796 -0.005706 0.873000
-0.035829 0.010872 0.877000
-0.011856 -0.008777 0.893000
0.020489 -0.021641 0.893000
0.020673 0.004617 0.855000
-0.009604 0.017658 0.856000
0.034046 0.005321 0.855000
0.033970 0.020620 0.862000
0.042741 0.000396 0.860000
-0.011591 0.000762 0.873000
-0.029334 0.027170 0.856000
-0.027569 -0.015341 0.890000
-0.018756 -0.020446 0.889000
-0.043410 0.014843 0.877000
0.023515 -0.005680 0.869000
0.030311 -0.032191 0.890000
-0.023566 -0.013891 0.891000
0.010908 -0.023793 0.891000
0.040569 -0.001725 0.859000
-0.040573 0.006608 0.886000
0.022055 0.008478 0.854000
0.022127 -0.040024 0.885000
0.032324 0.000042 0.856000
-0.026377 0.015671 0.863000
-0.050846 0.008935 0.900000
0.018997 -0.018312 0.892000
0.047088 -0.015443 0.875000
0.004297 -0.026667 0.889000
0.043802 -0.003497 0.860000
0.006781 -0.006107 0.879000
0.028575 -0.024581 0.893000
-0.018125 -0.008051 0.894000
-0.040938 0.006608 0.886000
-0.029099 -0.010603 0.892000
-0.032543 0.023322 0.857000
0.017896 -0.024187 0.892000
0.016700 -0.014194 0.887000
-0.009327 0.006791 0.863000
-0.042269 0.004078 0.891000
0.006619 0.008518 0.858000
0.022905 -0.008221 0.873000
-0.005287 -0.032589 0.901000
0.019243 0.008478 0.854000
-0.040526 -0.005469 0.893000
-0.003025 -0.009114 0.890000
-0.016635 -0.012085 0.893000
-0.019401 -0.027799 0.902000
0.033891 0.017033 0.860000
-0.009951 -0.028067 0.887000
-0.033601 0.024380 0.857000
0.010565 -0.020906 0.893000
-0.033598 0.017151 0.866000
-0.041667 0.027758 0.886000
0.021377 0.012711 0.855000
-0.022345 0.009374 0.872000
-0.029721 0.021206 0.857000
-0.019898 -0.003990 0.891000
-0.013327 -0.012085 0.893000
0.029868 -0.014395 0.877000
0.023246 -0.015637 0.886000
0.010712 -0.007880 0.875000
-0.001928 -0.020492 0.891000
0.036057 -0.004564 0.861000
-0.026652 0.008298 0.872000
-0.009873 -0.003941 0.880000
-0.008144 -0.024105 0.889000
0.017411 -0.036787 0.886000
0.047339 -0.014329 0.873000
0.031348 -0.009603 0.868000
0.032582 -0.023085 0.892000
-0.026255 0.018427 0.859000
0.006266 0.009224 0.858000
-0.025811 0.027523 0.856000
-0.045732 0.019240 0.880000
0.024844 -0.030027 0.891000
-0.048596 0.013172 0.886000
0.022784 0.004617 0.855000
-0.014698 -0.026607 0.887000
0.037474 0.015989 0.861000
-0.002264 -0.006469 0.879000
-0.024402 0.020124 0.856000
0.008219 -0.009352 0.878000
-0.009252 -0.021934 0.890000
-0.025341 0.012845 0.864000
-0.041261 -0.005101 0.893000
0.003565 -0.026301 0.889000
-0.017350 -0.005830 0.892000
-0.034607 -0.009868 0.892000
0.002833 -0.026667 0.889000
0.023136 0.012007 0.855000
0.029471 0.002154 0.855000
0.037022 -0.008878 0.867000
0.026365 0.013093 0.857000
0.010151 0.010990 0.858000
0.004652 -0.032083 0.887000
0.000616 0.008881 0.859000
-0.034607 -0.009134 0.892000
0.032363 -0.018919 0.886000
-0.024306 0.005825 0.878000
-0.000094 -0.016128 0.893000
-0.001930 -0.019414 0.892000
0.041420 -0.016922 0.877000
0.020436 -0.008240 0.875000
0.007679 0.013815 0.858000
-0.037978 0.028091 0.885000
0.041277 -0.002432 0.859000
0.017431 -0.034638 0.887000
-0.022992 0.026114 0.856000
0.034484 -0.007442 0.866000
0.002830 -0.028464 0.888000
0.024002 -0.041574 0.887000
-0.031931 0.005108 0.879000
-0.013495 0.015915 0.857000
0.015343 -0.021641 0.893000
-0.010356 0.011369 0.860000
0.019234 -0.038975 0.886000
-0.010305 -0.029494 0.886000
-0.014316 0.010000 0.864000
0.031776 -0.021202 0.890000
-0.027252 0.020500 0.857000
-0.018390 -0.020446 0.889000
0.017529 -0.026756 0.892000
0.015623 -0.014210 0.888000
-0.009940 -0.005061 0.886000
-0.009951 -0.026607 0.887000
-0.009159 -0.004670 0.881000
0.019594 0.008126 0.854000
-0.019597 -0.008787 0.894000
-0.042301 0.008776 0.884000
0.025366 0.018073 0.859000
0.023264 -0.008221 0.873000
0.027260 -0.003509 0.863000
-0.034229 0.012619 0.873000
0.018997 -0.026022 0.892000
0.008649 -0.010520 0.885000
0.025982 0.002156 0.856000
0.013764 -0.036422 0.886000
-0.009991 0.012417 0.859000
-0.047776 0.018894 0.898000
0.011903 0.008508 0.857000
0.033530 -0.009256 0.869000
-0.003627 0.007820 0.859000
-0.043175 0.027789 0.887000
0.000615 0.012035 0.857000
0.029678 -0.026786 0.893000
-0.002913 0.012388 0.857000
-0.026746 -0.022956 0.887000
0.006619 0.014168 0.858000
0.042717 -0.015065 0.874000
0.016821 0.007441 0.856000
-0.018125 -0.008419 0.894000
0.022152 -0.039340 0.886000
0.017018 -0.001383 0.866000
-0.034778 -0.018940 0.887000
-0.041629 -0.005469 0.893000
0.025690 0.017346 0.858000
-0.038082 0.010173 0.879000
-0.005240 -0.012820 0.893000
0.014742 0.004986 0.858000
0.023237 -0.007853 0.872000
0.044719 -0.018025 0.878000
0.025463 -0.037924 0.887000
0.031062 -0.010699 0.870000
0.035619 0.013477 0.859000
0.021615 -0.011172 0.879000
0.028050 -0.035408 0.888000
0.027513 -0.011787 0.871000
0.011262 -0.026330 0.890000
0.027871 -0.011429 0.871000
-0.026191 -0.010247 0.893000
0.031582 0.005321 0.855000
-0.014797 -0.008409 0.893000
-0.038794 0.005520 0.887000
0.011628 -0.027063 0.890000
-0.022288 0.019420 0.856000
0.024705 -0.040069 0.886000
-0.021900 0.002224 0.883000
0.020076 -0.017925 0.891000
-0.033548 0.011195 0.874000
0.019267 -0.004976 0.871000
-0.046513 -0.014941 0.888000
0.022881 -0.038975 0.886000
-0.005962 -0.019025 0.891000
-0.001190 -0.028464 0.888000
-0.008846 -0.029858 0.886000
-0.023618 -0.004366 0.893000
0.023010 -0.019025 0.891000
0.002843 -0.020515 0.892000
0.024002 -0.037924 0.887000
-0.006455 0.009588 0.859000
0.019488 -0.011197 0.881000
0.046743 -0.005989 0.862000
-0.038429 -0.020035 0.887000
-0.022601 0.002948 0.882000
0.023010 -0.019392 0.891000
-0.003985 0.007122 0.860000
0.035578 0.010636 0.858000
0.023371 -0.011868 0.877000
0.021932 -0.001023 0.863000
-0.000094 -0.027367 0.888000
0.027744 0.009907 0.856000
0.023298 -0.035774 0.888000
-0.035222 0.002971 0.889000
-0.004068 -0.003932 0.878000
0.024730 -0.011828 0.874000
-0.008626 0.005732 0.864000
-0.040370 -0.020837 0.906000
0.010626 -0.003887 0.868000
-0.003614 0.014839 0.856000
-0.000094 -0.011337 0.892000
-0.033682 0.003329 0.887000
0.015148 0.012446 0.861000
-0.037076 0.019957 0.864000
-0.035590 0.008374 0.880000
0.027747 -0.020103 0.890000
0.021060 -0.005334 0.871000
-0.044736 0.024559 0.889000
0.032034 -0.013673 0.877000
-0.037788 0.021735 0.864000
-0.033606 0.005143 0.885000
0.032326 -0.018533 0.885000
-0.015463 -0.003981 0.889000
-0.012422 0.019067 0.856000
0.033576 -0.003501 0.861000
-0.024864 0.001501 0.885000
-0.035748 0.000044 0.893000
0.033342 0.002857 0.855000
-0.019488 -0.020080 0.889000
0.002104 -0.024499 0.890000
0.000968 0.013799 0.857000
0.041136 -0.012504 0.871000
-0.023121 -0.001053 0.888000
-0.014429 -0.012085 0.893000
-0.046509 0.013097 0.881000
-0.012879 0.010343 0.863000
0.036242 0.007802 0.857000
0.007732 0.000043 0.864000
0.017431 -0.035003 0.887000
-0.020219 -0.019349 0.889000
-0.023153 0.016008 0.862000
-0.019844 0.025791 0.857000
0.005395 -0.027764 0.889000
0.016795 -0.023819 0.892000
-0.025605 0.008307 0.873000
0.047863 -0.003509 0.863000
-0.027538 0.011449 0.866000
0.035661 0.014555 0.860000
-0.000460 -0.025935 0.889000
-0.030762 -0.021130 0.887000
-0.014429 -0.011717 0.893000
0.015520 0.001462 0.862000
-0.001917 -0.031682 0.886000
0.040758 -0.007416 0.863000
-0.041443 -0.013128 0.889000
-0.006080 0.016953 0.856000
-0.011450 -0.021202 0.890000
-0.020976 0.015971 0.860000
-0.009262 0.014151 0.857000
-0.045416 -0.014576 0.888000
0.040923 -0.000311 0.859000
-0.014797 -0.013923 0.893000
-0.029721 0.028260 0.857000
-0.015532 -0.011350 0.893000
-0.023317 0.021860 0.855000
-0.035388 0.005865 0.884000
0.005761 -0.027032 0.889000
0.043701 -0.009570 0.865000
-0.012422 0.017658 0.856000
-0.029574 0.015671 0.863000
-0.008846 -0.005426 0.886000
0.015988 -0.014576 0.888000
-0.005902 -0.006128 0.882000
0.020009 -0.034677 0.888000
0.029471 0.008136 0.855000
-0.018885 0.003657 0.878000
-0.036948 0.023431 0.861000
0.000272 -0.021592 0.891000
-0.011142 0.005033 0.866000
0.016354 -0.014576 0.888000
0.036936 -0.007434 0.865000
0.031852 -0.011083 0.872000
-0.015917 -0.009155 0.894000
-0.008126 -0.028797 0.887000
0.005207 0.015227 0.858000
0.023924 0.001808 0.858000
0.002099 -0.009824 0.888000
0.050979 -0.009011 0.880000
0.002026 0.010977 0.857000
0.009444 0.011696 0.858000
0.020297 0.006721 0.854000
-0.044420 -0.011312 0.890000
-0.037093 -0.012777 0.890000
0.005560 0.008165 0.858000
-0.010368 0.009256 0.861000
-0.021781 -0.010615 0.893000
0.011211 -0.034964 0.886000
0.004506 0.007467 0.859000
-0.018777 -0.017173 0.890000
0.021422 -0.037881 0.886000
-0.022049 -0.020080 0.889000
-0.042375 0.012330 0.878000
0.010494 -0.033908 0.887000
0.009798 0.008518 0.858000
-0.029368 0.028613 0.857000
0.031340 0.013462 0.858000
0.002075 -0.007184 0.878000
-0.045732 0.013082 0.880000
0.023786 -0.013342 0.879000
-0.028764 -0.009144 0.893000
-0.019798 0.020804 0.855000
0.028482 0.000748 0.857000
0.012255 0.008155 0.857000
0.007241 -0.024526 0.891000
0.015664 -0.004254 0.870000
0.009798 0.008871 0.858000
0.007607 -0.023426 0.891000
0.014925 -0.038785 0.890000
-0.030391 0.022590 0.856000
0.009588 -0.005334 0.871000
-0.016598 -0.016458 0.891000
-0.004334 0.010295 0.859000
-0.036361 -0.013143 0.890000
0.022466 -0.014146 0.884000
-0.022613 0.025731 0.855000
0.011328 -0.003526 0.867000
-0.026133 0.025379 0.855000
0.040923 0.000396 0.859000
0.043077 -0.015065 0.874000
-0.046355 0.005551 0.892000
-0.012169 0.007857 0.863000
-0.032885 0.016439 0.866000
-0.034778 -0.020765 0.887000
-0.007516 0.011710 0.859000
0.028911 -0.023452 0.892000
-0.031132 0.022264 0.857000
-0.037177 0.001880 0.892000
0.026286 -0.007086 0.866000
0.036623 -0.007799 0.866000
-0.030744 0.023295 0.856000
0.012756 -0.023085 0.892000
0.035122 -0.011814 0.873000
0.009798 0.009577 0.858000
-0.007869 0.012063 0.859000
-0.023199 -0.013891 0.891000
-0.014536 0.020476 0.856000
-0.015964 0.016268 0.857000
-0.020174 0.024352 0.856000
0.011668 -0.017230 0.893000
0.051770 0.001124 0.875000
-0.042858 0.006257 0.888000
0.002099 -0.027733 0.888000
0.006500 -0.012411 0.890000
0.023681 -0.000667 0.862000
-0.035094 0.024791 0.859000
0.024010 -0.010389 0.874000
0.020321 0.006025 0.855000
-0.008596 0.008547 0.861000
-0.028365 -0.010970 0.892000
0.042682 -0.010294 0.866000
0.017027 -0.013069 0.885000
-0.009651 -0.009512 0.893000
0.030812 -0.004575 0.863000
0.023136 0.010247 0.855000
0.014942 -0.026726 0.891000
0.028548 0.016306 0.859000
-0.025781 0.021508 0.855000
0.016475 -0.006799 0.875000
-0.025314 -0.021520 0.888000
0.006266 0.014521 0.858000
-0.014184 0.022238 0.856000
0.029085 0.004612 0.854000
-0.032072 -0.006939 0.893000
-0.037549 0.012288 0.875000
0.023900 0.017231 0.870000
-0.022965 0.022212 0.855000
-0.035530 0.021305 0.861000
0.039660 -0.016941 0.878000
-0.032358 0.011515 0.871000
0.033167 -0.020789 0.888000
-0.015306 -0.001043 0.880000
0.032513 -0.003147 0.861000
0.018605 0.003922 0.857000
0.001373 -0.023059 0.891000
-0.000459 -0.030257 0.887000
0.036015 -0.004205 0.860000
-0.032896 0.026497 0.857000
-0.040024 0.015152 0.874000
0.051710 -0.000317 0.874000
0.028479 -0.031458 0.890000
0.011211 -0.037152 0.886000
-0.029745 0.010403 0.868000
-0.005029 0.018031 0.857000
-0.045834 -0.011665 0.889000
-0.004119 -0.025203 0.889000
0.018231 0.012373 0.856000
0.028162 0.000042 0.858000
0.022406 0.007775 0.854000
-0.012789 0.022617 0.857000
0.028063 0.003913 0.855000
-0.017002 -0.011350 0.893000
0.030915 0.009202 0.856000
0.022227 -0.032155 0.889000
0.006843 -0.032448 0.887000
-0.006433 0.017306 0.856000
-0.007446 -0.012820 0.893000
0.025543 -0.004942 0.865000
-0.019876 -0.017539 0.890000
-0.034425 0.009078 0.878000
0.025507 -0.014018 0.876000
0.003449 0.005706 0.860000
-0.028897 0.013200 0.864000
0.028383 -0.040479 0.887000
0.019135 -0.001381 0.865000
-0.036238 -0.018575 0.887000
0.025069 -0.039340 0.886000
-0.036976 0.015440 0.870000
0.005940 0.001816 0.862000
0.023637 -0.037194 0.887000
-0.023932 -0.015358 0.891000
0.022212 -0.008230 0.874000
-0.012521 -0.024809 0.888000
-0.032514 0.004415 0.885000
-0.032989 -0.018230 0.888000
-0.025285 -0.022956 0.887000
0.011224 -0.034273 0.887000
0.017858 0.008136 0.855000
0.026273 0.004963 0.854000
-0.000455 -0.006830 0.879000
-0.013967 -0.025511 0.887000
-0.004867 -0.017578 0.892000
0.010163 0.005346 0.859000
-0.019821 0.025057 0.856000
0.014608 -0.018333 0.893000
0.028003 -0.007425 0.864000
-0.036385 0.013697 0.873000
-0.033212 -0.004739 0.894000
0.010504 0.008871 0.858000
-0.019831 -0.002149 0.888000
0.028878 -0.029660 0.891000
-0.033580 -0.002532 0.894000
-0.009651 -0.014658 0.893000
0.003206 -0.022326 0.891000
-0.012493 -0.028400 0.886000
0.035225 0.010636 0.858000
-0.012239 0.004330 0.868000
0.041325 0.001812 0.860000
0.038985 -0.012146 0.871000
-0.028635 -0.017519 0.889000
0.012711 -0.001735 0.864000
-0.012422 0.021181 0.856000
0.009054 -0.027764 0.889000
0.002090 -0.009052 0.884000
-0.036320 -0.014958 0.889000
-0.030137 0.010058 0.869000
-0.007498 0.014857 0.857000
-0.017720 0.005799 0.874000
-0.016213 -0.017905 0.890000
0.027776 0.001101 0.857000
-0.013832 0.019420 0.856000
-0.036116 -0.000323 0.893000
0.042682 -0.009937 0.866000
0.002384 0.007820 0.859000
0.000970 0.008528 0.859000
0.045339 -0.016542 0.876000
-0.025815 0.010760 0.868000
-0.043051 -0.019047 0.892000
-0.013945 0.011764 0.863000
0.001370 -0.025569 0.889000
0.013309 -0.009374 0.880000
0.014422 0.003582 0.860000
0.009798 0.012402 0.858000
0.010140 -0.030291 0.888000
0.019245 -0.004612 0.870000
-0.013234 0.011054 0.863000
-0.012493 -0.028035 0.886000
0.024786 -0.013657 0.876000
-0.037892 0.007312 0.883000
-0.023879 -0.001054 0.889000
-0.026045 0.000409 0.888000
0.042179 -0.007772 0.863000
0.004972 -0.008639 0.879000
0.009797 -0.025598 0.890000
-0.012535 -0.022276 0.889000
-0.000094 -0.014658 0.893000
-0.023277 -0.006947 0.894000
0.020351 -0.036463 0.887000
0.015676 -0.016092 0.891000
0.025366 0.018427 0.859000
-0.034645 -0.007307 0.893000
-0.020526 0.019772 0.856000
-0.043558 0.022137 0.880000
-0.029301 -0.021861 0.887000
0.039909 -0.005267 0.860000
-0.010694 -0.025540 0.888000
-0.026516 0.028227 0.856000
0.021398 -0.040024 0.885000
-0.039424 -0.004734 0.893000
0.002476 -0.019781 0.892000
0.000273 -0.014658 0.893000
0.024532 -0.024581 0.893000
-0.041510 0.016609 0.875000
0.006522 -0.017230 0.893000
0.002840 -0.012058 0.891000
0.000971 0.006060 0.860000
-0.029437 0.019841 0.859000
-0.030924 0.009005 0.871000
0.007732 -0.000313 0.864000
-0.031212 -0.010698 0.900000
-0.017042 0.015934 0.858000
0.012976 -0.010121 0.882000
-0.006681 0.004801 0.889000
0.020697 0.013078 0.856000
0.029512 -0.037236 0.888000
0.023461 0.008829 0.854000
0.017878 0.004975 0.856000
0.052430 -0.000317 0.874000
-0.032476 -0.003267 0.894000
-0.004867 -0.018680 0.892000
0.003214 -0.016128 0.893000
-0.028872 0.006518 0.874000
-0.031821 0.003690 0.886000
-0.013282 -0.020469 0.890000
-0.019446 0.021508 0.855000
0.016042 -0.016825 0.891000
-0.008916 -0.010982 0.893000
0.017154 0.008488 0.855000
0.017916 -0.020906 0.893000
-0.004856 -0.021202 0.890000
-0.039658 -0.012777 0.890000
0.026427 0.017366 0.859000
0.014858 -0.036787 0.886000
-0.023863 0.015653 0.862000
-0.019161 0.016993 0.858000
0.013780 -0.034273 0.887000
0.021592 -0.024214 0.893000
-0.017459 0.001852 0.879000
-0.041918 0.014826 0.876000
0.035578 0.009577 0.858000
0.039702 -0.012146 0.871000
0.031095 0.020596 0.861000
0.017018 -0.001739 0.866000
-0.001149 0.015210 0.857000
0.041984 -0.002079 0.859000
-0.042445 -0.017845 0.887000
0.001368 -0.028098 0.888000
-0.017020 0.003645 0.875000
0.005913 0.014168 0.858000
0.019090 0.000398 0.863000
-0.035024 0.006229 0.884000
0.039434 -0.013251 0.873000
-0.042127 -0.016403 0.888000
0.035847 0.000042 0.856000
-0.041653 0.020641 0.878000
0.015949 -0.002096 0.866000
0.028868 0.015580 0.858000
-0.023433 -0.026256 0.900000
-0.018777 -0.019004 0.890000
0.021519 -0.029627 0.890000
0.020857 -0.021273 0.893000
-0.031139 0.012532 0.867000
-0.027697 0.008647 0.871000
-0.003399 -0.019414 0.892000
-0.042906 -0.013494 0.889000
-0.033948 -0.004003 0.894000
0.019278 -0.034312 0.888000
0.016565 0.002523 0.861000
-0.002655 -0.025569 0.889000
0.017813 -0.004254 0.870000
-0.022832 -0.015725 0.891000
0.009753 -0.010896 0.886000
0.033316 -0.029326 0.892000
-0.004114 -0.027733 0.888000
0.013682 0.010990 0.858000
-0.007137 0.017306 0.856000
-0.003618 0.014504 0.857000
-0.024601 0.015316 0.863000
0.006266 0.008165 0.858000
-0.022883 -0.003999 0.893000
-0.021365 -0.014991 0.891000
-0.003035 -0.015025 0.893000
0.006478 -0.032813 0.887000
-0.033287 0.022996 0.858000
0.024565 0.018899 0.881000
0.033615 -0.004570 0.862000
0.011211 -0.036058 0.886000
-0.029834 -0.010236 0.892000
0.023744 -0.027827 0.891000
0.023461 0.009532 0.854000
0.018526 -0.039749 0.887000
0.025602 -0.007094 0.867000
0.016821 0.007089 0.856000
-0.019510 -0.018271 0.890000
-0.040024 0.014792 0.874000
0.002379 0.013446 0.857000
0.005046 -0.021250 0.892000
-0.004796 -0.005383 0.879000
-0.026163 0.020829 0.856000
-0.012712 -0.000317 0.876000
-0.022678 0.001136 0.885000
-0.019184 0.015952 0.859000
-0.026957 -0.005107 0.894000
-0.035052 -0.004739 0.894000
0.000273 -0.020148 0.892000
0.016059 -0.005340 0.872000
0.012608 0.008155 0.857000
0.036595 -0.000310 0.857000
0.000641 -0.017598 0.893000
0.010151 0.013108 0.858000
0.032912 -0.022693 0.891000
-0.034607 0.000778 0.892000
0.021224 -0.022376 0.893000
-0.042617 0.009493 0.883000
-0.039613 -0.014592 0.889000
0.001743 -0.015025 0.893000
0.027380 -0.031092 0.890000
0.006980 0.006760 0.859000
0.018913 0.009895 0.855000
0.030175 0.005321 0.855000
0.032868 -0.015531 0.880000
-0.020998 -0.015358 0.891000
-0.001149 0.016268 0.857000
-0.032618 0.005825 0.878000
-0.003762 -0.019759 0.891000
-0.005602 -0.009501 0.892000
0.033970 -0.004570 0.862000
0.025204 -0.014411 0.878000
0.018046 -0.000313 0.864000
0.010528 0.003582 0.860000
-0.037463 0.013697 0.873000
0.005237 0.001108 0.863000
0.016243 -0.010847 0.882000
-0.030602 -0.009144 0.893000
-0.027998 -0.010603 0.892000
-0.030201 -0.009868 0.892000
-0.027220 0.020829 0.856000
-0.005602 -0.017945 0.892000
0.029339 -0.012160 0.872000
-0.014413 -0.015743 0.892000
0.018651 -0.020538 0.893000
-0.008520 -0.020469 0.890000
-0.019122 -0.021178 0.889000
0.041661 -0.010306 0.867000
-0.044635 0.007345 0.887000
-0.039934 -0.015672 0.888000
0.035471 -0.006358 0.864000
0.012375 -0.014991 0.891000
-0.002655 -0.024837 0.889000
0.019311 -0.006424 0.873000
0.021402 0.003918 0.856000
-0.022339 0.000044 0.886000
0.006273 0.007113 0.859000
-0.007507 0.013108 0.858000
0.034285 0.017761 0.861000
0.005051 -0.018701 0.893000
0.025570 0.008478 0.854000
-0.004840 -0.006893 0.887000
-0.016194 -0.021178 0.889000
0.007624 -0.019803 0.893000
0.037363 -0.013642 0.875000
0.012008 -0.014991 0.891000
0.018140 -0.037881 0.886000
0.022055 0.010235 0.854000
0.027102 0.015934 0.858000
-0.031705 0.017802 0.863000
-0.043051 -0.006931 0.892000
0.009753 -0.036058 0.886000
-0.019251 0.014234 0.862000
0.003931 -0.027032 0.889000
-0.043003 -0.008024 0.891000
0.033852 0.014891 0.859000
0.002379 0.014857 0.857000
-0.025708 -0.017519 0.889000
0.032944 -0.004930 0.863000
0.011981 -0.013860 0.889000
0.020466 -0.019781 0.892000
-0.011084 -0.020103 0.890000
-0.031067 0.015708 0.865000
-0.046199 0.006630 0.889000
-0.015241 0.019772 0.856000
0.007216 -0.011286 0.888000
0.016262 -0.011223 0.883000
-0.025766 -0.024893 0.891000
-0.034787 0.015422 0.869000
-0.040522 0.012316 0.877000
0.038361 -0.008146 0.865000
-0.021317 -0.019714 0.889000
0.007723 0.000398 0.863000
-0.012224 -0.013555 0.893000
0.030032 0.020242 0.861000
0.023298 -0.034312 0.888000
-0.024687 0.011805 0.866000
-0.022781 -0.020080 0.889000
0.028523 -0.010329 0.869000
-0.023010 0.010427 0.870000
-0.043954 -0.014576 0.888000
-0.022516 -0.005101 0.893000
0.020693 -0.038975 0.886000
-0.026866 -0.013158 0.891000
-0.022781 -0.001786 0.889000
-0.013832 -0.029655 0.902000
-0.014171 -0.000679 0.877000
-0.023513 -0.017885 0.889000
0.009621 -0.007151 0.874000
-0.028936 -0.022226 0.887000
0.011986 -0.001023 0.863000
0.019019 -0.021641 0.893000
-0.024749 -0.007683 0.894000
-0.046984 0.020719 0.897000
-0.022163 0.004747 0.879000
-0.004845 -0.027002 0.888000
-0.017707 0.017658 0.856000
-0.037911 -0.007666 0.892000
-0.021221 0.000408 0.885000
0.037406 -0.014379 0.876000
0.005787 -0.014658 0.893000
0.006106 -0.033505 0.886000
-0.018162 0.003296 0.878000
0.006310 0.000398 0.864000
0.049569 -0.008531 0.868000
-0.030031 -0.021130 0.887000
-0.022261 0.023620 0.855000
0.017066 -0.034638 0.887000
-0.008866 -0.025906 0.888000
0.042190 -0.017302 0.878000
-0.007070 -0.009501 0.892000
-0.001930 -0.019047 0.892000
0.040569 0.001457 0.859000
-0.035420 -0.004739 0.894000
-0.022173 -0.007315 0.894000
0.029578 -0.032191 0.890000
0.031450 0.019887 0.861000
0.006044 -0.006454 0.877000
-0.031004 -0.002899 0.894000
0.035661 0.015263 0.860000
-0.028429 -0.004371 0.894000
-0.009963 -0.025540 0.888000
-0.038894 0.009109 0.881000
0.007616 -0.014641 0.892000
0.021394 -0.004970 0.870000
-0.043272 -0.013128 0.889000
-0.036238 -0.019670 0.887000
0.033055 -0.018897 0.885000
-0.006329 -0.008391 0.891000
0.034599 0.014909 0.860000
-0.004440 -0.005752 0.880000
0.033898 -0.021154 0.888000
-0.015666 0.014555 0.860000
0.014725 0.006039 0.857000
0.048608 -0.017401 0.883000
0.032137 -0.009983 0.870000
0.026976 0.005315 0.854000
0.009466 0.004998 0.860000
-0.040291 0.017629 0.872000
-0.026444 0.005819 0.877000
0.012513 -0.008240 0.875000
-0.015549 -0.010994 0.894000
-0.020526 0.019067 0.856000
-0.019444 -0.001416 0.887000
0.014461 -0.011599 0.884000
0.029278 -0.027491 0.892000
-0.012640 0.002552 0.871000
0.047098 -0.005989 0.862000
0.032793 -0.014050 0.878000
-0.004128 -0.021226 0.891000
-0.021659 -0.001418 0.888000
0.034590 -0.020765 0.887000
0.024896 0.003913 0.855000
-0.013618 -0.004342 0.888000
0.011236 0.003582 0.860000
0.047098 -0.005634 0.862000
-0.021413 -0.010615 0.893000
-0.046199 0.006996 0.889000
-0.036479 0.006593 0.884000
0.028935 0.018448 0.860000
0.034797 -0.018128 0.883000
0.039110 0.002161 0.858000
0.021752 -0.004970 0.870000
0.013842 -0.025626 0.891000
