-0.038106 -0.012383 0.888000
-0.029721 0.028260 0.857000
0.029085 0.003206 0.854000
-0.008596 0.009611 0.861000
-0.009968 0.015915 0.857000
-0.043785 -0.002526 0.892000
-0.028630 0.029284 0.856000
-0.012142 -0.026607 0.887000
-0.016299 0.004365 0.875000
0.019365 -0.022718 0.892000
-0.041261 -0.001059 0.893000
0.006295 0.001107 0.862000
0.012484 -0.008580 0.873000
-0.034684 -0.001428 0.894000
0.019558 -0.005316 0.868000
0.049683 -0.009267 0.870000
-0.011365 0.023647 0.856000
-0.025811 0.030694 0.856000
-0.040707 0.014548 0.881000
0.007224 -0.013494 0.889000
0.014240 -0.023846 0.893000
-0.034902 0.026327 0.863000
0.026738 -0.029359 0.893000
-0.012930 -0.016458 0.891000
0.015095 0.003927 0.858000
0.026678 -0.024526 0.891000
-0.002261 -0.004654 0.878000
0.029911 -0.024105 0.889000
0.032905 0.018846 0.862000
-0.026589 -0.004371 0.894000
-0.019446 0.024323 0.855000
-0.002655 -0.025203 0.889000
0.036595 0.003217 0.857000
0.013123 -0.028592 0.892000
-0.041489 -0.007649 0.890000
0.010163 -0.030360 0.890000
0.006835 -0.037881 0.886000
-0.005413 0.006783 0.862000
0.006843 -0.033543 0.887000
0.039064 0.000042 0.857000
0.042472 -0.016767 0.869000
0.017506 0.006376 0.855000
0.025420 -0.015767 0.873000
-0.010754 -0.012085 0.893000
-0.036851 0.004822 0.893000
-0.028397 0.000779 0.893000
-0.011378 0.016620 0.857000
-0.041573 0.028787 0.884000
0.024203 -0.010317 0.868000
0.029893 0.009213 0.857000
0.005573 0.005352 0.860000
-0.024373 0.028194 0.855000
0.032475 0.014555 0.860000
0.009054 -0.031423 0.889000
-0.042420 0.007098 0.902000
-0.022012 0.020548 0.859000
-0.007851 0.022617 0.857000
0.009044 -0.032119 0.888000
0.017123 -0.018638 0.890000
0.006964 0.010271 0.857000
-0.031386 0.021735 0.864000
0.012313 0.001106 0.861000
0.034872 -0.006314 0.858000
0.010908 -0.000312 0.862000
-0.021255 0.021206 0.857000
-0.022678 0.012232 0.871000
0.007590 -0.030691 0.889000
-0.004470 -0.030588 0.886000
0.009832 0.001460 0.861000
-0.001149 0.014504 0.857000
-0.033212 0.000044 0.894000
0.041969 -0.014927 0.866000
0.053693 -0.003205 0.877000
0.015605 -0.037924 0.887000
0.015970 -0.037559 0.887000
-0.027798 0.018513 0.863000
0.010870 0.012770 0.859000
-0.017749 0.019112 0.858000
-0.043223 -0.014576 0.888000
-0.042317 -0.002159 0.892000
-0.020480 0.012919 0.869000
0.035847 0.001099 0.856000
0.031059 0.017033 0.860000
0.014389 0.009930 0.858000
0.045376 -0.012389 0.863000
0.037917 0.016737 0.863000
0.014052 0.003224 0.859000
-0.013664 -0.005090 0.891000
-0.013602 -0.025876 0.887000
0.013922 -0.007862 0.873000
0.020366 -0.008571 0.872000
-0.008163 -0.007657 0.891000
-0.002575 0.005010 0.862000
-0.023669 0.027491 0.855000
-0.040159 -0.000323 0.893000
-0.008548 -0.012820 0.893000
0.022959 -0.036546 0.889000
0.016821 0.005327 0.856000
-0.041629 -0.000691 0.893000
0.030987 0.009930 0.858000
-0.011856 -0.009144 0.893000
0.033593 -0.019877 0.880000
-0.030109 0.030412 0.858000
-0.027957 0.024380 0.857000
-0.014587 0.016659 0.859000
0.021153 -0.034389 0.890000
-0.011378 0.024733 0.857000
0.041679 -0.003497 0.860000
0.045744 -0.017503 0.870000
0.038892 0.012446 0.861000
0.018263 -0.021984 0.892000
0.013309 -0.010822 0.880000
-0.003035 -0.011717 0.893000
-0.014062 -0.011350 0.893000
-0.002560 0.019442 0.857000
0.033106 -0.005255 0.858000
0.000273 -0.019068 0.893000
0.009819 -0.023819 0.892000
-0.028277 0.027523 0.856000
0.023136 0.001802 0.855000
0.017615 -0.011159 0.878000
0.042502 -0.022336 0.877000
0.021727 -0.007110 0.869000
0.016427 -0.027491 0.892000
0.030660 -0.018407 0.879000
-0.021069 -0.006211 0.894000
-0.016213 -0.018638 0.890000
0.014330 -0.009331 0.876000
-0.034645 -0.003999 0.893000
0.018359 -0.012257 0.879000
0.026169 -0.016504 0.874000
0.028801 -0.001367 0.856000
-0.027793 0.009756 0.874000
-0.007879 0.010661 0.860000
-0.007039 -0.006169 0.888000
0.030746 -0.028592 0.892000
0.038538 0.012800 0.861000
0.007249 -0.016477 0.892000
0.020420 -0.032924 0.890000
-0.042492 0.027821 0.888000
-0.023508 0.018846 0.862000
0.026905 -0.006351 0.863000
0.020443 -0.021592 0.891000
0.023325 -0.037643 0.889000
-0.004480 -0.027367 0.888000
0.038538 0.013509 0.861000
0.034750 0.001802 0.855000
0.001736 -0.010933 0.889000
0.037961 -0.011337 0.864000
-0.041903 0.008479 0.891000
0.012623 0.006046 0.858000
-0.025429 0.029602 0.855000
0.021517 -0.011841 0.875000
0.034126 0.005333 0.857000
0.021703 0.007072 0.854000
0.007216 -0.013114 0.888000
-0.037273 0.015925 0.877000
-0.028797 -0.004371 0.894000
0.042387 -0.009160 0.860000
-0.030815 0.025821 0.858000
-0.036035 0.005912 0.891000
0.037431 0.010661 0.860000
0.033723 -0.016144 0.874000
-0.045834 -0.008372 0.889000
-0.005595 -0.008391 0.891000
-0.044570 0.009968 0.893000
0.007938 -0.035003 0.887000
-0.022904 0.014656 0.866000
-0.000094 -0.008698 0.885000
0.031776 -0.025964 0.890000
0.002836 -0.026330 0.890000
-0.017002 -0.005101 0.893000
0.018996 -0.010041 0.875000
0.002731 0.015915 0.857000
0.033930 0.015281 0.861000
0.007974 -0.026726 0.891000
0.016354 -0.036139 0.888000
-0.008153 -0.006550 0.890000
0.022944 -0.002438 0.861000
-0.009637 0.014184 0.859000
-0.042472 0.025035 0.880000
-0.035873 -0.015289 0.887000
-0.007078 -0.013187 0.893000
0.038802 -0.006321 0.859000
0.046960 -0.014571 0.866000
0.001008 -0.018333 0.893000
0.032286 0.003209 0.855000
-0.041308 0.001884 0.894000
-0.021069 -0.007315 0.894000
-0.035508 -0.016019 0.887000
-0.001559 -0.023766 0.890000
0.005560 0.008871 0.858000
-0.014655 0.013895 0.863000
-0.032657 0.025882 0.860000
-0.044769 0.000413 0.897000
0.021861 -0.036546 0.889000
-0.014217 0.017699 0.858000
0.006514 -0.015008 0.892000
0.030781 -0.030462 0.893000
-0.038662 0.011686 0.884000
0.024896 0.007784 0.855000
-0.011868 0.006109 0.867000
0.027102 0.014168 0.858000
0.013354 -0.012676 0.883000
-0.038192 -0.008015 0.890000
0.039292 0.013879 0.862000
-0.022781 -0.018251 0.889000
-0.023717 0.005495 0.883000
-0.030602 0.001147 0.893000
0.027442 -0.031162 0.892000
0.041066 -0.011310 0.862000
-0.011059 -0.025540 0.888000
0.010494 -0.013464 0.887000
0.027744 0.008145 0.856000
0.023062 -0.028624 0.893000
-0.041747 0.026483 0.880000
0.029323 0.019179 0.861000
-0.041443 -0.009103 0.889000
0.005401 -0.037686 0.890000
-0.022491 -0.011704 0.892000
0.034994 0.015635 0.861000
-0.033037 0.018305 0.870000
0.021099 0.000396 0.858000
0.026304 0.008136 0.855000
0.039292 0.014234 0.862000
-0.001867 0.004305 0.863000
0.018547 -0.037601 0.888000
-0.040344 0.027601 0.881000
-0.024373 0.025379 0.855000
-0.013267 -0.021910 0.889000
0.025434 -0.020013 0.886000
-0.021206 0.027843 0.855000
-0.044786 -0.005451 0.890000
0.033325 -0.015407 0.873000
-0.034645 0.003720 0.893000
0.036200 -0.001015 0.856000
0.007929 -0.036058 0.886000
0.007488 -0.009703 0.877000
0.038094 0.008881 0.859000
-0.020904 -0.023321 0.887000
-0.041714 -0.014194 0.887000
-0.011206 0.003628 0.871000
-0.041116 0.028722 0.882000
-0.041808 -0.009835 0.889000
0.010663 -0.007127 0.871000
-0.044178 -0.015143 0.900000
0.036904 -0.001719 0.856000
-0.007805 -0.008033 0.892000
-0.030302 -0.012849 0.895000
0.051409 -0.004999 0.875000
-0.001565 -0.013555 0.893000
0.001004 -0.027764 0.889000
-0.016926 -0.019714 0.889000
0.007624 -0.018701 0.893000
-0.013694 -0.006572 0.893000
0.034398 0.000042 0.855000
0.009023 -0.037881 0.886000
-0.000801 0.004300 0.862000
-0.042540 0.010289 0.889000
-0.013013 0.003632 0.872000
-0.011671 -0.001765 0.879000
0.010151 0.008871 0.858000
0.022466 -0.017784 0.884000
-0.029733 -0.014958 0.889000
-0.022613 0.028898 0.855000
0.014608 -0.021273 0.893000
0.000273 -0.017965 0.893000
-0.020854 0.024323 0.855000
-0.009284 -0.013923 0.893000
-0.003639 0.005719 0.862000
0.021935 -0.023819 0.892000
0.036894 -0.010981 0.864000
-0.000091 0.010990 0.858000
0.036005 -0.019087 0.877000
-0.023481 0.019533 0.861000
-0.011759 0.015599 0.859000
0.011009 -0.006402 0.870000
0.007257 -0.019068 0.893000
-0.045468 0.011753 0.889000
-0.041349 -0.014924 0.887000
0.034519 0.009224 0.858000
-0.022288 0.029989 0.856000
-0.016598 -0.015358 0.891000
-0.034316 0.000412 0.894000
0.027391 0.007441 0.856000
0.007241 -0.026360 0.891000
0.017509 -0.029660 0.891000
-0.022704 0.002596 0.886000
0.038006 -0.001016 0.857000
-0.010026 0.010331 0.862000
-0.035052 0.000044 0.894000
-0.039702 -0.005457 0.891000
0.001679 0.004998 0.860000
0.002478 -0.018701 0.893000
0.036766 -0.009171 0.861000
0.003163 -0.008639 0.879000
0.027071 0.011330 0.857000
-0.002661 -0.020492 0.891000
-0.016564 0.010427 0.870000
0.001689 0.001823 0.865000
-0.033915 0.022472 0.865000
-0.026589 -0.002899 0.894000
0.003449 0.004644 0.860000
-0.013142 0.017326 0.857000
0.019019 -0.022744 0.893000
-0.038321 0.004822 0.893000
-0.042174 -0.008738 0.889000
-0.022957 0.013618 0.868000
-0.036232 0.014859 0.878000
-0.031893 0.005892 0.888000
-0.008606 0.008203 0.862000
0.038493 0.010661 0.860000
0.003573 -0.024159 0.891000
-0.030201 -0.007299 0.892000
0.050156 -0.007853 0.872000
0.015517 -0.012662 0.882000
-0.030201 -0.006931 0.892000
0.044917 -0.009880 0.861000
-0.019575 -0.010615 0.893000
-0.037093 -0.008015 0.890000
0.019801 -0.002444 0.863000
0.032676 0.004270 0.856000
-0.023180 0.018158 0.863000
-0.022626 0.013277 0.869000
0.043448 -0.009514 0.860000
-0.004460 0.004774 0.884000
-0.014519 0.022212 0.855000
0.008294 -0.036422 0.886000
0.026222 -0.040159 0.888000
-0.018648 0.013246 0.867000
0.013422 -0.002802 0.864000
0.028326 -0.008127 0.863000
-0.035013 -0.002529 0.893000
-0.036401 -0.006557 0.891000
0.023010 -0.016200 0.877000
0.022830 -0.017421 0.884000
-0.035341 -0.006931 0.892000
0.016136 0.009566 0.857000
-0.017003 0.020124 0.856000
0.043696 -0.018979 0.872000
0.008313 -0.033215 0.888000
0.028327 -0.016144 0.874000
0.033260 0.019201 0.862000
0.012976 0.009930 0.858000
0.009064 -0.027429 0.890000
-0.048137 -0.010958 0.891000
0.027971 -0.008482 0.863000
0.028868 0.013108 0.858000
-0.041123 -0.007649 0.890000
-0.028508 0.020289 0.863000
-0.012142 -0.026241 0.887000
0.043996 -0.022723 0.878000
-0.028365 0.001513 0.892000
0.017607 -0.031671 0.896000
-0.017578 0.013246 0.867000
-0.015793 -0.024051 0.887000
0.009808 -0.016092 0.891000
0.039601 -0.010589 0.861000
-0.044848 0.015325 0.884000
0.027519 -0.003851 0.860000
-0.000796 0.017326 0.857000
-0.045992 0.020442 0.885000
-0.022719 0.020548 0.859000
0.027327 0.002503 0.854000
-0.016945 -0.016440 0.890000
-0.012422 -0.002132 0.881000
-0.018735 -0.022251 0.888000
0.003493 0.000760 0.871000
0.027841 0.014538 0.859000
-0.008916 -0.013187 0.893000
-0.027904 -0.014592 0.889000
-0.007070 -0.016477 0.892000
0.006281 0.003582 0.860000
-0.023879 -0.016787 0.889000
-0.042424 0.024283 0.879000
-0.012775 0.024352 0.856000
0.021738 -0.017057 0.884000
-0.004470 -0.032411 0.886000
0.025570 0.003206 0.854000
-0.000459 -0.030987 0.887000
-0.023592 -0.009501 0.892000
0.031972 0.004270 0.856000
-0.020678 -0.003264 0.893000
0.002109 -0.013540 0.892000
-0.012775 0.018363 0.856000
0.041373 -0.002438 0.861000
-0.034507 0.027361 0.862000
0.020099 -0.027858 0.892000
-0.045473 0.018194 0.882000
-0.009221 -0.028432 0.887000
-0.040846 0.012778 0.884000
-0.035052 0.001516 0.894000
0.023690 -0.036912 0.889000
-0.040436 -0.004357 0.891000
0.024147 -0.006729 0.866000
0.011917 0.008518 0.858000
0.009033 -0.039019 0.887000
0.007697 0.003228 0.860000
-0.027600 -0.011691 0.891000
0.025630 0.010259 0.856000
0.046208 -0.018261 0.872000
0.020673 0.009895 0.855000
-0.005205 -0.028067 0.887000
0.044562 -0.005273 0.861000
-0.008951 0.011382 0.861000
-0.003265 0.014151 0.857000
0.028581 0.017033 0.860000
0.030527 0.002857 0.855000
0.014225 -0.019414 0.892000
0.033029 -0.003833 0.856000
-0.041536 -0.005457 0.891000
0.023461 0.002854 0.854000
-0.021022 -0.012438 0.892000
0.023136 0.009895 0.855000
0.048195 -0.014621 0.869000
0.025520 -0.022276 0.889000
-0.007404 -0.026271 0.888000
0.029893 0.010271 0.857000
0.012570 -0.010448 0.879000
0.002384 0.008174 0.859000
-0.025708 -0.015324 0.889000
0.026618 -0.023008 0.889000
-0.045730 0.013552 0.887000
-0.013043 0.002202 0.874000
-0.004862 -0.020126 0.891000
0.011698 -0.005673 0.868000
0.003790 0.014504 0.857000
0.041517 -0.013115 0.864000
-0.011412 -0.026972 0.887000
0.033654 -0.008837 0.863000
0.019278 -0.036139 0.888000
-0.020502 0.027491 0.855000
0.029205 -0.013175 0.868000
0.025886 -0.036912 0.889000
-0.021245 0.002232 0.886000
-0.034529 0.005905 0.890000
-0.012156 -0.003246 0.888000
0.018284 -0.023479 0.893000
0.009399 -0.013099 0.887000
0.011341 -0.005673 0.868000
0.025248 0.000394 0.855000
-0.019186 -0.012071 0.892000
-0.018476 0.018427 0.859000
-0.038645 0.006652 0.892000
0.034046 0.001802 0.855000
-0.026744 0.009047 0.875000
-0.024217 -0.019692 0.888000
0.036496 -0.010613 0.863000
0.036284 0.007458 0.858000
-0.000094 -0.032411 0.886000
0.010859 -0.035733 0.887000
-0.027662 -0.006939 0.893000
0.044917 -0.008108 0.861000
-0.018473 -0.003999 0.893000
-0.004138 -0.016495 0.893000
0.002467 -0.028862 0.889000
0.026012 -0.001369 0.857000
0.012667 0.001106 0.861000
-0.003707 -0.003932 0.878000
-0.014731 -0.020812 0.889000
0.000970 0.008528 0.859000
0.041679 -0.003143 0.860000
0.028100 -0.012447 0.867000
0.014161 -0.041621 0.888000
0.006611 0.011682 0.857000
0.005413 -0.015008 0.892000
-0.002916 0.012402 0.858000
0.043448 -0.008099 0.860000
-0.034271 0.030304 0.865000
0.004961 -0.008620 0.877000
0.025952 0.000746 0.855000
-0.011084 -0.020103 0.890000
0.026905 -0.007772 0.863000
-0.043871 0.022836 0.879000
0.031095 0.019179 0.861000
-0.021341 -0.014975 0.890000
-0.026133 0.026787 0.855000
0.034046 0.001450 0.855000
0.018913 0.009192 0.855000
-0.044270 0.012821 0.887000
0.033723 -0.016504 0.874000
0.030741 0.018824 0.861000
0.012682 0.000043 0.862000
0.011034 -0.007494 0.872000
0.027840 -0.029727 0.893000
-0.006463 0.008538 0.860000
0.030939 -0.023321 0.887000
0.008359 -0.019068 0.893000
-0.030602 -0.005101 0.893000
-0.013896 0.015617 0.860000
-0.045161 0.016761 0.883000
0.033733 0.003213 0.856000
0.034046 -0.001013 0.855000
0.037257 0.001099 0.856000
-0.026074 -0.015324 0.889000
-0.041291 0.023894 0.878000
0.013857 -0.026389 0.892000
-0.038750 0.031405 0.886000
0.019024 0.000042 0.860000
0.029997 0.015971 0.860000
-0.019575 -0.010247 0.893000
0.033067 0.007097 0.857000
0.021935 -0.022718 0.892000
0.009033 -0.034638 0.887000
0.026550 -0.007061 0.863000
-0.033834 0.005178 0.891000
-0.038794 -0.014559 0.887000
-0.009956 0.019772 0.856000
-0.015348 0.014943 0.862000
0.050689 -0.006079 0.875000
0.019969 0.003209 0.855000
0.028129 -0.002074 0.857000
-0.025634 0.010115 0.874000
0.006866 -0.013876 0.890000
0.012403 -0.019803 0.893000
-0.043736 -0.004723 0.891000
0.013698 0.011356 0.859000
-0.010340 -0.021544 0.889000
-0.015131 -0.016092 0.891000
0.034603 -0.013548 0.869000
0.024505 -0.030061 0.892000
0.039705 -0.022387 0.879000
-0.039568 -0.013114 0.888000
0.024138 -0.030061 0.892000
0.007241 -0.014991 0.891000
-0.026608 0.022316 0.859000
0.014209 -0.017925 0.891000
-0.033837 0.030589 0.863000
-0.011296 -0.001041 0.878000
-0.018503 0.006541 0.877000
-0.030031 0.005885 0.887000
-0.029540 0.021684 0.862000
-0.027925 0.027875 0.856000
0.035184 0.004275 0.857000
-0.017558 0.013944 0.866000
-0.019854 -0.000322 0.889000
-0.035143 -0.017480 0.887000
-0.020739 0.005839 0.880000
0.022277 -0.021959 0.891000
0.026984 -0.038375 0.889000
-0.022074 -0.015341 0.890000
0.033145 0.010649 0.859000
-0.001865 0.005010 0.862000
-0.001852 0.015896 0.856000
-0.043344 0.014944 0.883000
0.004870 0.002523 0.861000
-0.007078 -0.009512 0.893000
0.016078 -0.024214 0.893000
0.009588 -0.006768 0.871000
0.009430 -0.029261 0.890000
-0.000461 -0.023059 0.891000
-0.038138 0.023372 0.872000
-0.039484 0.024616 0.878000
0.036411 0.015635 0.861000
0.022784 0.008840 0.855000
0.021910 -0.031494 0.891000
-0.005728 0.017658 0.856000
-0.020951 0.019841 0.859000
0.014372 0.006744 0.857000
-0.027264 -0.009134 0.892000
0.030562 0.006032 0.856000
-0.040345 -0.009103 0.889000
-0.041291 0.024616 0.878000
-0.020862 0.012218 0.870000
-0.021950 0.002958 0.885000
-0.023539 -0.015341 0.890000
-0.042079 -0.014194 0.887000
-0.042091 0.029882 0.895000
0.018763 -0.013735 0.881000
0.017008 -0.014874 0.884000
0.023036 -0.023452 0.892000
-0.030970 0.001882 0.893000
-0.019005 0.013603 0.867000
0.011604 0.000397 0.861000
-0.009305 0.010319 0.861000
0.021148 -0.000665 0.860000
0.026749 0.015227 0.858000
-0.033543 -0.004734 0.893000
-0.034627 0.023184 0.865000
-0.009604 0.018010 0.856000
-0.004319 0.016953 0.856000
0.015482 -0.011547 0.880000
0.029540 -0.003132 0.857000
-0.024244 -0.016056 0.889000
-0.010363 -0.019025 0.891000
0.021652 -0.004947 0.866000
-0.009738 0.005044 0.868000
-0.020998 -0.014625 0.891000
0.005219 0.004644 0.860000
0.026687 0.008850 0.856000
0.021927 -0.014034 0.877000
0.006471 -0.037516 0.886000
-0.032661 0.005898 0.889000
-0.032544 0.012662 0.876000
-0.034607 0.004450 0.892000
-0.024555 -0.021861 0.887000
-0.013605 0.012489 0.864000
-0.039747 -0.003627 0.892000
-0.024272 0.000777 0.890000
0.027350 -0.037643 0.889000
-0.041432 0.027601 0.881000
0.006478 -0.012004 0.887000
0.022907 -0.040844 0.887000
-0.027841 -0.020035 0.887000
0.011954 -0.014194 0.887000
0.015068 -0.009703 0.877000
-0.026559 -0.006572 0.893000
0.017977 -0.011159 0.878000
-0.035341 -0.005830 0.892000
-0.046044 0.014995 0.886000
0.011287 -0.017945 0.892000
-0.019273 0.016382 0.863000
-0.016279 0.024323 0.855000
-0.037996 -0.000692 0.894000
0.009240 -0.006776 0.872000
-0.004873 -0.012820 0.893000
0.038756 0.000749 0.858000
0.025187 -0.007434 0.865000
0.046685 -0.021713 0.881000
0.028947 -0.014655 0.871000
0.022644 -0.022693 0.891000
-0.046670 0.011412 0.891000
0.041542 -0.018620 0.872000
-0.025766 -0.011324 0.891000
-0.032001 0.004078 0.891000
-0.030746 0.020003 0.866000
-0.046773 0.017183 0.886000
0.023298 -0.038332 0.888000
0.002846 -0.018701 0.893000
-0.021206 0.026787 0.855000
-0.020310 -0.004366 0.893000
-0.002667 0.003720 0.893000
0.009271 -0.009320 0.875000
0.024705 -0.019648 0.886000
0.021812 -0.018940 0.887000
-0.012549 -0.019370 0.890000
-0.018080 0.008317 0.874000
0.016813 -0.025684 0.893000
0.032990 -0.001013 0.855000
0.034790 -0.002072 0.856000
-0.000800 0.005358 0.861000
-0.004878 0.004828 0.894000
0.004673 -0.024159 0.891000
-0.025607 0.020596 0.861000
0.032046 0.010636 0.858000
-0.039836 0.001148 0.894000
-0.009232 -0.025175 0.888000
0.026618 -0.038009 0.889000
0.027134 0.015952 0.859000
0.006133 -0.013876 0.890000
-0.009637 0.014538 0.859000
-0.013237 -0.025146 0.887000
-0.021805 -0.004371 0.894000
-0.025708 -0.015690 0.889000
-0.028936 -0.018210 0.887000
0.034679 0.018137 0.862000
-0.029895 0.022039 0.862000
0.003794 0.016640 0.858000
-0.041291 0.017389 0.878000
-0.007813 -0.009880 0.893000
-0.038619 0.012400 0.883000
-0.023946 0.014995 0.865000
-0.003403 -0.016495 0.893000
-0.028696 0.031825 0.858000
-0.009242 -0.024105 0.889000
0.007616 -0.024187 0.892000
-0.015148 -0.013907 0.892000
0.024390 -0.003860 0.862000
-0.020197 0.000409 0.888000
-0.037291 0.022933 0.869000
-0.001556 -0.027733 0.888000
-0.041489 -0.006916 0.890000
0.001734 -0.029195 0.888000
-0.009956 0.019420 0.856000
-0.016158 -0.000686 0.887000
0.005683 -0.008981 0.877000
0.021422 -0.043716 0.886000
-0.017707 0.021181 0.856000
-0.020310 -0.008409 0.893000
0.031934 0.000042 0.855000
-0.035052 0.000780 0.894000
0.013794 -0.003873 0.865000
-0.007924 0.006095 0.865000
-0.026931 0.023703 0.858000
0.012623 0.010283 0.858000
0.021805 0.000042 0.858000
-0.048253 -0.005882 0.900000
-0.001558 -0.026301 0.889000
0.012770 -0.020538 0.893000
0.015343 -0.024214 0.893000
0.021377 0.010247 0.855000
0.018150 -0.005322 0.869000
0.030379 -0.026756 0.892000
0.027442 -0.030428 0.892000
-0.023017 0.004410 0.884000
0.008313 -0.013114 0.888000
-0.002994 -0.006846 0.881000
-0.003741 -0.032776 0.886000
-0.007062 -0.019392 0.891000
0.013857 -0.019781 0.892000
-0.001565 -0.013187 0.893000
0.025126 -0.038697 0.888000
0.020397 -0.036546 0.889000
0.028030 0.002854 0.854000
-0.031390 0.011914 0.874000
-0.043921 0.017429 0.880000
-0.003035 -0.015760 0.893000
0.018912 -0.036139 0.888000
0.001675 0.017346 0.858000
0.017816 -0.036139 0.888000
0.019400 -0.000666 0.861000
-0.012959 -0.007674 0.893000
0.004876 0.001462 0.862000
-0.001193 -0.009846 0.890000
-0.018390 -0.001054 0.889000
0.020701 -0.007844 0.871000
-0.038364 0.002620 0.894000
0.013067 -0.003158 0.864000
0.009798 0.012049 0.858000
-0.028429 -0.002164 0.894000
-0.012640 0.004345 0.871000
-0.024084 0.012576 0.870000
-0.031426 0.011207 0.875000
-0.027507 -0.017134 0.888000
-0.003757 -0.022667 0.890000
-0.041308 0.000780 0.894000
0.029612 -0.025626 0.891000
-0.021900 0.004768 0.883000
-0.032367 0.004445 0.891000
-0.010947 -0.001765 0.879000
-0.023100 0.020572 0.860000
-0.017757 -0.006947 0.894000
0.035847 -0.000310 0.856000
-0.024870 0.020926 0.860000
-0.027042 0.010104 0.873000
-0.025696 0.015689 0.864000
0.032009 0.006391 0.857000
0.034831 0.004275 0.857000
0.009084 -0.017211 0.892000
0.002033 0.006060 0.860000
0.020673 0.009192 0.855000
0.008088 -0.001380 0.864000
-0.034063 0.013053 0.878000
-0.001197 -0.015760 0.893000
-0.002930 0.005364 0.862000
0.010859 -0.013829 0.887000
0.029858 0.007441 0.856000
-0.004319 0.017306 0.856000
-0.020423 0.004400 0.882000
-0.032885 0.021072 0.866000
0.016873 -0.010063 0.877000
-0.028277 0.026818 0.856000
-0.000826 -0.025935 0.889000
-0.005047 0.008184 0.860000
0.024831 -0.008502 0.865000
0.012713 -0.016056 0.889000
-0.036809 -0.005463 0.892000
-0.010730 -0.018659 0.891000
0.035495 -0.003129 0.856000
-0.030811 0.008355 0.878000
-0.035913 -0.013114 0.888000
-0.032416 0.022775 0.863000
-0.006130 0.006081 0.863000
-0.000826 -0.009469 0.889000
-0.025986 0.004420 0.886000
0.002473 -0.023059 0.891000
-0.027600 -0.010224 0.891000
-0.020265 -0.013525 0.891000
-0.023781 0.011887 0.872000
0.011210 0.010283 0.858000
-0.012998 0.004345 0.871000
0.017549 -0.025316 0.893000
-0.002626 -0.006107 0.879000
0.016821 0.007793 0.856000
-0.023771 0.004050 0.885000
-0.027957 0.030729 0.857000
-0.035943 0.019401 0.871000
-0.006102 0.012063 0.859000
-0.019809 -0.023321 0.887000
-0.036851 -0.002896 0.893000
0.031812 -0.026360 0.891000
-0.016542 -0.021154 0.888000
-0.013222 -0.027670 0.886000
-0.000094 -0.012071 0.892000
0.029213 -0.018046 0.879000
-0.036343 0.018706 0.872000
-0.020645 0.008696 0.876000
-0.000830 -0.012820 0.893000
0.010506 -0.014210 0.888000
-0.032440 -0.003631 0.893000
-0.029900 -0.000324 0.894000
-0.043418 -0.001057 0.892000
0.039785 0.011079 0.865000
-0.022938 0.006208 0.881000
-0.034974 -0.006197 0.892000
0.010174 -0.016092 0.891000
0.030777 -0.007053 0.862000
-0.024892 -0.022565 0.886000
-0.036156 0.000780 0.894000
0.012035 -0.021273 0.893000
0.002387 0.004998 0.860000
-0.018819 -0.011337 0.892000
-0.027761 0.010463 0.873000
0.021527 -0.001729 0.861000
-0.019946 0.007262 0.877000
-0.024021 0.029954 0.855000
0.002846 -0.020171 0.893000
-0.030427 0.027908 0.857000
-0.039512 0.034671 0.895000
0.004297 -0.028496 0.889000
-0.003035 -0.013923 0.893000
-0.043272 -0.007640 0.889000
-0.016355 0.002573 0.878000
-0.016598 -0.014625 0.891000
0.009599 -0.007494 0.872000
-0.049529 0.013053 0.903000
-0.014747 -0.018638 0.890000
0.051351 -0.006072 0.874000
0.027030 -0.012447 0.867000
-0.003032 -0.018312 0.892000
0.017669 -0.001378 0.863000
-0.032619 0.026559 0.859000
0.007992 -0.021273 0.893000
0.036595 0.003570 0.857000
-0.020174 0.001139 0.887000
-0.040653 -0.017071 0.904000
0.018913 0.005673 0.855000
0.019179 -0.004596 0.867000
-0.032072 -0.003631 0.893000
0.028935 -0.004559 0.860000
-0.024749 -0.004003 0.894000
0.003918 -0.036058 0.886000
0.038183 0.012446 0.861000
-0.026962 0.023023 0.859000
-0.029354 0.015744 0.867000
0.033106 0.008871 0.858000
-0.023153 0.019201 0.862000
0.007454 -0.007143 0.873000
-0.007007 -0.005414 0.884000
0.002478 -0.019068 0.893000
-0.026516 0.025409 0.856000
-0.043687 -0.006550 0.890000
-0.016140 -0.000321 0.886000
0.011590 0.002874 0.860000
-0.015080 -0.022616 0.888000
-0.011232 0.002199 0.873000
-0.015028 0.013911 0.864000
-0.036176 0.022550 0.868000
0.023264 -0.012892 0.873000
-0.039468 0.004092 0.894000
-0.005975 -0.010615 0.893000
-0.007525 0.009599 0.860000
-0.025370 0.014995 0.865000
-0.004873 -0.012085 0.893000
0.008769 0.001106 0.861000
-0.045051 -0.010555 0.888000
-0.012698 0.001484 0.875000
-0.009985 -0.019737 0.890000
-0.009648 0.013847 0.860000
-0.032477 0.008776 0.884000
-0.018123 0.018427 0.859000
-0.032358 0.016892 0.871000
-0.022217 0.014673 0.867000
-0.022448 0.009057 0.876000
0.045337 -0.023579 0.883000
-0.015497 -0.003990 0.891000
-0.028029 -0.000323 0.893000
-0.009956 0.021886 0.856000
0.027776 0.011682 0.857000
-0.040204 0.001148 0.894000
0.019265 0.006025 0.855000
0.040923 -0.003847 0.859000
-0.021171 0.013976 0.868000
-0.024013 -0.006211 0.894000
-0.042301 0.013506 0.884000
-0.021756 -0.001424 0.892000
0.008341 -0.025260 0.891000
0.025944 -0.042129 0.891000
0.021852 -0.010749 0.874000
0.021519 -0.034389 0.890000
-0.032878 0.008057 0.885000
0.032475 0.014909 0.860000
-0.035711 0.011310 0.883000
0.010541 -0.016825 0.891000
-0.032829 0.015152 0.874000
0.032702 -0.011007 0.866000
-0.006840 0.006436 0.863000
-0.037909 0.017690 0.875000
0.037107 -0.014264 0.869000
0.018202 -0.034716 0.889000
-0.027213 0.013960 0.867000
0.020121 -0.023479 0.893000
0.011739 -0.007127 0.871000
-0.020333 -0.008051 0.894000
-0.038559 -0.007649 0.890000
0.005947 0.000753 0.863000
-0.036116 0.004455 0.893000
0.020328 -0.042986 0.886000
-0.017477 0.016008 0.862000
-0.027307 0.011859 0.870000
0.010847 -0.037881 0.886000
0.019621 -0.039384 0.887000
-0.039791 -0.001059 0.893000
0.025973 -0.024554 0.892000
-0.019094 0.026787 0.855000
0.035847 -0.001015 0.856000
-0.021707 0.000044 0.890000
-0.029466 -0.008767 0.892000
-0.016907 -0.001418 0.888000
0.011287 -0.017578 0.892000
0.001675 0.009577 0.858000
0.016661 -0.003522 0.866000
-0.032952 -0.017480 0.887000
-0.009956 0.021533 0.856000
0.037406 -0.019066 0.876000
-0.039529 0.015238 0.879000
0.009044 -0.032850 0.888000
-0.032476 -0.001428 0.894000
0.038139 0.009953 0.860000
0.030670 0.014891 0.859000
-0.049255 0.016307 0.898000
0.016841 0.009919 0.857000
0.021025 0.003209 0.855000
-0.017559 0.001863 0.884000
-0.014316 -0.026577 0.886000
0.030590 -0.017283 0.877000
0.039163 -0.013874 0.867000
-0.032979 0.012330 0.878000
-0.036075 -0.005830 0.892000
-0.012538 0.010000 0.864000
-0.000462 -0.013923 0.893000
0.049512 -0.009949 0.867000
0.025660 -0.001369 0.857000
-0.009359 0.006102 0.866000
-0.026868 0.030694 0.856000
-0.008916 -0.012085 0.893000
0.021902 -0.013657 0.876000
-0.002664 -0.018312 0.892000
-0.005895 -0.005396 0.881000
0.001004 -0.027032 0.889000
0.027102 0.013815 0.858000
0.030175 0.004617 0.855000
0.014948 -0.006402 0.870000
0.017876 -0.030394 0.891000
0.030311 -0.013191 0.869000
-0.019854 -0.019349 0.889000
-0.028797 -0.003267 0.894000
-0.009500 -0.002489 0.879000
0.006266 0.008518 0.858000
0.027776 -0.002074 0.857000
0.032324 -0.002424 0.856000
0.029868 -0.016922 0.877000
0.012284 0.004639 0.859000
-0.044004 -0.009103 0.889000
-0.007078 -0.015393 0.893000
-0.023317 0.027491 0.855000
0.030351 0.016325 0.860000
0.028575 -0.028992 0.893000
-0.035832 0.009160 0.886000
0.034524 -0.011733 0.867000
0.021422 -0.043351 0.886000
-0.025361 0.008706 0.877000
-0.028571 -0.018575 0.887000
0.041630 -0.006675 0.859000
0.021200 -0.029326 0.892000
-0.013574 0.014589 0.862000
-0.020310 -0.009512 0.893000
0.006485 -0.032484 0.888000
-0.029099 -0.009868 0.892000
-0.010212 -0.001402 0.878000
-0.035380 0.003720 0.893000
0.003437 0.012740 0.857000
0.002398 0.001821 0.864000
0.013329 0.010990 0.858000
-0.001538 -0.005377 0.878000
-0.026589 -0.003635 0.894000
-0.004128 -0.020492 0.891000
-0.014250 0.016325 0.860000
-0.000091 0.017326 0.857000
0.014019 0.008860 0.857000
-0.048980 0.014378 0.893000
0.017526 0.008850 0.856000
-0.023566 -0.000323 0.891000
0.018568 -0.033984 0.889000
0.014405 0.003224 0.859000
-0.010200 -0.000318 0.877000
-0.000462 -0.016128 0.893000
-0.010723 0.013863 0.861000
-0.020539 -0.025146 0.887000
-0.034507 0.028780 0.862000
-0.045365 0.012821 0.887000
-0.007842 0.018010 0.856000
-0.027693 -0.002532 0.894000
0.031377 0.012417 0.859000
-0.041308 0.005563 0.894000
-0.027830 0.016045 0.864000
0.006858 -0.030691 0.889000
0.028543 -0.032998 0.892000
0.024900 -0.026786 0.893000
-0.041605 0.018813 0.877000
-0.025399 -0.010958 0.891000
0.005573 0.003582 0.860000
0.025869 -0.007069 0.864000
-0.008213 0.014521 0.858000
-0.017687 0.022916 0.855000
-0.004676 0.014857 0.857000
-0.014332 -0.001782 0.887000
-0.029466 0.001880 0.892000
0.005040 -0.024893 0.891000
0.015711 -0.023111 0.893000
0.019984 -0.007844 0.871000
0.010541 0.001460 0.861000
0.002465 -0.030291 0.888000
0.016427 -0.029326 0.892000
-0.033011 0.029421 0.860000
0.015693 -0.020148 0.892000
0.017816 -0.036870 0.888000
-0.036442 -0.005096 0.892000
0.026134 -0.019626 0.885000
-0.009974 -0.022276 0.889000
-0.018307 0.001136 0.885000
0.022669 -0.023085 0.892000
0.028543 -0.031162 0.892000
0.045625 -0.009526 0.861000
0.004157 0.003582 0.860000
-0.021365 -0.001423 0.891000
-0.043971 0.016361 0.881000
0.029048 -0.021447 0.885000
-0.037502 -0.005824 0.891000
-0.010723 0.012800 0.861000
0.011589 -0.036098 0.887000
0.028162 -0.002783 0.858000
-0.000094 -0.030622 0.887000
-0.035708 -0.004729 0.892000
0.031767 0.015617 0.860000
0.024601 -0.000310 0.857000
-0.013311 0.006473 0.868000
0.018785 -0.014477 0.882000
-0.033872 0.004082 0.892000
-0.007568 0.006095 0.865000
-0.029756 0.030765 0.858000
-0.040572 0.000412 0.894000
-0.005975 -0.015393 0.893000
0.022202 -0.037601 0.888000
0.024956 -0.018107 0.882000
0.013123 -0.041442 0.892000
0.034165 0.007811 0.858000
0.027766 -0.018046 0.879000
-0.038837 -0.013479 0.888000
0.023515 -0.008899 0.869000
0.027411 -0.034061 0.891000
-0.006785 0.016249 0.856000
-0.021244 0.011873 0.871000
-0.006681 -0.025203 0.889000
-0.044370 -0.007640 0.889000
-0.014570 0.017346 0.858000
-0.031522 0.026881 0.858000
0.002026 0.014504 0.857000
-0.022909 -0.006579 0.894000
-0.018476 0.018781 0.859000
0.021129 -0.035814 0.889000
0.013399 -0.040069 0.886000
-0.038181 0.019805 0.873000
0.021200 -0.028592 0.892000
-0.020814 0.013976 0.868000
-0.042568 0.015290 0.882000
-0.010026 0.008912 0.862000
-0.017261 0.011488 0.869000
-0.043272 0.010655 0.889000
-0.035708 -0.005463 0.892000
0.028935 0.016325 0.860000
-0.012727 0.000404 0.877000
-0.018186 0.016717 0.862000
-0.016631 0.024675 0.855000
0.018630 -0.022351 0.892000
0.039555 -0.008453 0.860000
-0.036912 0.015925 0.877000
-0.025077 0.029250 0.855000
0.008294 -0.036787 0.886000
-0.039619 0.027239 0.881000
0.038006 -0.003132 0.857000
-0.024112 0.011873 0.871000
0.038493 -0.008807 0.860000
-0.039982 0.027601 0.881000
0.004292 -0.030657 0.888000
-0.022883 -0.009144 0.893000
0.027473 -0.028992 0.893000
-0.025458 0.012904 0.868000
0.003441 0.016287 0.858000
-0.015775 -0.025847 0.886000
-0.026732 0.018513 0.863000
0.002106 -0.012058 0.891000
-0.004505 -0.012085 0.893000
0.003790 0.013093 0.857000
-0.016983 0.023972 0.855000
0.025691 -0.013564 0.870000
0.031972 0.006032 0.856000
-0.009974 -0.005079 0.889000
-0.003770 -0.013555 0.893000
0.019300 -0.035814 0.889000
-0.006840 0.006791 0.863000
-0.024898 0.020242 0.861000
-0.010453 0.004687 0.868000
0.041183 -0.018261 0.872000
0.027411 -0.032961 0.891000
0.042033 -0.008807 0.860000
0.010834 -0.012341 0.885000
-0.042110 0.016342 0.880000
-0.025312 0.018868 0.863000
-0.012775 0.019420 0.856000
-0.040072 0.013127 0.883000
-0.002566 0.009235 0.859000
-0.000094 -0.024499 0.890000
0.013985 -0.009703 0.877000
0.046007 -0.019764 0.875000
-0.004138 -0.011350 0.893000
-0.022965 0.025731 0.855000
-0.021022 -0.002159 0.892000
-0.016888 -0.000321 0.887000
-0.013463 0.022212 0.855000
-0.028897 0.018890 0.864000
0.022327 -0.025316 0.893000
0.019555 -0.016329 0.884000
-0.008846 -0.029494 0.886000
0.042387 -0.007391 0.860000
0.024532 -0.009949 0.867000
-0.008548 -0.010615 0.893000
0.024860 -0.009224 0.866000
0.036595 0.003922 0.857000
0.023036 -0.028959 0.892000
-0.015080 -0.022251 0.888000
0.028801 0.007793 0.856000
-0.039754 0.012414 0.884000
0.002104 -0.024865 0.890000
0.033344 -0.022125 0.883000
-0.033505 -0.006197 0.892000
-0.005240 -0.010982 0.893000
0.043295 -0.014182 0.864000
0.029153 0.006736 0.856000
-0.043687 -0.005451 0.890000
0.027165 -0.003851 0.860000
0.030067 -0.007053 0.862000
-0.032989 -0.014576 0.888000
0.009444 0.011343 0.858000
0.019234 -0.017095 0.886000
-0.015063 -0.024051 0.887000
0.002104 -0.011678 0.890000
0.024560 -0.010317 0.868000
-0.007796 -0.019025 0.891000
0.020716 -0.039019 0.887000
-0.017760 0.006894 0.876000
-0.003273 0.020548 0.859000
0.032137 -0.013206 0.870000
-0.022339 -0.023659 0.886000
-0.000830 -0.013555 0.893000
-0.024190 -0.020765 0.887000
-0.012930 -0.016825 0.891000
0.029810 -0.022201 0.886000
-0.022825 0.017447 0.863000
0.006611 0.012388 0.857000
0.032829 0.015263 0.860000
-0.006613 -0.005027 0.880000
-0.013250 0.012489 0.864000
-0.000091 0.005706 0.860000
0.007582 -0.032119 0.888000
-0.002916 0.011696 0.858000
-0.011718 0.022943 0.856000
-0.032023 0.031973 0.862000
-0.006793 0.015915 0.857000
-0.033175 0.002249 0.893000
-0.032514 0.008057 0.885000
-0.025824 -0.000691 0.893000
0.012608 0.007097 0.857000
-0.040345 -0.010567 0.889000
-0.041808 -0.009469 0.889000
0.052550 -0.003562 0.876000
-0.002649 -0.030622 0.887000
0.034083 -0.016504 0.874000
0.031231 0.000394 0.855000
-0.020668 0.007984 0.877000
-0.006258 -0.005396 0.881000
-0.008190 -0.031600 0.894000
0.026273 0.004612 0.854000
-0.039836 0.004460 0.894000
0.026588 -0.040159 0.888000
0.018421 -0.014114 0.882000
-0.022772 0.019179 0.861000
0.048330 -0.008502 0.865000
-0.015946 0.025761 0.856000
0.005748 -0.011639 0.887000
0.033183 0.014201 0.860000
0.027971 -0.009192 0.863000
0.043088 -0.015658 0.867000
-0.005975 -0.014290 0.893000
-0.029643 0.018556 0.865000
-0.008906 -0.016844 0.892000
0.035931 0.006752 0.858000
0.007249 -0.015375 0.892000
-0.003643 0.005015 0.863000
0.041638 -0.020101 0.874000
-0.021659 -0.019327 0.888000
-0.042588 0.009568 0.890000
0.008294 -0.037152 0.886000
-0.014655 0.014250 0.863000
-0.040568 0.017028 0.878000
0.023790 -0.006373 0.866000
-0.025429 0.013603 0.867000
-0.042174 -0.009835 0.889000
-0.013633 -0.022276 0.889000
0.006106 -0.037516 0.886000
-0.010754 -0.008409 0.893000
0.009441 -0.025626 0.891000
0.021447 -0.040479 0.887000
-0.026485 0.028898 0.855000
-0.018411 -0.017539 0.890000
0.026365 0.010977 0.857000
-0.032258 -0.015306 0.888000
-0.009985 -0.021202 0.890000
-0.020400 0.005120 0.881000
0.031669 -0.023686 0.887000
0.035910 -0.011719 0.866000
-0.002926 0.006421 0.861000
0.030634 0.011696 0.858000
0.006835 -0.037152 0.886000
0.025595 -0.018046 0.879000
0.035266 0.009235 0.859000
-0.043921 0.023224 0.880000
-0.020621 0.009407 0.875000
-0.021634 0.001504 0.887000
-0.032641 0.018641 0.869000
-0.047717 0.017993 0.890000
0.024954 -0.001016 0.857000
0.026687 -0.000662 0.856000
0.030422 -0.006698 0.862000
0.011563 0.007811 0.858000
0.027380 -0.024132 0.890000
-0.018840 -0.005469 0.893000
0.000263 0.007113 0.859000
-0.003403 -0.016863 0.893000
0.020121 -0.025684 0.893000
-0.025811 0.024000 0.856000
0.035619 -0.006675 0.859000
-0.023669 0.026435 0.855000
0.008359 -0.022008 0.893000
0.028319 -0.021083 0.885000
0.019992 0.002861 0.856000
-0.002261 -0.005377 0.878000
-0.006236 -0.003209 0.878000
-0.007070 -0.009134 0.892000
-0.038602 0.007012 0.891000
-0.008194 0.019772 0.856000
-0.042492 -0.011652 0.888000
0.000273 -0.018333 0.893000
0.046460 -0.016787 0.870000
-0.033430 -0.013876 0.890000
0.037235 -0.016466 0.872000
-0.028630 0.027875 0.856000
0.026624 0.004612 0.854000
-0.036135 0.023238 0.867000
0.008492 -0.004607 0.869000
-0.018452 -0.011704 0.892000
0.033222 0.017407 0.861000
-0.004445 -0.006121 0.881000
0.022389 -0.016274 0.881000
0.003949 -0.017598 0.893000
-0.031103 0.020003 0.866000
-0.019914 0.018448 0.860000
0.013339 -0.011573 0.882000
-0.029368 0.026497 0.857000
-0.016076 0.014961 0.863000
0.034186 -0.021836 0.886000
0.024844 -0.032594 0.891000
0.032196 -0.007408 0.862000
0.000272 -0.026301 0.889000
-0.035266 0.017988 0.872000
-0.046199 -0.007640 0.889000
0.025959 -0.011733 0.867000
-0.005768 0.006429 0.862000
0.022327 -0.027522 0.893000
0.002465 -0.029560 0.888000
-0.043369 -0.004723 0.891000
0.023136 0.009192 0.855000
-0.040159 -0.001059 0.893000
-0.027220 0.029637 0.856000
-0.022755 -0.019692 0.888000
0.035143 -0.002776 0.856000
-0.036760 0.012386 0.882000
-0.046618 -0.006183 0.890000
0.020249 -0.004953 0.867000
-0.003021 -0.025203 0.889000
0.015326 -0.027124 0.892000
0.026222 -0.040890 0.888000
0.035702 0.014572 0.861000
-0.001867 0.003950 0.863000
0.002843 -0.021984 0.892000
0.035075 -0.009548 0.863000
-0.024915 0.010115 0.874000
-0.002649 -0.030987 0.887000
0.030881 -0.016163 0.875000
-0.014871 0.023620 0.855000
-0.035873 -0.017115 0.887000
-0.046878 -0.010555 0.888000
0.022511 -0.000311 0.858000
0.003944 -0.014641 0.892000
0.024010 -0.015425 0.874000
0.035676 -0.013548 0.869000
-0.016983 -0.012806 0.892000
-0.040115 0.018792 0.876000
0.027971 -0.009548 0.863000
0.027744 0.007441 0.856000
-0.001859 0.007820 0.859000
-0.038472 0.031841 0.888000
0.014422 0.001812 0.860000
-0.025845 0.012561 0.869000
0.038892 -0.010234 0.861000
-0.038945 0.020188 0.874000
0.003084 0.010624 0.857000
0.033608 -0.013938 0.871000
0.034953 -0.007745 0.860000
-0.040665 -0.013114 0.888000
0.030316 0.014184 0.859000
0.002026 0.016620 0.857000
-0.006785 0.017658 0.856000
0.013218 -0.008590 0.874000
0.004658 -0.031753 0.888000
0.016225 -0.012285 0.881000
0.001007 -0.012438 0.892000
-0.016579 -0.018638 0.890000
0.021729 0.002857 0.855000
0.005560 0.008165 0.858000
-0.007437 -0.017945 0.892000
0.020191 -0.014082 0.880000
0.003084 0.010977 0.857000
0.043448 -0.008807 0.860000
-0.006470 0.007484 0.861000
-0.024217 -0.020058 0.888000
-0.001190 -0.009093 0.888000
-0.023407 0.003686 0.885000
0.014741 -0.010448 0.879000
-0.033365 0.028359 0.860000
-0.029433 0.002611 0.891000
-0.007321 -0.002486 0.878000
0.009444 0.006752 0.858000
0.025100 -0.004215 0.862000
-0.015549 -0.008051 0.894000
-0.026440 -0.016421 0.889000
-0.010673 0.016268 0.857000
-0.029368 0.025791 0.857000
0.042081 -0.010589 0.861000
0.003577 -0.014641 0.892000
0.022669 -0.023819 0.892000
0.017066 -0.016750 0.887000
-0.009489 -0.001402 0.878000
0.029678 -0.029359 0.893000
-0.035013 -0.004366 0.893000
-0.029767 0.003341 0.890000
0.033773 0.005686 0.857000
0.004500 0.009577 0.858000
0.031198 -0.021787 0.884000
0.037561 -0.010968 0.863000
-0.008866 -0.026271 0.888000
-0.011909 0.004340 0.870000
-0.016267 -0.010982 0.893000
-0.032258 -0.014941 0.888000
-0.019079 -0.023686 0.887000
-0.032942 0.012677 0.877000
-0.022799 0.018846 0.862000
0.022918 -0.001727 0.860000
-0.028442 0.022368 0.861000
-0.028382 0.012576 0.870000
-0.020878 0.029637 0.856000
-0.004676 0.014504 0.857000
0.018529 -0.006044 0.870000
0.002478 -0.016495 0.893000
0.051351 -0.006432 0.874000
-0.007421 -0.022667 0.890000
-0.022640 0.023647 0.856000
0.006412 -0.006823 0.878000
0.002033 0.017740 0.860000
-0.008172 -0.017578 0.892000
-0.017456 0.016698 0.861000
0.023840 0.002154 0.855000
-0.016267 -0.012085 0.893000
-0.017253 -0.023321 0.887000
0.029645 -0.031162 0.892000
-0.040114 -0.004362 0.892000
-0.029721 0.028966 0.857000
-0.032258 -0.015672 0.888000
-0.004505 -0.016495 0.893000
0.011941 -0.037881 0.886000
-0.003403 -0.011717 0.893000
0.012313 0.000751 0.861000
-0.045570 -0.003256 0.891000
-0.039468 0.000780 0.894000
-0.033011 0.027297 0.860000
-0.020503 0.012218 0.870000
-0.046878 -0.010190 0.888000
0.018058 -0.013751 0.882000
-0.014030 -0.004357 0.891000
0.048330 -0.010282 0.865000
0.027423 0.010977 0.857000
-0.032222 -0.018210 0.887000
-0.013694 -0.012820 0.893000
0.028648 0.018846 0.862000
-0.010375 -0.015375 0.892000
-0.025459 0.030694 0.856000
-0.013832 0.018715 0.856000
0.014019 0.005333 0.857000
0.026281 -0.034755 0.890000
-0.009651 -0.008409 0.893000
-0.017638 -0.022251 0.888000
0.025660 0.012035 0.857000
-0.019510 -0.025964 0.890000
-0.013357 0.004703 0.871000
0.019648 -0.008212 0.872000
-0.042737 0.019196 0.878000
0.020630 -0.006030 0.868000
-0.018390 -0.019714 0.889000
0.003561 -0.010921 0.888000
-0.011077 0.013154 0.861000
-0.026321 0.005507 0.885000
-0.031522 0.027234 0.858000
-0.009651 -0.009144 0.893000
0.030345 -0.025993 0.891000
0.022881 -0.042986 0.886000
0.006259 0.009566 0.857000
-0.039291 -0.009114 0.890000
0.037648 -0.012418 0.865000
-0.026074 -0.014958 0.889000
-0.011856 -0.013187 0.893000
0.009433 0.009566 0.857000
0.011927 -0.013069 0.885000
0.013953 -0.008960 0.875000
0.000272 -0.023766 0.890000
0.014145 -0.036829 0.887000
-0.029900 -0.003635 0.894000
-0.008481 -0.029129 0.886000
-0.005029 0.020500 0.857000
-0.012625 0.004698 0.870000
-0.029034 -0.012777 0.890000
0.012389 -0.017945 0.892000
0.004853 0.014874 0.858000
0.025126 -0.040525 0.888000
0.037982 -0.022075 0.881000
0.032046 0.009224 0.858000
0.011110 -0.010436 0.878000
-0.020854 0.023268 0.855000
-0.004138 -0.015025 0.893000
-0.010760 0.007510 0.864000
-0.023277 -0.004003 0.894000
-0.010661 0.023295 0.856000
-0.012577 -0.013907 0.892000
-0.010673 0.016973 0.857000
0.028096 0.008850 0.856000
0.017509 -0.029294 0.891000
0.006989 0.004998 0.860000
-0.024381 -0.004371 0.894000
-0.014397 -0.015725 0.891000
0.027971 -0.007061 0.863000
-0.008766 -0.001041 0.878000
0.037609 -0.001015 0.856000
-0.015490 0.008279 0.870000
0.034126 -0.004543 0.857000
0.010151 0.007458 0.858000
-0.022049 -0.017519 0.889000
-0.024610 0.001507 0.889000
-0.025459 0.024352 0.856000
-0.034907 0.017988 0.872000
0.030951 0.007450 0.857000
0.031582 0.003209 0.855000
0.040605 -0.020124 0.875000
-0.013810 0.000765 0.877000
-0.016103 0.000771 0.884000
0.012305 -0.038975 0.886000
-0.040940 0.002620 0.894000
0.034046 -0.001717 0.855000
-0.031893 -0.016768 0.888000
0.031962 -0.022540 0.885000
0.020009 -0.037601 0.888000
0.018934 -0.035082 0.889000
0.046579 -0.021302 0.879000
0.052730 -0.006830 0.879000
-0.037763 0.013807 0.880000
-0.018840 -0.005101 0.893000
-0.011450 -0.020469 0.890000
0.045438 -0.018240 0.871000
0.027008 0.000746 0.855000
0.010882 0.002520 0.860000
-0.014413 -0.005096 0.892000
-0.011425 -0.023347 0.888000
-0.036801 0.011673 0.883000
-0.014548 0.000766 0.878000
-0.009511 -0.003578 0.880000
-0.010235 -0.002854 0.880000
0.026316 0.016101 0.867000
0.023062 -0.027889 0.893000
0.002846 -0.019068 0.893000
0.017104 -0.018251 0.889000
-0.000462 -0.014290 0.893000
-0.005962 -0.019759 0.891000
0.033342 0.000042 0.855000
0.009775 -0.032484 0.888000
-0.004505 -0.012452 0.893000
0.023136 0.002506 0.855000
0.030879 0.004265 0.855000
-0.025004 0.001509 0.890000
-0.023725 0.031082 0.857000
-0.023426 0.020902 0.859000
-0.025312 0.017447 0.863000
-0.037822 0.019087 0.873000
0.045324 -0.011310 0.862000
-0.031677 0.015476 0.872000
-0.002297 -0.020148 0.892000
0.037474 0.014572 0.861000
-0.013679 -0.013540 0.892000
0.021590 -0.014411 0.878000
0.010293 -0.006044 0.870000
0.024503 -0.008868 0.866000
0.014931 -0.005680 0.869000
-0.042375 0.022810 0.878000
-0.045000 -0.012004 0.887000
0.015826 -0.011172 0.879000
0.016132 -0.043103 0.896000
-0.006673 -0.026637 0.888000
-0.036968 -0.015654 0.887000
-0.032697 0.005172 0.890000
0.005383 -0.034273 0.887000
-0.023590 0.014995 0.865000
-0.039390 0.029878 0.884000
-0.023460 -0.020400 0.887000
-0.010308 0.022943 0.856000
-0.024472 0.005137 0.884000
0.005207 0.015580 0.858000
0.022545 -0.011096 0.873000
-0.044270 -0.011639 0.887000
0.006065 -0.010460 0.880000
-0.038585 0.019828 0.874000
0.031601 -0.016163 0.875000
-0.015445 -0.021520 0.888000
-0.024898 0.020596 0.861000
0.029278 -0.032998 0.892000
-0.024306 0.008355 0.878000
-0.014366 0.009321 0.867000
0.037077 0.012431 0.860000
-0.036483 -0.002161 0.893000
-0.047663 -0.007274 0.889000
-0.001194 -0.020859 0.891000
-0.018085 -0.003994 0.892000
-0.019036 0.001501 0.885000
0.003573 -0.024526 0.891000
0.003918 -0.035328 0.886000
0.015240 -0.037559 0.887000
0.023763 -0.006010 0.865000
0.007947 -0.033215 0.888000
-0.006478 0.007138 0.862000
0.036904 -0.001015 0.856000
-0.038255 0.012037 0.883000
0.030879 0.003209 0.855000
0.013415 -0.015289 0.887000
0.027359 0.006025 0.855000
0.010197 -0.019436 0.893000
-0.031386 0.021379 0.864000
-0.008866 -0.024809 0.888000
0.019621 -0.039019 0.887000
-0.019965 -0.008051 0.894000
0.019321 -0.033656 0.890000
-0.030796 -0.016403 0.888000
0.014049 -0.011197 0.881000
0.018952 -0.008221 0.873000
-0.015927 0.025027 0.855000
0.029747 -0.008482 0.863000
0.031486 -0.007408 0.862000
0.012403 -0.020538 0.893000
-0.008153 -0.020836 0.890000
-0.037953 -0.002161 0.893000
-0.031137 0.009428 0.877000
-0.022024 -0.019327 0.888000
0.011563 0.009930 0.858000
-0.043613 0.009264 0.896000
-0.003028 -0.020492 0.891000
-0.007179 0.008547 0.861000
0.033694 0.000394 0.855000
0.018609 -0.031127 0.891000
-0.028982 0.028932 0.856000
-0.012582 0.006466 0.867000
0.050573 -0.007143 0.873000
0.017509 -0.028927 0.891000
0.021552 -0.002796 0.862000
-0.021781 -0.009512 0.893000
-0.018842 0.007254 0.876000
0.036948 0.003922 0.857000
0.025182 -0.034755 0.890000
0.021205 -0.012590 0.877000
-0.019446 0.025027 0.855000
-0.022858 -0.011704 0.892000
0.003944 -0.014274 0.892000
0.003160 -0.008268 0.878000
0.032715 0.006039 0.857000
0.042277 -0.014198 0.865000
-0.036401 0.005912 0.891000
-0.035873 -0.016384 0.887000
0.031267 -0.002072 0.856000
-0.016689 0.018406 0.858000
0.036076 -0.014996 0.870000
-0.039836 0.002252 0.894000
0.042521 -0.017503 0.870000
-0.026470 -0.013876 0.890000
0.010932 -0.020171 0.893000
0.038127 -0.019426 0.876000
0.026780 0.015952 0.859000
-0.028142 0.005872 0.885000
0.031767 0.015263 0.860000
0.001677 0.007820 0.859000
-0.038235 -0.005457 0.891000
0.037785 0.009953 0.860000
0.047261 -0.013486 0.865000
0.046473 -0.020531 0.877000
0.022905 -0.012173 0.873000
0.032829 0.013847 0.860000
0.041872 -0.013826 0.864000
0.032513 0.017407 0.861000
-0.002212 0.008174 0.859000
-0.000091 0.018759 0.858000
-0.023986 -0.002161 0.893000
-0.044283 0.018153 0.880000
-0.017757 -0.009155 0.894000
-0.019444 0.000774 0.887000
-0.005152 -0.004293 0.878000
-0.007813 -0.015760 0.893000
0.008698 -0.028894 0.890000
0.028176 -0.031896 0.892000
0.004870 0.002877 0.861000
-0.038717 0.024949 0.877000
-0.012959 -0.011717 0.893000
0.003210 -0.020515 0.892000
0.005748 -0.011273 0.887000
0.037997 -0.017922 0.873000
0.006273 0.007467 0.859000
0.045132 -0.022749 0.879000
0.039909 -0.008807 0.860000
0.042260 -0.018620 0.872000
-0.000816 -0.005377 0.878000
-0.024583 0.002602 0.888000
-0.004840 -0.029892 0.887000
-0.034645 0.002617 0.893000
-0.029733 0.004435 0.889000
0.033773 0.006744 0.857000
-0.010061 0.006807 0.865000
0.017776 -0.041892 0.886000
0.025348 -0.018491 0.883000
-0.033212 0.001516 0.894000
-0.015463 -0.019349 0.889000
-0.010730 -0.019025 0.891000
-0.042954 0.009568 0.890000
0.018609 -0.020492 0.891000
0.047562 -0.011337 0.864000
0.032638 -0.001717 0.855000
-0.019583 0.018115 0.861000
0.023845 -0.009603 0.868000
-0.002655 -0.024837 0.889000
-0.005761 0.007484 0.861000
-0.044484 0.023329 0.884000
0.014363 -0.010075 0.878000
0.035973 0.009588 0.859000
0.012305 -0.038610 0.886000
-0.026746 -0.020400 0.887000
-0.047556 -0.010543 0.887000
-0.022238 0.005126 0.882000
-0.013967 -0.024781 0.887000
0.036904 -0.002072 0.856000
-0.033205 0.009140 0.884000
0.000269 -0.005377 0.878000
0.006471 -0.036422 0.886000
0.026749 0.013815 0.858000
0.010106 -0.012341 0.885000
0.027260 -0.006351 0.863000
-0.005401 0.007830 0.860000
0.051770 -0.004639 0.875000
-0.014381 -0.017539 0.890000
-0.001924 -0.025203 0.889000
0.032664 -0.010638 0.865000
-0.018249 0.014639 0.865000
0.009830 -0.023111 0.893000
-0.010706 -0.022276 0.889000
-0.011718 0.024000 0.856000
-0.023592 -0.009868 0.892000
0.036766 0.013154 0.861000
0.026316 -0.011733 0.867000
0.000271 -0.031718 0.887000
-0.046408 0.019735 0.886000
0.026334 0.009555 0.856000
-0.026485 0.029250 0.855000
-0.018376 0.010798 0.871000
0.032144 -0.019153 0.880000
-0.039979 -0.009835 0.889000
-0.013127 0.024000 0.856000
0.005017 -0.032448 0.887000
0.004287 -0.034273 0.887000
0.031304 0.009213 0.857000
-0.041937 0.028059 0.884000
-0.024402 0.031046 0.856000
0.013842 -0.005673 0.868000
-0.020145 0.012218 0.870000
0.003790 0.011682 0.857000
-0.001926 -0.009846 0.890000
0.021132 -0.010389 0.874000
0.025126 -0.039428 0.888000
-0.015046 -0.026577 0.886000
