0.008532 0.035615 0.873000
-0.018950 0.005483 0.881000
0.025986 -0.025672 0.880000
0.029834 -0.040338 0.876000
0.014640 0.028788 0.873000
0.030590 0.008706 0.877000
-0.010316 -0.023686 0.887000
0.010971 0.010748 0.867000
0.010908 -0.036261 0.891000
0.006507 -0.037728 0.891000
0.014363 0.035096 0.878000
-0.012640 0.018326 0.871000
0.013064 -0.027002 0.888000
-0.000803 0.040582 0.864000
-0.009221 -0.026607 0.887000
0.010984 0.007545 0.868000
0.006743 0.041411 0.874000
0.009969 0.035615 0.873000
0.045025 -0.003595 0.884000
0.013485 0.023979 0.868000
0.001728 -0.014891 0.885000
-0.029828 0.012372 0.881000
0.041542 -0.016107 0.872000
0.029507 0.010511 0.877000
0.036936 0.005489 0.882000
0.012398 0.008250 0.867000
0.012333 -0.032119 0.888000
-0.009575 -0.005426 0.886000
-0.039619 0.012735 0.881000
-0.002578 0.041600 0.863000
-0.027228 0.014876 0.879000
0.016700 -0.044860 0.887000
0.011739 0.002194 0.871000
0.022931 -0.012187 0.874000
-0.010061 0.029592 0.865000
-0.016526 0.028980 0.868000
0.005774 -0.036628 0.891000
0.035001 -0.009625 0.870000
0.012153 -0.000677 0.875000
-0.024029 0.033982 0.868000
-0.004389 0.016156 0.870000
-0.029533 0.008402 0.883000
-0.005205 -0.012004 0.887000
0.019621 -0.036098 0.887000
-0.025845 0.032233 0.869000
0.029346 -0.034845 0.883000
0.028884 -0.040160 0.880000
-0.004022 0.017906 0.868000
-0.005882 -0.043370 0.879000
0.007200 -0.024753 0.886000
-0.024443 0.029405 0.870000
0.022059 0.001472 0.868000
-0.011764 -0.006155 0.886000
0.013985 0.033973 0.877000
-0.003307 0.018977 0.868000
0.018952 -0.008221 0.873000
-0.035503 0.026510 0.869000
-0.006650 -0.006513 0.885000
0.025632 0.002544 0.868000
0.001350 0.006894 0.876000
0.011302 0.020336 0.865000
0.002040 0.025972 0.863000
0.026528 -0.014346 0.874000
-0.039936 0.018515 0.880000
0.004176 0.032403 0.864000
-0.019628 0.039114 0.863000
0.006758 0.044030 0.876000
0.008125 0.031481 0.868000
0.033287 -0.016825 0.872000
0.019191 -0.029063 0.884000
0.025682 -0.030813 0.882000
0.005975 0.012889 0.867000
0.021374 -0.030155 0.884000
0.004899 0.034616 0.866000
0.007232 -0.041349 0.890000
0.017515 -0.006065 0.873000
-0.023043 -0.001413 0.885000
-0.010368 0.036188 0.861000
0.034443 -0.000676 0.874000
0.003909 -0.011963 0.884000
-0.022138 0.013053 0.878000
0.015394 -0.008960 0.875000
0.006140 -0.035161 0.891000
-0.010282 -0.000684 0.884000
0.014875 -0.032813 0.887000
-0.002590 0.020383 0.867000
0.028159 0.017066 0.880000
0.021727 0.011846 0.869000
0.036601 -0.021540 0.874000
0.008256 -0.017381 0.882000
0.025348 -0.041750 0.883000
0.027829 0.018899 0.881000
0.007885 -0.008296 0.881000
0.018844 0.001829 0.868000
0.008172 0.035974 0.873000
-0.003004 -0.037796 0.884000
0.044047 -0.008639 0.879000
-0.020362 0.038093 0.864000
0.003940 -0.036261 0.891000
0.009409 -0.030657 0.888000
0.025566 -0.020555 0.878000
0.026827 -0.010365 0.872000
-0.015167 0.023730 0.872000
0.040930 -0.002135 0.882000
0.011846 -0.014428 0.879000
0.021010 -0.030155 0.884000
0.018222 -0.040616 0.890000
0.011712 0.005050 0.869000
-0.013204 0.039378 0.861000
0.041372 -0.008970 0.876000
0.026139 -0.012173 0.873000
0.022491 -0.033467 0.885000
0.036476 -0.010353 0.871000
-0.018993 -0.010859 0.883000
0.006120 -0.028464 0.888000
0.035522 -0.002475 0.874000
0.008191 0.040378 0.875000
-0.031385 0.005865 0.884000
0.020623 -0.021762 0.883000
-0.016140 -0.008343 0.886000
0.007037 0.014656 0.866000
0.020122 -0.015839 0.877000
-0.033675 0.027909 0.868000
0.021418 -0.047636 0.871000
-0.027684 -0.001045 0.882000
0.010663 0.003269 0.871000
0.014379 -0.015513 0.879000
-0.030951 0.009845 0.882000
-0.019273 0.038759 0.863000
0.026802 -0.032665 0.883000
-0.041023 0.016342 0.880000
0.017254 0.030760 0.878000
-0.000092 0.020359 0.866000
0.002406 0.016458 0.867000
0.025449 0.013353 0.874000
0.003134 0.043420 0.871000
-0.020621 0.018770 0.875000
-0.005570 -0.012734 0.887000
-0.010585 -0.034326 0.879000
0.021812 -0.036463 0.887000
0.001726 -0.009416 0.884000
0.022059 0.002544 0.868000
-0.011270 -0.038175 0.876000
-0.026622 0.029439 0.871000
-0.005835 0.014758 0.872000
0.004893 0.018556 0.865000
-0.017519 0.005852 0.882000
0.034083 -0.020101 0.874000
-0.002998 -0.039888 0.882000
0.003477 0.015744 0.867000
0.002817 -0.009780 0.884000
-0.027983 0.011634 0.880000
-0.023717 -0.005408 0.883000
0.036615 0.008402 0.883000
0.005774 -0.033694 0.891000
0.015646 0.002547 0.869000
0.015658 -0.038785 0.890000
0.021084 -0.047691 0.872000
0.012441 0.027615 0.870000
0.032928 -0.015031 0.872000
-0.017720 0.015871 0.874000
0.042309 -0.015048 0.873000
-0.000094 -0.027795 0.890000
0.027639 -0.017963 0.875000
0.028287 -0.038887 0.884000
-0.011322 -0.039435 0.880000
-0.022243 0.032196 0.868000
-0.012436 0.003674 0.882000
-0.020833 -0.001412 0.884000
-0.001544 0.009471 0.881000
0.035841 -0.019360 0.873000
-0.000801 0.029135 0.862000
0.012727 -0.039517 0.890000
0.015271 0.004687 0.868000
-0.019765 0.028656 0.869000
-0.026024 0.023452 0.875000
-0.023583 0.018473 0.878000
0.014526 -0.034312 0.888000
-0.016140 -0.010167 0.886000
0.007021 0.022801 0.864000
-0.010356 0.038624 0.860000
0.025176 -0.019087 0.877000
-0.018286 -0.001048 0.884000
0.005346 0.001857 0.881000
-0.036397 0.008756 0.882000
0.048136 -0.013373 0.881000
-0.006116 0.036188 0.861000
0.002040 0.032010 0.863000
-0.006229 -0.041828 0.877000
-0.000091 0.036983 0.863000
0.034723 -0.003187 0.872000
0.000639 -0.027429 0.890000
0.013248 0.033935 0.876000
0.042286 -0.005027 0.880000
0.017813 0.019021 0.870000
-0.013133 0.008012 0.880000
0.027797 0.017429 0.880000
-0.009940 -0.009073 0.886000
0.023623 -0.010736 0.873000
-0.009211 -0.005426 0.886000
-0.003660 0.020740 0.867000
-0.030460 0.030052 0.868000
-0.005935 -0.014194 0.887000
-0.013118 -0.035773 0.879000
0.013173 0.000760 0.871000
-0.008972 0.031300 0.863000
0.016854 -0.011855 0.876000
0.034161 -0.038535 0.876000
-0.007770 -0.020423 0.888000
0.012570 -0.015513 0.879000
0.019191 -0.030155 0.884000
-0.031605 0.014893 0.880000
0.035202 0.000043 0.875000
0.032853 -0.007835 0.870000
0.003541 -0.009769 0.883000
-0.012479 -0.032375 0.885000
0.000271 -0.009791 0.885000
-0.015544 0.017290 0.873000
-0.010669 -0.012355 0.886000
-0.031350 0.005495 0.883000
-0.007691 -0.037944 0.879000
0.025003 -0.008202 0.871000
-0.028708 0.011996 0.880000
0.011658 0.018556 0.865000
0.047572 -0.007597 0.884000
-0.030588 0.002222 0.882000
0.015664 0.001475 0.870000
0.012627 -0.021035 0.883000
0.040295 0.003318 0.884000
0.026346 0.000757 0.868000
-0.016262 0.024836 0.873000
0.039750 -0.021688 0.880000
0.012785 0.025795 0.869000
-0.014681 -0.008343 0.886000
-0.017943 -0.005056 0.885000
-0.034141 0.017066 0.880000
0.025147 0.016268 0.876000
0.042454 -0.009691 0.876000
0.024175 -0.024948 0.880000
0.028165 -0.002461 0.869000
0.006820 -0.020331 0.884000
-0.000094 -0.028162 0.890000
-0.014316 -0.012719 0.886000
0.002757 0.019624 0.865000
0.021877 -0.013642 0.875000
-0.002572 0.034062 0.861000
-0.004807 -0.038755 0.881000
-0.024687 0.037468 0.866000
-0.027019 -0.000320 0.884000
0.012014 0.021404 0.865000
-0.010130 0.016533 0.871000
0.041901 -0.018261 0.872000
-0.030259 0.007312 0.883000
0.011237 -0.027002 0.888000
-0.014648 0.002591 0.884000
0.039748 -0.016107 0.872000
0.013937 0.030620 0.874000
-0.036676 0.017791 0.880000
0.013749 -0.022904 0.885000
0.030195 0.009057 0.876000
-0.032961 0.028266 0.868000
0.032543 -0.032228 0.881000
-0.027715 0.006222 0.883000
0.017874 0.023039 0.873000
0.008116 0.011819 0.867000
0.000618 0.031264 0.862000
0.016681 0.006823 0.867000
-0.028957 0.036212 0.845000
0.009155 0.023868 0.864000
0.013858 0.004693 0.869000
0.023845 0.006831 0.868000
0.009775 -0.030657 0.888000
-0.002646 -0.009802 0.886000
-0.011498 0.027488 0.866000
-0.007271 0.015117 0.872000
-0.012140 0.038315 0.861000
-0.009370 0.042864 0.867000
-0.017537 0.034576 0.865000
0.029013 -0.013970 0.873000
0.020260 -0.027213 0.883000
0.004273 -0.013418 0.884000
0.031420 -0.008551 0.870000
0.022237 -0.013642 0.875000
0.014879 0.018221 0.866000
0.022364 0.025035 0.880000
0.012413 0.007545 0.868000
0.019671 -0.008940 0.873000
0.009533 0.026419 0.866000
0.014540 0.007536 0.867000
0.015949 0.013587 0.866000
0.023131 0.008974 0.868000
-0.009586 -0.023321 0.887000
-0.038531 0.018174 0.881000
0.019599 -0.044080 0.886000
0.021877 -0.012922 0.875000
0.035563 -0.022645 0.875000
-0.000451 0.049571 0.872000
0.021727 -0.001388 0.869000
0.014161 -0.032850 0.888000
0.011628 -0.035488 0.890000
-0.015080 0.028590 0.867000
-0.011764 -0.013449 0.886000
-0.020128 -0.006877 0.885000
0.014379 -0.016598 0.879000
0.018442 -0.020308 0.883000
-0.002658 -0.025231 0.890000
0.015592 0.015013 0.866000
-0.008280 0.028168 0.865000
-0.010405 0.032047 0.864000
-0.042375 0.021364 0.878000
0.016437 -0.005347 0.873000
0.035841 -0.004269 0.873000
0.030695 -0.029656 0.880000
0.024175 -0.043420 0.880000
0.009566 0.031517 0.869000
0.001370 -0.037643 0.889000
0.002092 -0.019262 0.885000
-0.002241 0.049816 0.870000
-0.032330 0.014893 0.880000
-0.009489 0.009439 0.878000
-0.018080 0.018029 0.874000
0.021105 -0.042718 0.888000
-0.021578 0.027615 0.870000
0.028651 -0.038159 0.884000
-0.025756 0.037111 0.866000
0.021492 -0.010749 0.874000
0.023488 -0.000672 0.868000
-0.031031 0.032047 0.864000
0.016663 -0.027639 0.885000
-0.026203 0.031875 0.869000
-0.006650 -0.032010 0.885000
0.021345 0.001115 0.868000
-0.012909 0.030660 0.865000
0.008678 -0.041256 0.888000
-0.024658 0.038493 0.865000
0.005612 0.016082 0.866000
0.009980 0.002202 0.874000
0.037997 -0.020797 0.873000
0.033927 -0.011415 0.870000
-0.002228 0.043121 0.865000
-0.032942 0.021340 0.877000
0.010602 0.025706 0.866000
0.036449 0.003299 0.879000
-0.020692 0.011607 0.878000
0.026741 0.020349 0.881000
0.032506 0.010547 0.880000
-0.024772 0.031875 0.869000
0.012042 0.008607 0.867000
-0.011551 0.021169 0.870000
-0.034457 0.032303 0.852000
0.002750 0.026682 0.863000
0.036241 -0.021900 0.874000
0.021108 -0.008221 0.873000
0.005237 0.028458 0.863000
0.025989 0.002186 0.868000
0.025740 -0.034885 0.884000
0.005657 0.040286 0.873000
0.013922 -0.002113 0.873000
0.035444 -0.032953 0.881000
-0.010095 0.023979 0.868000
0.021812 -0.037924 0.887000
-0.016337 0.010511 0.877000
-0.025964 0.025195 0.873000
-0.003989 0.039378 0.861000
-0.022885 0.042824 0.852000
0.035685 -0.037539 0.878000
0.001739 -0.035528 0.891000
0.033325 0.000043 0.873000
0.031420 -0.008909 0.870000
-0.025506 -0.005039 0.882000
0.023900 -0.005686 0.870000
-0.019268 0.008003 0.879000
0.027123 -0.007835 0.870000
0.018529 0.019021 0.870000
-0.012843 -0.014891 0.885000
-0.025564 -0.001776 0.884000
0.011237 -0.041621 0.888000
0.011995 -0.036587 0.890000
0.023900 -0.046149 0.870000
-0.014638 0.038714 0.862000
-0.018928 0.007649 0.880000
-0.001552 -0.012355 0.886000
-0.032566 0.030731 0.867000
-0.029677 0.033547 0.866000
0.007513 -0.006476 0.880000
-0.008626 0.030625 0.864000
-0.020215 0.025913 0.873000
0.043372 -0.006476 0.880000
-0.013715 0.019043 0.871000
0.041638 -0.011828 0.874000
0.026134 -0.037110 0.885000
0.032853 -0.006402 0.870000
-0.023315 0.031838 0.868000
-0.025781 0.016685 0.879000
-0.012924 0.029270 0.866000
-0.002243 0.014383 0.871000
0.004887 0.032047 0.864000
-0.008856 -0.014559 0.887000
0.041971 -0.002857 0.881000
0.021132 -0.010749 0.874000
-0.034621 0.007312 0.883000
0.027807 -0.043950 0.869000
-0.023341 0.029729 0.869000
0.021877 -0.046414 0.875000
-0.029862 0.000407 0.882000
0.005237 0.027393 0.863000
0.020413 -0.010389 0.874000
-0.007031 -0.014194 0.887000
-0.002274 -0.039206 0.883000
-0.023208 0.041022 0.851000
-0.039619 0.022320 0.873000
0.028159 -0.027483 0.880000
-0.014944 0.008374 0.880000
-0.009660 0.035834 0.861000
-0.039574 0.010185 0.880000
0.028851 -0.027090 0.879000
0.019851 -0.019174 0.881000
0.013453 0.020003 0.866000
-0.031385 0.006593 0.884000
0.001685 0.033786 0.863000
0.008972 -0.013735 0.881000
0.024645 -0.006768 0.871000
0.023840 -0.043469 0.881000
0.009441 -0.042495 0.891000
0.027011 -0.022723 0.878000
-0.031375 0.032731 0.854000
0.022466 -0.031974 0.884000
-0.032293 0.018494 0.879000
0.021105 -0.042352 0.888000
0.024398 0.015889 0.875000
-0.020621 0.023452 0.875000
0.042619 -0.016825 0.872000
0.015253 0.006823 0.867000
0.042961 -0.006469 0.879000
-0.018830 0.044590 0.859000
-0.009586 -0.016384 0.887000
-0.018830 0.044943 0.859000
0.000264 0.036983 0.863000
-0.024471 0.027647 0.871000
0.025449 0.013713 0.874000
-0.001186 -0.010155 0.885000
0.032247 -0.016844 0.873000
0.018822 0.006823 0.867000
-0.001926 -0.032191 0.890000
-0.032867 0.024892 0.875000
-0.001510 0.030909 0.862000
-0.025130 0.032590 0.869000
-0.017175 0.004041 0.883000
-0.008135 -0.020789 0.888000
-0.001876 0.020026 0.867000
0.033230 -0.031467 0.880000
0.034842 0.000763 0.875000
0.025868 -0.019066 0.876000
0.012902 -0.008981 0.877000
0.041685 -0.010401 0.875000
0.032681 -0.020484 0.875000
0.008444 0.020668 0.864000
-0.007171 0.040748 0.860000
0.022907 -0.038289 0.887000
-0.033644 0.001502 0.886000
-0.028313 0.018494 0.879000
0.015646 0.021860 0.869000
-0.028346 0.011996 0.880000
-0.011296 -0.035371 0.878000
0.013485 0.006116 0.868000
0.010209 -0.043374 0.894000
0.005389 -0.026271 0.888000
0.004273 -0.016329 0.884000
0.002462 -0.022226 0.887000
0.002398 0.022801 0.864000
0.005774 -0.037361 0.891000
0.000985 0.012246 0.872000
-0.011034 -0.009437 0.886000
-0.000825 -0.022251 0.888000
-0.012858 -0.005061 0.886000
-0.037018 0.024779 0.871000
0.008921 0.040785 0.876000
0.002459 -0.020742 0.886000
-0.027665 0.030479 0.870000
0.018827 -0.026517 0.884000
0.011968 -0.029926 0.888000
0.031057 -0.029294 0.880000
-0.001530 0.012978 0.873000
0.024946 0.006123 0.869000
0.038839 0.005137 0.884000
-0.025419 0.019580 0.879000
0.006735 0.040286 0.873000
0.008313 -0.040890 0.888000
0.013562 0.029866 0.873000
0.020319 -0.002464 0.870000
-0.012785 0.006933 0.881000
0.013430 -0.028829 0.888000
0.002456 -0.015255 0.885000
-0.001194 -0.032227 0.891000
0.018505 -0.033505 0.886000
0.024203 0.023613 0.881000
-0.000822 -0.009063 0.885000
0.003138 0.044905 0.872000
0.012398 0.023951 0.867000
-0.017214 -0.006513 0.885000
-0.000091 0.034457 0.862000
0.013079 -0.041668 0.889000
0.024917 0.004687 0.868000
0.005034 -0.038052 0.890000
0.026802 -0.031938 0.883000
0.028287 -0.035976 0.884000
0.034763 -0.019000 0.873000
-0.028442 0.000770 0.883000
-0.000801 0.031618 0.862000
0.007224 -0.029960 0.889000
0.043846 -0.012922 0.875000
0.024732 -0.038654 0.887000
-0.007879 0.041456 0.860000
0.028295 -0.013970 0.873000
-0.024389 0.007658 0.881000
0.004205 0.011143 0.870000
0.017394 0.006466 0.867000
-0.005868 -0.042189 0.877000
0.044257 -0.013297 0.876000
0.007804 0.005427 0.872000
-0.003643 0.028103 0.863000
0.019892 0.005752 0.867000
-0.020668 0.013399 0.877000
-0.026988 0.005132 0.883000
-0.017214 -0.010520 0.885000
0.041733 -0.020147 0.876000
-0.016085 0.005132 0.883000
0.030845 -0.018662 0.874000
0.018359 0.030795 0.879000
0.016096 -0.006432 0.874000
0.007840 0.001846 0.876000
-0.005583 -0.028862 0.889000
-0.015757 -0.004327 0.885000
-0.015167 0.021218 0.872000
-0.019742 -0.009052 0.884000
0.020773 -0.047440 0.874000
0.018150 0.001474 0.869000
-0.005862 0.011220 0.876000
0.021156 -0.013642 0.875000
0.010834 -0.023268 0.885000
0.019581 -0.001030 0.869000
0.013082 0.012859 0.865000
0.022059 0.008260 0.868000
0.017816 -0.036505 0.888000
0.023272 -0.040844 0.887000
0.024367 -0.039019 0.887000
0.009889 0.026775 0.866000
0.019191 -0.021423 0.884000
-0.037443 0.008746 0.881000
-0.033675 0.028623 0.868000
0.039389 -0.019337 0.872000
-0.015012 0.002591 0.884000
-0.016262 0.018368 0.873000
0.039434 -0.010018 0.873000
0.008088 0.021023 0.864000
0.018974 -0.009669 0.874000
-0.031801 0.032455 0.856000
0.013097 0.010736 0.866000
0.013263 -0.011507 0.877000
-0.027715 0.006585 0.883000
0.029279 0.016361 0.881000
-0.000449 0.044699 0.868000
-0.012465 -0.017421 0.884000
0.008830 0.028947 0.867000
0.001367 -0.022591 0.887000
0.000990 0.007262 0.877000
-0.005205 -0.014924 0.887000
-0.003025 -0.025231 0.890000
-0.020493 -0.004692 0.885000
0.019919 -0.028700 0.884000
0.001333 0.021404 0.865000
-0.002644 -0.008334 0.885000
-0.022473 0.022062 0.877000
0.038356 -0.021156 0.873000
-0.014672 0.034892 0.864000
0.009720 -0.019945 0.883000
-0.040344 0.015273 0.881000
0.009023 -0.024024 0.886000
0.018087 0.010736 0.866000
0.034122 -0.022645 0.875000
0.010003 0.039703 0.876000
0.029630 -0.008909 0.870000
-0.021049 0.040535 0.863000
0.008698 -0.038418 0.890000
0.004191 0.015387 0.867000
0.015628 0.004330 0.868000
-0.002575 0.029490 0.862000
-0.033167 0.006222 0.883000
-0.028442 0.039378 0.861000
-0.034907 0.028396 0.872000
0.004200 0.011488 0.869000
0.022416 -0.001029 0.868000
-0.025057 0.011982 0.879000
0.005243 0.029914 0.864000
0.031778 -0.006044 0.870000
0.009709 -0.019196 0.882000
-0.017639 0.027973 0.870000
-0.013936 -0.000685 0.885000
-0.006144 0.026032 0.865000
0.021541 -0.015460 0.876000
-0.024858 0.025525 0.872000
0.006673 0.029948 0.865000
-0.021488 0.006208 0.881000
0.023141 -0.028635 0.882000
0.022494 0.014024 0.871000
-0.018224 0.005845 0.881000
0.003927 -0.025540 0.888000
-0.001547 -0.040297 0.883000
-0.035549 0.019580 0.879000
-0.039256 0.011647 0.881000
0.006303 0.023485 0.863000
-0.018670 0.029338 0.868000
0.025275 -0.001743 0.868000
-0.034865 0.018153 0.880000
0.013278 -0.011882 0.878000
0.040107 -0.016107 0.872000
0.021326 -0.025367 0.882000
0.027924 -0.036704 0.884000
-0.000806 0.045771 0.868000
-0.000093 0.008686 0.875000
0.012741 0.021429 0.866000
-0.006605 -0.039752 0.879000
0.015017 -0.005712 0.874000
0.003473 0.017864 0.866000
0.009155 0.021379 0.864000
-0.025101 0.034339 0.868000
0.029954 -0.006037 0.869000
-0.009138 -0.035773 0.879000
0.004637 -0.015601 0.884000
0.032966 -0.017204 0.873000
-0.040615 0.018132 0.879000
-0.038125 0.019240 0.880000
-0.018545 0.008726 0.879000
-0.040384 0.021627 0.874000
0.011148 -0.017724 0.881000
-0.015437 0.028947 0.867000
-0.019653 0.006563 0.880000
-0.005761 0.041504 0.861000
-0.015939 0.013728 0.875000
-0.011309 -0.033602 0.879000
0.009293 -0.001401 0.877000
0.001370 -0.036912 0.889000
0.042648 -0.005027 0.880000
0.000623 0.043628 0.868000
-0.014333 0.032440 0.865000
-0.001867 0.040535 0.863000
-0.016641 0.016590 0.874000
-0.031895 0.019557 0.878000
-0.025934 0.026961 0.872000
0.030695 0.013445 0.880000
0.003465 0.033114 0.864000
0.026259 0.016286 0.877000
0.015570 -0.022904 0.885000
-0.020409 0.033904 0.866000
-0.004720 0.025676 0.865000
-0.029165 0.028396 0.872000
0.006500 -0.038785 0.890000
-0.006137 0.027424 0.864000
-0.003334 0.011207 0.875000
0.011009 0.004340 0.870000
-0.020083 -0.010132 0.883000
-0.030519 0.014169 0.880000
0.008266 -0.019581 0.883000
0.040558 -0.010029 0.874000
-0.027019 0.001499 0.884000
0.030091 0.005433 0.873000
-0.010002 0.040040 0.860000
0.003549 -0.013069 0.885000
-0.001872 0.022116 0.865000
0.018870 -0.032411 0.886000
0.042863 -0.009342 0.877000
-0.009918 -0.029791 0.884000
-0.001917 -0.036787 0.886000
0.002467 -0.039839 0.889000
0.029406 -0.017224 0.874000
0.037193 -0.016089 0.871000
0.026468 -0.035249 0.884000
0.000271 -0.015272 0.886000
0.005663 0.043570 0.874000
-0.023195 0.017730 0.877000
0.030195 0.007975 0.876000
-0.018328 -0.013449 0.886000
-0.007603 0.020072 0.869000
0.014097 -0.022150 0.884000
0.024649 -0.034157 0.884000
0.004273 -0.015965 0.884000
0.016493 -0.012215 0.876000
-0.009359 0.026775 0.866000
-0.004698 0.037960 0.861000
0.014925 -0.040616 0.890000
0.003106 0.033076 0.863000
0.005670 0.044340 0.875000
-0.016467 -0.014146 0.884000
0.008341 -0.034794 0.891000
0.026016 0.021437 0.881000
-0.001156 0.038004 0.862000
-0.010142 0.015117 0.872000
0.036601 -0.022260 0.874000
0.022177 -0.037924 0.887000
-0.005094 0.019335 0.868000
0.032853 -0.006044 0.870000
0.009544 0.010391 0.867000
0.016317 -0.029129 0.886000
0.021827 0.016931 0.873000
-0.013222 -0.002509 0.886000
0.035563 -0.023005 0.875000
-0.007229 0.023238 0.867000
-0.016486 -0.010884 0.885000
0.000264 0.033747 0.862000
0.024560 0.001115 0.868000
0.021467 -0.009658 0.873000
0.005989 0.009700 0.869000
0.039434 -0.021156 0.873000
0.039030 -0.020414 0.872000
-0.029037 0.015962 0.879000
0.027042 0.017409 0.879000
-0.011418 0.041102 0.860000
0.007167 -0.014114 0.882000
-0.024580 0.041673 0.850000
-0.023699 0.031160 0.869000
-0.001517 0.020359 0.866000
0.021277 0.027208 0.880000
-0.001561 -0.030760 0.891000
0.031778 -0.004612 0.870000
0.007768 0.010046 0.868000
0.010458 -0.022514 0.884000
0.030704 -0.041494 0.870000
0.008256 -0.004676 0.882000
-0.009929 -0.002870 0.885000
-0.004856 -0.028162 0.890000
0.046632 -0.011547 0.880000
0.015271 0.005402 0.868000
0.030704 -0.003180 0.870000
0.004234 0.004009 0.876000
-0.039256 0.010196 0.881000
0.031419 -0.031105 0.880000
0.011085 0.037179 0.876000
0.021422 -0.034599 0.886000
-0.011064 0.040748 0.860000
0.029440 0.008326 0.875000
-0.008666 0.022907 0.868000
-0.037763 0.018515 0.880000
-0.002658 -0.025964 0.890000
0.041467 -0.006100 0.878000
-0.021751 0.020257 0.877000
0.004542 0.015726 0.866000
0.011698 0.025765 0.868000
0.018572 -0.004982 0.872000
-0.031137 0.021340 0.877000
0.021326 -0.025730 0.882000
0.008116 0.012175 0.867000
0.000271 -0.013084 0.886000
0.025838 -0.016163 0.875000
-0.007726 -0.033028 0.883000
0.024984 -0.031211 0.883000
0.022491 -0.032739 0.885000
0.012785 0.005050 0.869000
0.004542 0.034616 0.866000
-0.015739 0.001499 0.884000
0.005046 -0.035200 0.892000
-0.017340 0.024117 0.873000
0.040204 -0.001045 0.882000
0.039748 -0.011083 0.872000
-0.007179 0.034417 0.861000
-0.019340 0.034260 0.866000
0.042526 0.001501 0.885000
0.046941 -0.012619 0.879000
0.000627 0.010115 0.874000
0.017234 0.029281 0.877000
-0.009839 0.011594 0.877000
-0.015366 0.036628 0.863000
0.022110 0.013650 0.870000
-0.008846 -0.010167 0.886000
0.008600 -0.003216 0.880000
0.015223 -0.024389 0.886000
0.029246 -0.028932 0.880000
0.008313 -0.040525 0.888000
-0.000091 0.028780 0.862000
-0.017221 0.030017 0.867000
-0.012493 -0.007614 0.886000
0.011161 -0.019922 0.882000
0.036490 0.003665 0.880000
-0.024472 -0.002139 0.884000
-0.020076 0.032872 0.867000
-0.026143 0.019218 0.879000
-0.000825 -0.036139 0.888000
0.001334 0.019646 0.866000
0.033723 0.001122 0.874000
0.008551 0.040378 0.875000
-0.018864 0.011233 0.877000
0.021467 -0.047027 0.873000
0.032210 -0.015748 0.872000
0.004944 0.007597 0.874000
-0.006244 -0.040114 0.879000
0.028914 -0.008909 0.870000
-0.027684 -0.001408 0.882000
-0.019764 -0.003963 0.885000
-0.021098 0.036001 0.865000
-0.007943 0.023951 0.867000
-0.021366 0.019513 0.876000
-0.004840 -0.010178 0.887000
0.014914 0.004687 0.868000
-0.029432 0.013807 0.880000
-0.018629 -0.011586 0.883000
-0.023235 0.043174 0.852000
0.008322 -0.039839 0.889000
-0.036232 0.022087 0.878000
0.005954 0.020668 0.864000
-0.041023 0.013807 0.880000
-0.011764 -0.011990 0.886000
0.001006 -0.032961 0.891000
0.016550 -0.016960 0.879000
0.040558 -0.009310 0.874000
0.009731 -0.022514 0.884000
0.003573 -0.031494 0.891000
0.014640 -0.003191 0.873000
-0.000801 0.037295 0.862000
0.020701 -0.004259 0.871000
-0.019159 0.019468 0.874000
0.003106 0.030234 0.863000
0.011302 0.022472 0.865000
-0.015348 0.038004 0.862000
0.003149 0.007606 0.875000
-0.026143 0.019580 0.879000
0.009577 0.031912 0.870000
-0.008462 -0.031246 0.884000
-0.005909 -0.034845 0.883000
0.044927 -0.015443 0.875000
-0.014058 0.025824 0.870000
0.027466 -0.029327 0.881000
0.015288 0.002547 0.869000
0.001339 0.013992 0.869000
-0.018439 0.016590 0.874000
0.027871 -0.010353 0.871000
-0.031895 0.019919 0.878000
0.029630 0.000043 0.870000
-0.022834 0.014121 0.877000
0.007741 0.016776 0.865000
0.007732 0.021023 0.864000
0.002757 0.036001 0.865000
-0.016067 0.006578 0.882000
0.001365 -0.014907 0.886000
0.001001 -0.021861 0.887000
0.016317 -0.030223 0.886000
0.022774 0.002544 0.868000
-0.010200 0.011233 0.877000
-0.005564 -0.007979 0.886000
0.010305 0.004345 0.871000
-0.035902 0.025466 0.870000
0.026016 -0.041656 0.881000
0.028982 -0.034845 0.883000
-0.002940 0.024608 0.865000
-0.015376 0.002954 0.884000
-0.030888 0.029405 0.870000
0.032543 -0.033679 0.881000
-0.029305 0.035864 0.845000
-0.016121 -0.001778 0.885000
0.043585 -0.010424 0.877000
0.002412 0.042247 0.869000
0.023184 -0.004254 0.870000
0.021320 0.005395 0.867000
0.001685 0.034141 0.863000
-0.006463 0.037208 0.860000
-0.002233 0.019312 0.867000
0.016700 0.004687 0.868000
0.013112 0.008964 0.867000
0.032180 0.012372 0.881000
0.028295 -0.014329 0.873000
-0.001874 0.044596 0.866000
0.012726 0.015351 0.865000
0.040021 -0.001780 0.886000
0.018887 -0.000673 0.870000
0.017895 -0.008230 0.874000
-0.001190 -0.023347 0.888000
0.003909 -0.014874 0.884000
-0.023583 0.019196 0.878000
-0.030671 0.026663 0.874000
-0.007031 -0.010543 0.887000
-0.011843 -0.039973 0.892000
0.004916 0.011131 0.869000
0.005358 -0.014493 0.883000
0.014330 -0.008970 0.876000
-0.006151 0.023211 0.866000
-0.020446 -0.010132 0.883000
0.007232 -0.038785 0.890000
-0.004124 -0.029261 0.890000
-0.011399 -0.003968 0.886000
0.011098 -0.002483 0.877000
-0.026045 -0.006169 0.888000
-0.030390 0.030696 0.866000
0.003865 0.045728 0.874000
-0.010223 -0.034687 0.879000
0.029919 -0.043899 0.868000
0.004595 0.004370 0.876000
0.005006 -0.021083 0.885000
0.032321 -0.020484 0.875000
-0.001523 0.015422 0.869000
0.019581 0.015422 0.869000
-0.008776 -0.036496 0.879000
0.030126 -0.017224 0.874000
0.032495 -0.004970 0.870000
-0.000801 0.036230 0.862000
0.001342 0.046288 0.871000
0.040744 -0.005377 0.878000
0.008247 -0.015548 0.881000
-0.016825 0.034576 0.865000
-0.025781 0.015962 0.879000
-0.000801 0.033747 0.862000
-0.007761 -0.015654 0.887000
-0.007046 -0.026301 0.889000
0.027560 -0.035249 0.884000
0.001330 0.025617 0.863000
-0.028740 0.011284 0.881000
-0.003338 0.010139 0.876000
-0.001872 0.043477 0.865000
-0.007023 -0.008708 0.886000
0.026377 -0.005680 0.869000
-0.020810 -0.008315 0.883000
-0.024001 0.035727 0.867000
-0.019742 0.030052 0.868000
0.005358 -0.016674 0.883000
-0.042062 0.013068 0.879000
0.020623 -0.028667 0.883000
0.030160 0.006886 0.875000
0.026559 -0.016883 0.875000
0.007377 0.023868 0.864000
-0.020339 0.039469 0.863000
-0.011399 -0.006155 0.886000
0.017895 -0.008590 0.874000
-0.005064 0.029879 0.863000
0.009555 0.029695 0.868000
0.002750 0.030234 0.863000
0.010222 0.017467 0.864000
-0.030733 0.034513 0.846000
0.011034 0.033062 0.872000
0.008952 -0.005383 0.879000
-0.024687 0.037111 0.866000
-0.001161 0.020003 0.866000
0.019311 0.020883 0.873000
0.042260 -0.017543 0.872000
-0.037358 0.020303 0.879000
0.021802 -0.007853 0.872000
0.033325 -0.000316 0.873000
0.020191 -0.018428 0.880000
0.027576 -0.013251 0.873000
0.008125 0.010046 0.868000
-0.018307 -0.005420 0.885000
0.022852 -0.005693 0.871000
0.010871 -0.029195 0.888000
0.015952 -0.025847 0.886000
-0.007171 0.043226 0.860000
0.027279 -0.017603 0.875000
0.016661 0.015726 0.866000
-0.004110 -0.018210 0.887000
0.005255 0.033904 0.866000
0.011698 0.006831 0.868000
-0.040299 0.016704 0.880000
0.003131 0.011501 0.870000
-0.001531 0.011554 0.874000
0.017027 -0.028732 0.885000
0.022905 0.015493 0.873000
0.026680 -0.024919 0.879000
0.004215 0.042752 0.872000
-0.020128 -0.005784 0.885000
-0.017136 0.006570 0.881000
-0.008071 -0.035492 0.881000
-0.031066 0.024892 0.875000
-0.008232 0.039686 0.860000
0.015240 -0.031718 0.887000
-0.010972 0.005845 0.881000
-0.004780 0.010139 0.876000
0.013324 -0.019174 0.881000
-0.035711 0.011310 0.883000
0.024588 -0.002461 0.869000
0.010871 -0.041987 0.888000
0.007911 -0.001412 0.884000
-0.014648 -0.014510 0.884000
0.002099 -0.024444 0.888000
-0.015526 0.018347 0.872000
0.016305 0.013231 0.866000
-0.015526 0.023730 0.872000
0.009324 -0.011547 0.880000
-0.006165 0.020406 0.868000
0.016151 -0.014034 0.877000
0.020053 0.020907 0.874000
-0.032619 0.031862 0.859000
-0.003361 -0.039525 0.882000
-0.029533 0.006585 0.883000
-0.017000 0.016590 0.874000
0.030775 -0.015031 0.872000
-0.004040 0.014758 0.872000
0.021902 0.020955 0.876000
-0.043509 0.015962 0.879000
0.014909 -0.035814 0.889000
0.031420 -0.001747 0.870000
0.002470 -0.028528 0.890000
0.019961 0.016514 0.870000
-0.005420 0.046218 0.863000
0.012499 -0.000676 0.874000
-0.032367 0.014548 0.881000
0.014879 0.012874 0.866000
0.003113 0.019980 0.865000
-0.005141 0.010139 0.876000
0.023291 0.016950 0.874000
0.030881 0.006165 0.875000
0.008182 0.039253 0.874000
0.015236 0.017151 0.866000
0.037235 -0.019696 0.872000
0.009074 -0.036628 0.891000
-0.007187 0.032683 0.862000
0.026049 0.007563 0.870000
-0.013043 0.014432 0.874000
-0.009727 0.023951 0.867000
-0.021404 0.040535 0.863000
-0.041653 0.017389 0.878000
-0.011498 0.028201 0.866000
-0.020645 0.020955 0.876000
-0.003999 0.029169 0.863000
-0.015702 0.038004 0.862000
0.038084 -0.005359 0.875000
0.029113 0.010139 0.876000
0.002456 -0.011612 0.885000
-0.016412 0.040133 0.862000
-0.022627 -0.006861 0.883000
0.030402 0.015653 0.882000
-0.013192 0.000771 0.884000
0.009176 0.012874 0.866000
-0.008117 -0.011625 0.886000
-0.030191 0.012735 0.881000
-0.010669 -0.011261 0.886000
0.027104 -0.028602 0.881000
0.031128 -0.034443 0.882000
-0.032528 0.031052 0.866000
0.005023 -0.027733 0.888000
0.020630 0.000757 0.868000
0.046533 -0.005056 0.885000
0.029834 0.009057 0.876000
0.000621 0.038849 0.865000
0.031815 -0.011429 0.871000
0.029238 -0.002818 0.869000
0.004995 -0.016674 0.883000
0.016892 -0.015495 0.878000
-0.022534 0.042473 0.852000
-0.012814 0.002951 0.883000
0.031852 -0.042666 0.872000
-0.001561 -0.030394 0.891000
0.017792 0.001474 0.869000
0.010761 -0.006830 0.879000
0.022597 -0.014002 0.875000
0.012699 -0.026637 0.888000
-0.022938 0.007296 0.881000
0.006339 0.011118 0.868000
0.038400 -0.006792 0.874000
0.007893 -0.017381 0.882000
-0.022087 0.022397 0.876000
-0.029340 0.035210 0.846000
-0.003732 -0.036340 0.884000
0.008649 -0.023268 0.885000
-0.000461 -0.029660 0.891000
-0.041023 0.010547 0.880000
-0.021950 -0.003235 0.885000
0.014363 -0.013327 0.878000
0.030298 -0.027814 0.879000
-0.031350 0.032365 0.863000
0.043387 -0.016485 0.873000
-0.034425 0.020641 0.878000
-0.017943 -0.001778 0.885000
0.031057 -0.030018 0.880000
0.012008 -0.038095 0.891000
0.009165 0.026032 0.865000
0.016078 0.026273 0.873000
-0.006300 -0.009813 0.887000
-0.004344 0.032999 0.861000
-0.011206 0.017609 0.871000
-0.023288 0.035370 0.867000
0.021443 -0.007135 0.872000
0.018614 -0.009669 0.874000
-0.015029 -0.000685 0.885000
-0.001554 -0.020400 0.887000
-0.006864 0.024993 0.866000
0.030367 -0.031140 0.881000
0.015605 -0.033178 0.887000
-0.031390 0.025943 0.874000
0.022237 0.019851 0.875000
-0.026561 0.032590 0.869000
-0.013889 0.005126 0.882000
-0.008472 -0.001413 0.885000
-0.003292 0.026358 0.864000
0.022177 -0.036829 0.887000
0.028063 0.013399 0.877000
0.039522 0.002951 0.883000
0.022520 -0.007853 0.872000
0.025927 -0.021639 0.878000
-0.012394 -0.033240 0.879000
0.011034 0.032703 0.872000
-0.029332 0.020979 0.877000
-0.035348 0.008766 0.883000
-0.000094 -0.026330 0.890000
0.011671 0.011092 0.866000
-0.014316 -0.009802 0.886000
0.001683 0.028780 0.862000
0.000626 0.011900 0.873000
0.025507 -0.018705 0.876000
-0.022289 0.000771 0.884000
0.000974 0.036273 0.863000
0.002420 0.045623 0.872000
0.010996 0.006123 0.869000
0.025595 0.019941 0.879000
0.002092 -0.013434 0.885000
0.012814 0.001477 0.871000
0.017856 -0.039517 0.890000
0.010971 0.009678 0.867000
-0.008232 0.037562 0.860000
0.015844 -0.018791 0.880000
-0.020284 0.014105 0.876000
-0.018080 0.020547 0.874000
0.001347 0.049325 0.874000
0.013248 -0.004644 0.876000
-0.015885 0.022295 0.872000
-0.011064 0.040394 0.860000
0.011022 0.003269 0.871000
0.011060 0.034936 0.874000
0.010411 -0.013358 0.880000
-0.004105 -0.010531 0.886000
0.035002 -0.036135 0.879000
0.027481 -0.006760 0.870000
-0.010465 0.021503 0.869000
0.047208 -0.006869 0.884000
0.015292 -0.041715 0.890000
-0.005514 -0.041875 0.878000
0.043387 -0.017922 0.873000
0.002462 -0.022591 0.887000
0.030845 0.004360 0.874000
0.006492 -0.039473 0.889000
0.008088 0.018534 0.864000
0.017431 -0.045590 0.887000
0.000265 0.043985 0.868000
-0.032804 0.009493 0.883000
0.003185 -0.020354 0.885000
-0.000812 0.012274 0.874000
-0.035348 0.011673 0.883000
0.006434 -0.006483 0.881000
0.011873 -0.018812 0.881000
0.033079 -0.024113 0.876000
0.004899 0.034260 0.866000
-0.029780 0.030802 0.869000
-0.009003 0.025706 0.866000
-0.022422 0.023452 0.875000
-0.028773 -0.002135 0.882000
0.036241 -0.003554 0.874000
0.028880 -0.004607 0.869000
-0.001898 0.009789 0.877000
0.002789 0.006886 0.875000
0.019300 -0.041668 0.889000
-0.025517 0.030121 0.870000
-0.022320 0.026571 0.871000
-0.018481 0.013383 0.876000
0.028554 -0.029327 0.881000
0.004302 -0.029627 0.890000
0.030416 -0.012877 0.872000
-0.031021 0.005501 0.884000
0.022800 -0.001388 0.869000
0.006441 -0.013751 0.882000
-0.018983 0.033904 0.866000
-0.039619 0.011284 0.881000
-0.021652 0.025195 0.873000
0.027892 -0.033028 0.883000
0.011237 -0.031388 0.888000
-0.020053 0.034616 0.866000
-0.005053 0.042922 0.861000
-0.018266 -0.011949 0.883000
-0.022314 -0.002142 0.885000
-0.038575 0.014927 0.882000
0.047261 -0.005420 0.885000
-0.032183 0.023479 0.876000
-0.039982 0.015998 0.881000
-0.009107 -0.039977 0.876000
0.017595 0.029642 0.877000
-0.019318 0.035645 0.865000
0.021615 0.025368 0.879000
-0.020053 0.033904 0.866000
0.005261 0.014316 0.867000
-0.002279 -0.037474 0.885000
-0.007761 -0.018210 0.887000
-0.011232 0.014416 0.873000
-0.005176 -0.036984 0.882000
0.002092 -0.012705 0.885000
0.027671 0.011941 0.876000
0.030625 -0.025975 0.878000
-0.014791 0.020477 0.871000
-0.019225 0.012316 0.877000
0.012236 -0.019174 0.881000
0.015017 0.028821 0.874000
-0.036034 0.013838 0.882000
-0.020838 0.029371 0.869000
0.036834 -0.012146 0.871000
-0.027983 0.013807 0.880000
0.031062 -0.010699 0.870000
0.008620 -0.018470 0.882000
0.005310 0.005085 0.875000
0.018359 -0.018046 0.879000
0.011927 -0.023268 0.885000
0.015985 0.004687 0.868000
-0.030554 0.012009 0.881000
0.015447 -0.015495 0.878000
0.020506 0.025701 0.878000
-0.014604 0.041456 0.860000
-0.031426 0.023812 0.875000
-0.003025 -0.031458 0.890000
-0.000804 0.041697 0.865000
-0.009117 -0.041106 0.877000
-0.026143 0.015962 0.879000
0.021084 0.017270 0.872000
0.012556 -0.007545 0.878000
-0.009003 0.025349 0.866000
0.003138 0.010451 0.872000
0.011860 -0.016980 0.880000
-0.001523 0.047255 0.869000
-0.028447 0.028037 0.872000
-0.001168 0.014024 0.871000
-0.004465 -0.005784 0.885000
-0.005064 0.045152 0.863000
-0.001184 -0.040297 0.883000
0.018508 0.017568 0.869000
0.003461 0.023130 0.863000
-0.025419 0.019218 0.879000
-0.015010 0.036983 0.863000
-0.013250 0.032403 0.864000
-0.002235 0.018263 0.868000
0.014925 -0.039517 0.890000
0.016663 -0.028732 0.885000
-0.016430 0.006215 0.882000
-0.002655 -0.032155 0.889000
0.011900 -0.021762 0.883000
0.017495 -0.004264 0.872000
-0.014808 0.019783 0.872000
-0.033598 0.034616 0.866000
-0.016812 -0.013040 0.883000
-0.021404 0.040890 0.863000
-0.008481 -0.011990 0.886000
-0.005199 -0.008708 0.886000
-0.014155 0.011220 0.876000
-0.027019 0.000044 0.884000
0.042619 -0.018979 0.872000
-0.021528 0.031481 0.868000
0.017575 0.028166 0.876000
-0.008108 -0.030189 0.885000
0.029246 -0.039798 0.880000
0.026832 -0.035249 0.884000
0.039119 -0.007151 0.874000
0.017756 -0.025454 0.885000
-0.002970 0.012274 0.874000
0.013064 -0.043449 0.888000
0.044872 -0.007571 0.881000
0.003461 0.028458 0.863000
-0.013418 0.012288 0.875000
0.006376 0.006511 0.873000
-0.040661 0.013445 0.880000
0.033211 -0.008551 0.870000
0.010529 -0.035122 0.890000
-0.005788 0.025676 0.865000
0.010234 0.016064 0.865000
0.028586 -0.032991 0.882000
0.005407 -0.032594 0.891000
0.032644 -0.019382 0.874000
-0.023726 0.029763 0.870000
-0.034582 0.013112 0.882000
0.002763 0.015030 0.867000
0.006310 0.026713 0.864000
-0.013280 0.029983 0.866000
-0.034905 0.015273 0.881000
0.024175 -0.022412 0.880000
-0.032440 0.006222 0.883000
-0.001865 0.028780 0.862000
0.007885 -0.015186 0.881000
0.028982 -0.039206 0.883000
-0.028641 0.035727 0.867000
-0.025506 -0.003950 0.882000
0.040466 -0.017902 0.872000
-0.009467 0.012662 0.876000
-0.024836 -0.002503 0.884000
-0.034464 0.019580 0.879000
0.014081 -0.021399 0.883000
0.016682 -0.024024 0.886000
0.045337 -0.005771 0.883000
0.012741 0.022498 0.866000
-0.028474 0.004410 0.884000
0.016206 -0.018791 0.880000
0.038312 -0.017184 0.872000
0.013702 -0.020285 0.882000
0.032891 -0.013580 0.871000
0.020670 -0.033103 0.885000
-0.007212 0.026032 0.865000
0.007021 0.018534 0.864000
0.025333 -0.006044 0.870000
-0.020621 0.017690 0.875000
-0.004354 0.044442 0.863000
0.002106 -0.034428 0.891000
0.002456 -0.014891 0.885000
0.017066 -0.044495 0.887000
-0.037018 0.026213 0.871000
0.014875 -0.025876 0.887000
-0.013222 -0.003603 0.886000
0.014948 0.001833 0.870000
-0.033288 0.032190 0.849000
0.030005 0.015635 0.881000
0.020670 -0.044031 0.885000
0.039030 -0.018979 0.872000
-0.012169 0.034852 0.863000
-0.028577 0.022037 0.876000
-0.005942 -0.020058 0.888000
-0.006832 0.031618 0.862000
-0.002279 -0.008698 0.885000
0.043387 -0.017204 0.873000
0.037637 -0.021875 0.873000
0.021418 -0.004976 0.871000
-0.008940 0.042164 0.860000
-0.025086 0.010185 0.880000
0.031491 -0.036258 0.882000
0.008590 -0.005383 0.879000
-0.027228 0.015600 0.879000
-0.006681 -0.027398 0.889000
-0.008034 -0.041828 0.877000
0.022905 -0.009658 0.873000
-0.011511 0.026449 0.867000
0.032137 -0.011415 0.870000
0.012727 -0.036953 0.890000
-0.023248 0.011259 0.879000
-0.031503 0.032501 0.848000
0.028651 -0.037796 0.884000
-0.011335 -0.031503 0.881000
0.002824 -0.022201 0.886000
-0.000822 -0.010520 0.885000
-0.025188 0.028005 0.871000
0.017490 -0.039884 0.890000
-0.012553 0.030660 0.865000
-0.025708 -0.006542 0.889000
0.002415 0.042654 0.870000
0.025003 0.010439 0.871000
0.023845 -0.000314 0.868000
0.010996 0.028656 0.869000
0.016663 -0.023268 0.885000
0.010129 -0.025146 0.887000
0.022059 0.010760 0.868000
0.041638 -0.011108 0.874000
0.010003 -0.000317 0.876000
-0.036718 0.017448 0.881000
0.007241 -0.035894 0.891000
-0.005835 0.015117 0.872000
0.020030 0.020165 0.873000
0.040295 -0.002139 0.884000
-0.014961 0.007296 0.881000
0.011393 0.002196 0.872000
0.027092 -0.002818 0.869000
0.017856 -0.041715 0.890000
0.017756 -0.029461 0.885000
0.000271 -0.014907 0.886000
-0.005949 -0.029228 0.889000
0.015952 -0.029858 0.886000
0.002456 -0.018897 0.885000
0.017756 -0.028368 0.885000
-0.029399 0.015962 0.879000
0.022442 0.011846 0.869000
0.044156 -0.016144 0.874000
0.041059 -0.007176 0.877000
-0.012239 0.025408 0.868000
0.024617 -0.006044 0.870000
-0.003753 -0.031423 0.889000
0.028198 -0.007477 0.870000
-0.024687 0.036755 0.866000
0.000618 0.030909 0.862000
-0.038212 0.012749 0.882000
-0.012901 -0.032887 0.889000
0.031062 -0.009625 0.870000
-0.031534 0.019919 0.878000
-0.004374 0.020383 0.867000
-0.012858 -0.009073 0.886000
0.018254 0.023785 0.874000
0.010590 0.023896 0.865000
0.022288 -0.016561 0.877000
0.031134 -0.013954 0.872000
0.005334 0.039839 0.879000
-0.005445 0.020740 0.867000
0.040466 -0.016466 0.872000
0.037193 -0.011070 0.871000
0.005358 -0.013767 0.883000
0.018529 0.018663 0.870000
-0.018562 0.039824 0.863000
-0.007396 -0.014924 0.887000
-0.003635 0.039732 0.861000
-0.007031 -0.029527 0.887000
0.003816 0.024196 0.863000
0.022059 0.000043 0.868000
-0.036801 0.010946 0.883000
-0.019318 0.035289 0.865000
0.006113 -0.025146 0.887000
0.008809 0.026388 0.865000
-0.019765 0.029371 0.869000
-0.001558 -0.033253 0.889000
-0.036760 0.014564 0.882000
-0.010014 0.037606 0.861000
0.007021 0.024580 0.864000
0.030590 -0.023058 0.877000
-0.011090 0.035876 0.862000
0.015412 -0.010773 0.876000
-0.008414 -0.036496 0.879000
-0.025898 -0.002500 0.883000
0.022752 -0.019537 0.881000
-0.027290 0.010196 0.881000
-0.016030 0.008374 0.880000
-0.033530 0.009493 0.883000
0.004297 -0.039473 0.889000
0.025176 0.017369 0.877000
0.013082 0.012503 0.865000
0.012347 -0.035082 0.889000
0.020987 0.002186 0.868000
-0.037806 0.006933 0.881000
0.026377 -0.002818 0.869000
-0.002940 0.023184 0.865000
-0.016012 0.009088 0.879000
-0.031385 0.006957 0.884000
0.010946 0.019980 0.865000
0.003935 -0.029261 0.890000
0.003181 -0.016329 0.884000
-0.013265 0.031016 0.865000
-0.024444 0.003314 0.883000
-0.019901 0.019851 0.875000
0.034032 0.010208 0.882000
0.010245 0.012518 0.866000
0.012014 0.015708 0.865000
0.029902 -0.040069 0.878000
-0.011827 0.032758 0.864000
0.013188 0.028755 0.872000
0.013842 0.005759 0.868000
0.026498 0.010463 0.873000
0.022726 0.024673 0.880000
0.014193 -0.036587 0.890000
-0.004824 -0.035249 0.884000
0.000624 0.045877 0.870000
-0.002575 0.030199 0.862000
-0.009940 -0.024024 0.886000
0.022545 -0.009299 0.873000
0.028031 0.011220 0.876000
0.026796 -0.008561 0.871000
-0.016412 0.039778 0.862000
0.007893 -0.011936 0.882000
0.028556 0.002908 0.870000
-0.027952 0.017047 0.879000
-0.022112 0.018813 0.877000
-0.000801 0.033037 0.862000
0.022102 -0.043617 0.884000
0.018974 -0.010389 0.874000
-0.001510 0.035876 0.862000
0.017195 0.026693 0.875000
-0.028708 0.012358 0.880000
0.008088 0.018179 0.864000
-0.002584 0.023184 0.865000
0.028262 -0.012518 0.872000
0.029709 -0.038116 0.883000
-0.007046 -0.021910 0.889000
0.012014 0.014639 0.865000
0.023264 -0.010736 0.873000
-0.001883 0.049816 0.870000
0.039389 -0.013236 0.872000
0.004673 -0.037728 0.891000
0.010140 -0.027367 0.888000
0.013438 0.017132 0.865000
0.015240 -0.033178 0.887000
0.011302 0.017844 0.865000
-0.029103 0.011647 0.881000
0.003181 -0.018148 0.884000
-0.025539 0.039435 0.847000
-0.021558 0.045086 0.855000
-0.001880 0.016138 0.869000
0.007419 0.008269 0.869000
-0.009221 -0.018210 0.887000
-0.011591 0.015134 0.873000
0.019223 0.016495 0.869000
0.010049 -0.008649 0.880000
-0.029499 0.000044 0.882000
0.014931 0.023291 0.869000
-0.029169 0.007676 0.883000
0.001333 0.038493 0.865000
0.020328 -0.049550 0.886000
0.011123 -0.009725 0.879000
-0.004845 -0.020789 0.888000
-0.032077 0.005132 0.883000
-0.005815 0.017568 0.869000
-0.022912 0.009460 0.880000
0.026437 -0.009636 0.871000
0.037235 -0.008212 0.872000
0.020030 0.019805 0.873000
-0.003001 -0.038843 0.883000
0.005358 -0.015220 0.883000
-0.018207 0.039469 0.863000
0.002401 0.036713 0.865000
0.021471 -0.042718 0.888000
-0.005929 -0.008343 0.886000
-0.005570 -0.018210 0.887000
-0.031713 0.006949 0.883000
-0.010847 0.018684 0.871000
0.042717 -0.013267 0.874000
0.011098 0.039388 0.877000
-0.030711 0.033152 0.865000
0.020483 -0.015839 0.877000
-0.001554 -0.013464 0.887000
-0.021029 0.013760 0.877000
0.038795 0.004768 0.883000
0.037172 0.001852 0.879000
-0.021122 0.034260 0.866000
-0.038531 0.009834 0.881000
-0.018648 0.031088 0.867000
0.013127 0.023979 0.868000
-0.015358 -0.014493 0.883000
-0.001192 -0.024105 0.889000
0.018742 -0.018066 0.880000
0.004287 -0.025146 0.887000
0.023623 -0.010018 0.873000
0.023542 -0.046507 0.870000
0.029970 -0.039435 0.880000
-0.019537 0.046357 0.859000
0.002423 0.010822 0.873000
0.017175 -0.007871 0.874000
-0.019878 0.024504 0.874000
-0.000446 0.031264 0.862000
-0.014689 0.032084 0.865000
-0.013810 0.010872 0.877000
-0.006123 0.031973 0.862000
-0.000446 0.027716 0.862000
-0.015410 -0.008343 0.886000
-0.023590 0.039205 0.865000
-0.000092 0.014349 0.869000
-0.015149 0.026571 0.871000
-0.009338 0.031336 0.864000
-0.020739 0.007287 0.880000
0.026346 -0.001029 0.868000
0.024871 -0.023111 0.879000
0.029988 -0.008193 0.870000
0.017027 -0.026182 0.885000
0.005249 0.032440 0.865000
-0.013372 0.017988 0.872000
-0.028707 0.031875 0.869000
0.033554 0.007641 0.879000
0.022161 -0.049485 0.872000
0.005401 -0.038418 0.890000
-0.024302 0.039205 0.865000
0.028619 -0.034482 0.883000
0.013826 0.007180 0.867000
0.020273 0.000400 0.868000
-0.025575 0.025884 0.872000
0.030810 -0.016126 0.873000
0.014724 -0.014050 0.878000
-0.008232 0.042518 0.860000
0.024258 -0.005686 0.870000
0.040466 -0.015031 0.872000
0.018974 -0.010029 0.874000
-0.010282 -0.001048 0.884000
0.017411 -0.030952 0.886000
0.015240 -0.026972 0.887000
-0.039846 0.020280 0.878000
0.024370 0.015152 0.874000
0.019896 -0.026123 0.883000
-0.002967 0.013697 0.873000
-0.009738 0.022193 0.868000
-0.002282 -0.011261 0.886000
-0.022885 0.042473 0.852000
0.005599 0.028847 0.864000
0.016661 0.014300 0.866000
0.031057 0.012358 0.880000
0.047827 -0.014114 0.882000
0.033478 0.004375 0.877000
-0.014316 -0.002144 0.886000
-0.016774 0.006570 0.881000
0.023477 -0.026427 0.881000
0.016006 -0.036912 0.889000
0.028523 -0.006037 0.869000
0.014330 0.033213 0.876000
0.009044 -0.028098 0.888000
0.003473 0.016439 0.866000
0.043108 -0.003224 0.882000
-0.027166 0.021340 0.877000
0.021248 -0.051101 0.894000
-0.021810 0.036357 0.865000
-0.036075 0.013127 0.883000
-0.037849 0.015290 0.882000
-0.005451 0.020406 0.868000
-0.043049 0.019535 0.877000
0.040930 -0.003224 0.882000
-0.021049 0.046573 0.863000
0.028654 0.006511 0.873000
-0.020128 -0.004327 0.885000
-0.032766 0.011660 0.882000
0.045442 -0.012605 0.878000
-0.033054 0.016704 0.880000
0.024065 0.017349 0.876000
-0.009211 -0.012719 0.886000
0.043372 -0.005752 0.880000
0.029047 -0.016864 0.874000
-0.027914 0.037603 0.845000
0.028198 0.003982 0.870000
-0.015029 -0.002506 0.885000
0.019829 -0.048490 0.880000
-0.005426 0.026713 0.864000
0.042260 -0.018620 0.872000
-0.026918 0.031875 0.869000
0.013218 -0.001755 0.874000
0.029732 -0.015407 0.873000
0.030625 -0.025252 0.878000
0.000985 0.047418 0.872000
-0.007943 0.024308 0.867000
0.010411 -0.011184 0.880000
-0.002644 -0.009063 0.885000
0.033249 -0.002466 0.871000
0.017116 0.021552 0.871000
0.001006 -0.032594 0.891000
0.035800 -0.004623 0.872000
-0.035630 0.004395 0.881000
0.014879 0.011092 0.866000
-0.001510 0.031973 0.862000
-0.008846 -0.007249 0.886000
-0.005193 -0.034560 0.885000
0.002833 -0.027032 0.889000
-0.030741 0.022758 0.876000
0.010859 -0.025146 0.887000
0.014150 0.013571 0.865000
0.016317 -0.026577 0.886000
-0.025905 0.029081 0.871000
-0.021776 0.012330 0.878000
-0.014300 -0.001413 0.885000
-0.003635 0.036543 0.861000
0.018129 0.016119 0.868000
-0.026949 0.030838 0.870000
-0.017578 0.031088 0.867000
-0.015885 0.021577 0.872000
-0.023583 0.013414 0.878000
0.028621 0.005427 0.872000
0.006140 -0.036995 0.891000
0.049811 -0.009427 0.885000
-0.042785 0.013791 0.879000
-0.000092 0.019290 0.866000
0.015967 0.018955 0.867000
-0.000446 0.033392 0.862000
0.003856 0.043829 0.872000
0.007777 0.008269 0.869000
0.031348 -0.026337 0.878000
0.016661 0.012161 0.866000
0.027903 -0.011083 0.872000
-0.011604 0.014072 0.874000
0.008294 -0.004332 0.886000
0.012333 -0.032850 0.888000
0.008172 0.035615 0.873000
0.003573 -0.031861 0.891000
0.008238 -0.006114 0.880000
0.030416 0.002555 0.872000
-0.001921 -0.033946 0.888000
0.027373 0.014859 0.878000
0.019334 0.022346 0.874000
-0.022217 0.033943 0.867000
0.009957 0.033780 0.872000
-0.015271 0.009800 0.878000
0.036200 -0.019000 0.873000
0.041923 -0.004665 0.880000
0.009208 0.030802 0.869000
0.000267 0.012619 0.873000
-0.005781 0.028491 0.864000
0.026045 -0.030087 0.882000
0.013142 0.025795 0.869000
0.022957 -0.014362 0.875000
0.026139 0.011182 0.873000
0.025770 -0.036746 0.885000
-0.018650 -0.009780 0.884000
0.009522 0.023896 0.865000
-0.003281 0.037606 0.861000
-0.023556 0.021701 0.877000
0.034364 -0.017543 0.872000
0.041750 0.000771 0.884000
-0.025506 0.006578 0.882000
-0.014482 0.014432 0.874000
-0.012338 0.012648 0.875000
0.019783 -0.016580 0.878000
-0.026499 0.036084 0.867000
-0.025101 0.033625 0.868000
-0.017214 -0.002506 0.885000
0.009441 -0.035894 0.891000
0.017332 -0.020285 0.882000
-0.008025 0.012302 0.876000
0.037235 -0.008571 0.872000
0.014875 -0.031352 0.887000
0.012556 -0.008268 0.878000
0.000978 0.019646 0.866000
-0.011909 0.021528 0.870000
-0.037081 0.016723 0.881000
-0.007761 -0.016750 0.887000
0.048916 -0.011573 0.882000
0.011860 -0.016255 0.880000
-0.009221 -0.023686 0.887000
0.026407 0.006846 0.870000
-0.007321 -0.039346 0.878000
0.012961 -0.018449 0.881000
0.005249 0.031728 0.865000
-0.017811 0.042213 0.861000
0.023488 0.003615 0.868000
-0.027073 0.024504 0.874000
0.003900 -0.008306 0.882000
-0.024389 0.008383 0.881000
-0.030776 0.020979 0.877000
0.034522 0.002567 0.876000
-0.016641 0.015511 0.874000
0.007045 0.011819 0.867000
0.023272 -0.040479 0.887000
0.008502 0.006846 0.870000
0.018822 0.003968 0.867000
0.015240 -0.024781 0.887000
0.035202 -0.022645 0.875000
-0.001867 0.040890 0.863000
-0.006912 0.014758 0.872000
0.013795 -0.043449 0.888000
-0.010621 -0.031539 0.882000
-0.016767 0.038714 0.862000
-0.012998 0.018326 0.871000
